# .PCD v0.7 - Point Cloud Data file format
VERSION 0.7
FIELDS x y z intensity normal_x normal_y normal_z curvature
SIZE 4 4 4 4 4 4 4 4
TYPE F F F F F F F F
COUNT 1 1 1 1 1 1 1 1
WIDTH 927
HEIGHT 1
VIEWPOINT 0 0 0 1 0 0 0
POINTS 927
DATA ascii
-3.2050445 -3.2664487 -0.50596696 59 0 0 0 13.717893
-3.4502239 -3.2773821 -0.12335881 76 0 0 0 13.732734
-3.188777 -3.2531402 -0.23804583 71 0 0 0 13.747575
-2.9522943 -3.23033 -0.34547219 58 0 0 0 13.762416
-2.7299521 -3.2131791 -0.45277566 58 0 0 0 13.777257
-2.9606583 -3.2232203 -0.12132133 75 0 0 0 13.792098
-2.7332079 -3.2052274 -0.22067545 75 0 0 0 13.806939
-2.525732 -3.1877723 -0.31581807 67 0 0 0 13.82178
-2.3232443 -3.1701996 -0.40990701 63 0 0 0 13.836621
-2.5423319 -3.1773221 -0.12056517 105 0 0 0 13.851462
-2.3367355 -3.1588595 -0.20668301 88 0 0 0 13.866303
-2.1502075 -3.1439486 -0.2906141 80 0 0 0 13.881144
-1.9406521 -3.0896091 -0.36759579 37 0 0 0 13.895985
-0.85619926 -3.0060799 -0.26882234 83 0 0 0 13.900362
-2.1740491 -3.1322024 -0.12027957 128 0 0 0 13.910826
-1.0430857 -3.0192475 -0.13286813 111 0 0 0 13.915203
-1.9624285 -3.0769289 -0.19327906 48 0 0 0 13.925667
-0.89918047 -3.0085196 -0.17136133 99 0 0 0 13.930044
-1.7938622 -3.0656395 -0.26503578 38 0 0 0 13.940508
-0.76213986 -2.9916196 -0.21075039 96 0 0 0 13.944885
-1.6283194 -3.0552762 -0.33676505 39 0 0 0 13.955349
-0.6252194 -2.9797161 -0.25016344 99 0 0 0 13.959726
-1.8251013 -3.0585909 -0.12064783 47 0 0 0 13.97019
-0.80835366 -2.9928677 -0.13725047 110 0 0 0 13.974567
-1.6615916 -3.0532165 -0.18437998 42 0 0 0 13.985031
-0.67136055 -2.9820077 -0.16766916 104 0 0 0 13.989408
-1.5218015 -3.0762668 -0.25099948 86 0 0 0 13.999872
-0.53919572 -2.9630191 -0.19999589 108 0 0 0 14.004249
-1.3620164 -3.0598016 -0.31363696 77 0 0 0 14.014713
-0.40727076 -2.9540262 -0.23237026 97 0 0 0 14.01909
-1.5593377 -3.0729764 -0.1255644 112 0 0 0 14.029554
-0.58565342 -2.967185 -0.14250937 122 0 0 0 14.033931
-1.4006343 -3.0635235 -0.18022503 87 0 0 0 14.044395
-0.45365566 -2.9592354 -0.16588935 103 0 0 0 14.048772
-1.2498432 -3.0498741 -0.23578006 94 0 0 0 14.059236
-0.3265689 -2.9461515 -0.19219144 105 0 0 0 14.063613
-1.0999457 -3.0322051 -0.29030579 85 0 0 0 14.074077
-0.19647263 -2.9331427 -0.21752656 110 0 0 0 14.078454
-1.2925953 -3.0473719 -0.12829457 109 0 0 0 14.088918
-0.37210557 -2.9472709 -0.14870091 124 0 0 0 14.093295
-1.1417556 -3.0357635 -0.17486042 107 0 0 0 14.103759
-0.24405544 -2.9402564 -0.16504353 109 0 0 0 14.108136
-0.99992388 -3.0239339 -0.22232866 99 0 0 0 14.1186
-0.1187736 -2.9221568 -0.18430164 109 0 0 0 14.122977
0.0064709038 -2.9060605 -0.20256957 115 0 0 0 14.137818
-0.16553235 -2.9261804 -0.15481374 111 0 0 0 14.152659
-0.040297471 -2.9141216 -0.16510138 109 0 0 0 14.1675
0.082275122 -2.8869843 -0.1772857 141 0 0 0 14.182341
0.20213391 -2.8077857 -0.18518139 150 0 0 0 14.197182
0.036995783 -2.9059751 -0.16288966 127 0 0 0 14.212023
0.16140147 -2.8899245 -0.16614892 116 0 0 0 14.226864
0.27544498 -2.8056121 -0.16795668 150 0 0 0 14.241705
0.37461028 -2.6349485 -0.16317388 150 0 0 0 14.256546
0.2366194 -2.8816905 -0.17091607 117 0 0 0 14.271387
0.33575001 -2.6750629 -0.15595333 152 0 0 0 14.286228
0.44209665 -2.6215911 -0.15383248 150 0 0 0 14.301069
0.55561864 -2.602293 -0.15295956 38 0 0 0 14.31591
0.40185401 -2.627578 -0.16442832 150 0 0 0 14.330751
0.51439089 -2.6112943 -0.15555945 45 0 0 0 14.345592
0.6303243 -2.6180725 -0.15184271 8 0 0 0 14.360433
0.76106781 -2.6540604 -0.1474296 19 0 0 0 14.873529
0.71596289 -2.6519125 -0.1629315 17 0 0 0 14.903211
0.84074754 -2.6679044 -0.15336153 18 0 0 0 14.918052
0.96041495 -2.6487885 -0.1385618 17 0 0 0 14.932893
0.80138958 -2.6667929 -0.18993235 15 0 0 0 14.947734
0.91806275 -2.6506391 -0.16811465 17 0 0 0 14.962575
1.0403965 -2.6465971 -0.15141906 16 0 0 0 14.977416
1.1497905 -2.600266 -0.12837324 17 0 0 0 14.992257
1.0066013 -2.6575527 -0.20211136 14 0 0 0 15.007098
1.1338767 -2.6606731 -0.17550476 13 0 0 0 15.021939
1.2289078 -2.5890141 -0.14817783 34 0 0 0 15.03678
1.3536425 -2.5730717 -0.12044964 32 0 0 0 15.051621
1.199935 -2.601016 -0.21292895 28 0 0 0 15.066462
1.3207233 -2.5860131 -0.1781624 30 0 0 0 15.081303
1.4435617 -2.5670369 -0.14739898 29 0 0 0 15.096144
1.52328 -2.4710588 -0.10878571 36 0 0 0 15.110985
1.3628842 -2.4777632 -0.21808778 16 0 0 0 15.125826
1.5000161 -2.492162 -0.18064503 46 0 0 0 15.140667
1.6653659 -2.5382113 -0.14766605 21 0 0 0 15.155508
1.7993068 -2.5205469 -0.10503003 7 0 0 0 15.170349
1.6046135 -2.4863298 -0.2367581 66 0 0 0 15.18519
1.7674564 -1.6417513 -0.057326652 71 0 0 0 15.197066
1.7334923 -2.4735706 -0.18909138 29 0 0 0 15.200031
1.6623312 -1.6615759 -0.206296 69 0 0 0 15.211907
1.8663732 -2.4588842 -0.14545918 19 0 0 0 15.214872
1.7965925 -1.6749481 -0.15881793 161 0 0 0 15.226748
1.7517606 -1.5241152 -0.10058106 79 0 0 0 15.241589
1.819064 -2.4232461 -0.25077918 39 0 0 0 15.244554
1.869553 -1.5161078 -0.04981846 99 0 0 0 15.25643
1.9161422 -2.3637722 -0.19253583 30 0 0 0 15.259395
1.7389843 -1.5072838 -0.20836981 73 0 0 0 15.271271
1.7998 -1.457958 -0.15078343 82 0 0 0 15.286112
2.2302837 -2.369617 -0.087972432 24 0 0 0 15.289077
1.8752869 -1.4199498 -0.099413142 2 0 0 0 15.300953
1.957042 -2.2553723 -0.25545204 60 0 0 0 15.303918
2.008034 -1.4163138 -0.04383513 3 0 0 0 15.315794
2.0764284 -2.2264349 -0.19560303 51 0 0 0 15.318759
1.9028717 -1.4250115 -0.21975015 4 0 0 0 15.330635
1.9185028 -1.9149833 -0.12034059 13 0 0 0 15.3336
1.8663865 -1.3074403 -0.14976814 0 0 0 0 15.345476
3.0004814 -1.9622182 -0.14733802 8 0 0 0 15.360317
3.4256542 -2.0876107 -0.060577054 10 0 0 0 15.375158
2.1428351 -1.3784781 -0.24113704 0 0 0 0 15.389999
2.0806756 -1.2513504 -0.16082816 32 0 0 0 15.40484
3.0643096 -1.718606 -0.14083731 40 0 0 0 15.419681
3.5157766 -1.833619 -0.050312717 10 0 0 0 15.434522
4.4887452 -2.4534671 -0.49499822 74 0 0 0 15.449363
4.7540469 -2.4242923 -0.35673419 65 0 0 0 15.464204
3.4710772 -1.645992 -0.14991596 130 0 0 0 15.479045
3.3889508 -1.4885256 -0.0392389 50 0 0 0 15.493886
3.6381018 -1.6617188 -0.39383593 11 0 0 0 15.508727
3.3749244 -1.4351696 -0.24684441 8 0 0 0 15.523568
3.3092508 -1.3010951 -0.13646202 99 0 0 0 15.538409
3.2056732 -1.1611217 -0.028638011 42 0 0 0 15.55325
3.3381689 -1.2446847 -0.35652074 6 0 0 0 15.568091
3.172049 -1.0943503 -0.22696295 39 0 0 0 15.582932
3.2924249 -1.0405884 -0.12900417 58 0 0 0 15.597773
3.5192451 -1.01535 -0.0243454 53 0 0 0 15.612614
3.2947438 -0.96655369 -0.3486864 40 0 0 0 15.627455
3.3714612 -0.90383089 -0.23720753 10 0 0 0 15.642296
4.1889596 -1.0172877 -0.15867171 127 0 0 0 15.657137
4.0764518 -0.88823342 -0.020806182 20 0 0 0 15.682342
4.4558458 -0.96598053 -0.46836135 1 0 0 0 15.697183
5.8947868 -1.1458262 -0.40993229 5 0 0 0 15.712024
6.6220555 -1.1375203 -0.2438125 6 0 0 0 15.726865
5.7886505 -0.86203319 -0.020358507 0 0 0 0 15.741706
5.192543 -0.73962742 -0.54329962 6 0 0 0 15.756547
5.7103128 -0.6983422 -0.39473605 1 0 0 0 15.771388
5.6781712 -0.57942331 -0.20379108 0 0 0 0 15.786229
5.7358356 -0.46959296 -0.013870428 0 0 0 0 15.80107
5.2431712 -0.36655742 -0.54903358 13 0 0 0 15.815911
5.9902067 -0.31153721 -0.41190654 4 0 0 0 15.830752
6.9291921 -0.23210289 -0.24575265 8 0 0 0 15.845593
8.2777119 -0.12449151 -0.011925082 5 0 0 0 15.860434
4.9941297 0.01134155 -0.52447343 11 0 0 0 15.875275
4.9109659 0.089451753 -0.33817297 12 0 0 0 15.890116
4.8356838 0.17045875 -0.16894531 13 0 0 0 15.904957
4.7331228 0.2421184 -0.0044662855 15 0 0 0 15.919798
4.6210933 0.34303945 -0.48778567 15 0 0 0 15.934639
6.0978427 0.53851241 -0.42094386 5 0 0 0 15.94948
6.8359804 0.70660466 -0.2391682 15 0 0 0 15.964321
5.8288474 0.68890578 -0.0022495687 36 0 0 0 15.979162
5.320641 0.78339952 -0.5662809 6 0 0 0 15.994003
7.2767329 2.3928611 -0.0046658176 1 0 0 0 16.006298
6.1861696 0.9887712 -0.430718 2 0 0 0 16.008844
3.0984676 1.172915 -0.34372973 58 0 0 0 16.021139
7.0971789 1.2315327 -0.2486853 26 0 0 0 16.023685
3.0145869 1.1642965 -0.21985942 22 0 0 0 16.03598
7.0578341 1.3163445 -0.00082888588 127 0 0 0 16.038527
3.2455032 1.283515 -0.12076322 39 0 0 0 16.050821
5.3419042 1.1829088 -0.57397348 5 0 0 0 16.053368
3.3332903 1.3479642 -0.0043889494 42 0 0 0 16.065662
6.0900826 1.4139408 -0.42891914 4 0 0 0 16.068209
2.9671383 1.3740532 -0.33632496 104 0 0 0 16.080503
5.6607237 1.3838679 -0.2014121 2 0 0 0 16.08305
2.9557042 1.3877972 -0.22112812 68 0 0 0 16.095345
5.6332598 1.44261 -0.0008154019 43 0 0 0 16.097891
3.1293213 1.4943396 -0.12047549 41 0 0 0 16.110186
5.3644347 1.6006706 -0.58517063 4 0 0 0 16.112732
3.2909429 1.5950992 -0.0067211031 45 0 0 0 16.125027
6.1400247 1.8920951 -0.43911704 2 0 0 0 16.127571
2.3731921 1.3145994 -0.2761988 7 0 0 0 16.139868
7.1815028 2.2892349 -0.26041731 3 0 0 0 16.142412
2.3612761 1.3174471 -0.1820516 7 0 0 0 16.154709
2.287641 1.2917343 -0.091377839 0 0 0 0 16.16955
2.2878451 1.3043505 -0.0073141223 0 0 0 0 16.184391
2.1371169 1.3930509 -0.25626335 0 0 0 0 16.199232
2.1534076 1.4092952 -0.17235579 2 0 0 0 16.214073
2.2774184 1.5021019 -0.096236475 47 0 0 0 16.228914
2.2541764 1.4952503 -0.011015146 16 0 0 0 16.243755
2.2552469 1.7125611 -0.27997324 7 0 0 0 16.258596
2.5675929 1.9520987 -0.21416935 6 0 0 0 16.273438
2.598352 1.9819493 -0.11635089 5 0 0 0 16.288279
2.8754752 2.198159 -0.020279782 6 0 0 0 16.30312
2.672725 2.3459687 -0.02436512 31 0 0 0 16.362482
2.1079254 2.1402063 -0.28528303 102 0 0 0 16.377323
2.2140689 2.2374144 -0.20494975 34 0 0 0 16.392164
2.3183482 2.338649 -0.1205763 6 0 0 0 16.407005
2.3334897 2.3448822 -0.028705938 6 0 0 0 16.421846
1.7654895 2.0689831 -0.25193059 48 0 0 0 16.436687
1.8040071 2.0997658 -0.17819308 44 0 0 0 16.451529
1.8929535 2.1934173 -0.10769194 34 0 0 0 16.46637
1.9887917 2.2921197 -0.032295704 5 0 0 0 16.806684
1.6264036 2.2094352 -0.24778447 14 0 0 0 16.821524
1.6823858 2.262852 -0.17912644 14 0 0 0 16.836365
1.6879705 2.2543938 -0.10722597 14 0 0 0 16.851206
3.964462 5.2489033 -0.085191138 70 0 0 0 16.866049
1.3768158 2.1790836 -0.22622886 23 0 0 0 16.880888
1.4328599 2.2395427 -0.16653742 5 0 0 0 16.895727
1.4434712 2.2360067 -0.10266766 14 0 0 0 16.91057
3.4021163 5.2079096 -0.095301986 109 0 0 0 16.925411
1.1814421 2.2045283 -0.21198608 3 0 0 0 16.940252
1.1958728 2.195931 -0.15418303 10 0 0 0 16.955091
2.8390074 5.1494842 -0.23249124 98 0 0 0 16.969934
2.8876534 5.1607914 -0.10495958 111 0 0 0 16.984776
0.9654004 2.1553996 -0.19388467 12 0 0 0 16.999617
2.3147435 5.0690026 -0.3392064 63 0 0 0 17.014456
2.3583081 5.0834904 -0.22560446 65 0 0 0 17.029299
2.410929 5.1017866 -0.11508253 68 0 0 0 17.04414
1.8367238 5.031352 -0.42320898 91 0 0 0 17.058981
1.8870872 5.042738 -0.32169682 82 0 0 0 17.07382
1.930477 5.056293 -0.22209832 61 0 0 0 17.088661
1.9818542 5.0706811 -0.12558295 66 0 0 0 17.103504
1.4298497 4.9895358 -0.39399841 85 0 0 0 17.118343
0.87105113 5.25033 -0.17061791 92 0 0 0 17.12818
1.4790267 4.9990082 -0.30548352 92 0 0 0 17.133184
0.34852543 5.1860423 -0.34026226 81 0 0 0 17.143023
1.5319583 5.0434227 -0.22083767 13 0 0 0 17.148026
0.39818314 5.1896605 -0.28678316 95 0 0 0 17.157864
1.6522112 5.2803898 -0.14397654 8 0 0 0 17.162868
0.44389871 5.195365 -0.23225082 98 0 0 0 17.172705
1.0480847 4.9531407 -0.3670316 80 0 0 0 17.177708
0.49251327 5.1990271 -0.18276058 108 0 0 0 17.187544
1.1117276 5.0353851 -0.29631677 10 0 0 0 17.192549
-0.01372091 5.0851645 -0.3148216 20 0 0 0 17.202387
1.1910435 5.192306 -0.22840509 5 0 0 0 17.20739
0.035993166 5.3229604 -0.28619111 92 0 0 0 17.217228
1.2598652 5.2824359 -0.1577082 4 0 0 0 17.222233
0.081348345 5.3177161 -0.24170938 86 0 0 0 17.232067
0.72279346 5.2116299 -0.36322615 93 0 0 0 17.237072
0.12888846 5.3234534 -0.2031979 100 0 0 0 17.246908
0.77272952 5.2211866 -0.29672047 100 0 0 0 17.251911
-0.35614216 4.8407478 -0.28230041 12 0 0 0 17.261749
0.81865597 5.2308393 -0.23117083 95 0 0 0 17.266754
-0.31142214 4.859602 -0.25469393 3 0 0 0 17.276592
-0.26747778 4.8434567 -0.2252513 3 0 0 0 17.291431
-0.2229272 4.8563285 -0.20067282 4 0 0 0 17.306273
-0.70703655 4.8926802 -0.26922604 150 0 0 0 17.321114
-0.66593385 4.9346819 -0.25446701 61 0 0 0 17.335957
-0.6195783 4.896513 -0.2331595 55 0 0 0 17.350796
-0.56411099 4.821147 -0.21613479 81 0 0 0 17.365637
-1.1281686 5.2063308 -0.27009657 95 0 0 0 17.380478
-1.0790683 5.2081776 -0.26362288 100 0 0 0 17.395321
-1.036841 5.2151775 -0.25604889 94 0 0 0 17.41016
-0.98959011 5.2260928 -0.25451091 93 0 0 0 17.424999
-1.5011486 5.1646852 -0.25223699 91 0 0 0 17.439842
-1.4550978 5.1706624 -0.25871047 94 0 0 0 17.454683
-1.4121499 5.1706939 -0.26217923 87 0 0 0 17.469524
-1.3496267 5.109282 -0.26916409 85 0 0 0 17.484364
-1.857757 5.0496211 -0.23191424 21 0 0 0 17.499207
-1.8091099 5.0435905 -0.25047573 15 0 0 0 17.514048
-1.7692114 5.0477529 -0.26689166 15 0 0 0 17.528889
-1.7273337 5.0538983 -0.2893199 30 0 0 0 17.543728
-2.1391196 4.7647638 -0.20624417 22 0 0 0 17.558571
-2.1621959 4.9134874 -0.24326327 13 0 0 0 17.573412
-1.3601713 3.1464927 -0.17369828 0 0 0 0 17.588251
-1.322071 3.1196821 -0.19424658 1 0 0 0 17.657127
-2.6588175 4.9684644 -0.20056699 83 0 0 0 17.67197
-2.4637108 4.6771021 -0.23213062 61 0 0 0 17.686811
-2.4300492 4.6815066 -0.27047852 30 0 0 0 17.701653
-2.4309106 4.7587786 -0.32309246 19 0 0 0 17.716492
-3.1150346 4.9636612 -0.18760526 57 0 0 0 17.731335
-3.0873525 4.9803081 -0.24882898 101 0 0 0 17.746176
-3.009443 4.9127498 -0.30001432 86 0 0 0 17.761017
-3.0176044 4.9852614 -0.36957279 77 0 0 0 17.775856
-4.0162005 4.7846642 -0.1546267 41 0 0 0 17.850061
-3.8147488 4.5764184 -0.23585466 28 0 0 0 17.864904
-3.5849872 4.3284435 -0.29958606 60 0 0 0 17.879744
-3.6525896 4.440434 -0.39730245 52 0 0 0 17.894585
-4.1977334 4.3554339 -0.12874056 72 0 0 0 17.909426
-4.1916037 4.3677516 -0.2307521 71 0 0 0 17.924269
-4.1864314 4.3790622 -0.32675767 43 0 0 0 17.939108
-4.0678535 4.2737894 -0.42357555 70 0 0 0 17.953947
-4.8668761 4.4013762 -0.11718903 87 0 0 0 17.96879
-4.875916 4.4171343 -0.24101883 97 0 0 0 17.983631
-4.8721762 4.4195695 -0.35805327 89 0 0 0 17.998472
-8.0178089 5.3915353 -0.7629106 6 0 0 0 18.00655
-4.7880707 4.3512049 -0.4813146 64 0 0 0 18.013311
-7.8274536 4.5527506 -0.29306486 9 0 0 0 18.036232
-8.211669 6.4562278 -0.36752322 7 0 0 0 18.042995
-7.7821989 4.4876308 -0.49888876 6 0 0 0 18.051071
-8.1600447 6.4059477 -0.56934398 3 0 0 0 18.057837
-7.7440939 4.4247565 -0.72262478 7 0 0 0 18.065914
-8.1303177 6.3712659 -0.79285026 5 0 0 0 18.072676
-7.9360228 3.8997581 -0.27405778 10 0 0 0 18.095596
-8.1175661 5.5115108 -0.33116475 8 0 0 0 18.10236
-7.8889985 3.8286395 -0.48893088 7 0 0 0 18.110435
-8.0593204 5.4460993 -0.53713238 6 0 0 0 18.117201
-7.8554115 3.204483 -0.25132585 12 0 0 0 18.154961
-7.8116274 3.1244552 -0.47020739 8 0 0 0 18.1698
-7.7909198 3.0500298 -0.70681018 5 0 0 0 18.184643
-7.7936625 2.5606658 -0.23213407 11 0 0 0 18.214325
-7.7421107 2.471477 -0.45414573 10 0 0 0 18.229164
-7.7087049 2.384779 -0.69394785 4 0 0 0 18.244005
-7.7230687 1.9546771 -0.21585263 6 0 0 0 18.273687
-7.4226456 -1.1051209 0.097190514 9 0 0 0 18.938452
-7.4129515 -1.2652568 -0.15270987 16 0 0 0 18.953295
-7.3368325 -1.4088764 -0.39925942 16 0 0 0 18.968136
-4.3474627 -0.93704933 -0.39781189 0 0 0 0 18.982977
-7.3917794 -1.615139 0.10638731 11 0 0 0 18.997816
-7.348278 -1.7830098 -0.14692256 18 0 0 0 19.012657
-6.6512165 -4.1013451 0.12910813 13 0 0 0 19.021082
-7.2846155 -1.9453381 -0.39742681 15 0 0 0 19.0275
-6.5754271 -4.3489571 -0.12194608 11 0 0 0 19.035925
-7.3259568 -2.1279233 0.11418714 13 0 0 0 19.05718
-7.2627106 -2.3072267 -0.1403957 14 0 0 0 19.072021
-6.5833278 -4.7021589 0.13245568 11 0 0 0 19.080446
-6.50425 -4.9808345 -0.12178651 10 0 0 0 19.095287
-7.2644091 -2.6536083 0.12097179 10 0 0 0 19.116545
-3.7758625 -3.3204987 -0.40270227 55 0 0 0 19.124968
-7.215672 -2.8545811 -0.13655733 23 0 0 0 19.131386
-4.0374484 -3.3169906 0.08323288 7 0 0 0 19.139811
-7.396338 -3.1534348 -0.41004124 1 0 0 0 19.146229
-3.7447176 -3.3017621 -0.070920572 83 0 0 0 19.154652
-3.4727824 -3.2821171 -0.2148234 65 0 0 0 19.169493
-7.2072792 -3.1991973 0.12770881 14 0 0 0 19.175907
-3.2119105 -3.2662358 -0.35662314 67 0 0 0 19.184332
-7.1429043 -3.415503 -0.13306731 12 0 0 0 19.19075
-3.4682016 -3.2665877 0.073231228 76 0 0 0 19.199175
-6.9287624 -3.556118 -0.3891221 7 0 0 0 19.205591
-3.2031109 -3.2438226 -0.062581435 72 0 0 0 19.214016
-2.9599476 -3.2216091 -0.19015528 75 0 0 0 19.228855
-6.986773 -3.6833522 0.12994777 15 0 0 0 19.235271
-2.7309902 -3.2090871 -0.31662041 62 0 0 0 19.243696
-6.9086494 -3.9129753 -0.12804453 14 0 0 0 19.250114
-2.9707038 -3.2045827 0.065072149 93 0 0 0 19.258537
-6.5951433 -3.9967949 -0.37691629 2 0 0 0 19.264956
-2.7467673 -3.1959765 -0.055356771 81 0 0 0 19.27338
-2.5294983 -3.1752465 -0.16965306 88 0 0 0 19.288219
-2.3245237 -3.1672421 -0.2848765 78 0 0 0 19.303061
-2.5608323 -3.169631 0.056742474 95 0 0 0 19.317902
-2.3495071 -3.1497984 -0.050492983 92 0 0 0 19.332745
-2.1542103 -3.1336355 -0.15256979 92 0 0 0 19.347584
-1.9359959 -3.0769737 -0.25270173 43 0 0 0 19.362425
-1.3619242 -3.0578098 -0.20992945 83 0 0 0 19.363337
-2.1897082 -3.1228077 0.048894648 115 0 0 0 19.377266
-1.5805156 -3.0701449 0.035438795 103 0 0 0 19.378176
-1.9744714 -3.0681069 -0.045213994 47 0 0 0 19.392109
-1.4139686 -3.0554638 -0.04032781 93 0 0 0 19.393019
-1.7960496 -3.0516181 -0.13610353 47 0 0 0 19.406948
-1.25743 -3.0415664 -0.11498818 108 0 0 0 19.40786
-1.6227696 -3.0410111 -0.22796549 39 0 0 0 19.421787
-1.1009904 -3.0316613 -0.19066727 102 0 0 0 19.422701
-1.8399199 -3.0454931 0.04142794 51 0 0 0 19.43663
-1.3107603 -3.0390711 0.028626425 105 0 0 0 19.43754
-1.672748 -3.0437899 -0.042409811 47 0 0 0 19.451471
-1.1552216 -3.0291867 -0.038042437 102 0 0 0 19.452381
-1.5281851 -3.0695951 -0.12613279 96 0 0 0 19.466312
-1.0055712 -3.0141702 -0.10462165 106 0 0 0 19.467224
-0.85496551 -3.000164 -0.17321673 94 0 0 0 19.482063
-1.0620768 -3.0115294 0.023027238 103 0 0 0 19.496904
-0.91242671 -3.0005481 -0.035571568 101 0 0 0 19.511745
-0.76755565 -2.9784484 -0.096063882 109 0 0 0 19.526588
-0.62510163 -2.9752989 -0.1566222 114 0 0 0 19.541428
-0.82846707 -2.9866428 0.016579438 108 0 0 0 19.556269
-0.68469459 -2.9735603 -0.034944549 111 0 0 0 19.57111
-0.54704124 -2.9653387 -0.087425068 115 0 0 0 19.585953
-0.40526867 -2.9511998 -0.1409225 111 0 0 0 19.600792
-0.60583317 -2.960506 0.010257101 120 0 0 0 19.615631
-0.46812466 -2.954325 -0.033233766 113 0 0 0 19.630474
-0.33214194 -2.9340878 -0.079637557 115 0 0 0 19.645315
-0.1955653 -2.9318616 -0.12713601 117 0 0 0 19.660156
-0.39437237 -2.9421167 0.0040186713 116 0 0 0 19.674995
-0.2595861 -2.9359002 -0.032439955 118 0 0 0 19.689838
-0.12664646 -2.9206214 -0.072834581 120 0 0 0 19.704679
0.0083799213 -2.9013858 -0.11323322 110 0 0 0 19.719521
-0.18795469 -2.9256084 -0.002174801 117 0 0 0 19.73436
-0.055904731 -2.9103541 -0.032559436 121 0 0 0 19.749203
0.07402499 -2.8990388 -0.065940306 124 0 0 0 19.764044
0.20902948 -2.8838274 -0.10035856 109 0 0 0 19.778885
0.013704207 -2.8979852 -0.0082631065 115 0 0 0 19.793724
0.14478748 -2.8847384 -0.031647012 124 0 0 0 19.808565
0.27279437 -2.8724003 -0.060001969 114 0 0 0 19.823408
0.40682331 -2.8591979 -0.087419726 114 0 0 0 19.82975
0.21313506 -2.8803077 -0.014377157 122 0 0 0 19.844591
0.34326264 -2.8680644 -0.031755552 118 0 0 0 19.859432
0.47142276 -2.8517532 -0.054093011 131 0 0 0 19.874271
0.60648251 -2.8405964 -0.07553196 106 0 0 0 19.889114
0.41161811 -2.8606 -0.020471787 117 0 0 0 19.903955
0.54280025 -2.8483992 -0.032862339 116 0 0 0 19.918797
0.67206973 -2.831145 -0.047207549 114 0 0 0 19.933636
0.80726075 -2.8170142 -0.062633723 106 0 0 0 19.948479
0.61220866 -2.8359287 -0.026567021 109 0 0 0 19.96332
0.74347842 -2.8227532 -0.032954033 112 0 0 0 19.978161
0.8746931 -2.8105617 -0.042345684 103 0 0 0 19.993
1.0035623 -2.7693202 -0.049570177 150 0 0 0 20.007841
0.81761128 -2.8193502 -0.033756401 113 0 0 0 20.022684
0.95002311 -2.8032274 -0.03314187 108 0 0 0 20.037523
1.0692 -2.749789 -0.036200009 150 0 0 0 20.052364
1.1190116 -2.5308242 -0.033685867 46 0 0 0 20.067205
1.0243393 -2.7877884 -0.040889081 114 0 0 0 20.082048
1.0846355 -2.5960894 -0.031623177 150 0 0 0 20.096888
1.1852953 -2.5232692 -0.028382467 37 0 0 0 20.111729
1.3187273 -2.5081811 -0.023785122 17 0 0 0 20.12657
1.1321505 -2.5220244 -0.044790097 38 0 0 0 20.141413
1.2711257 -2.5320978 -0.032376032 16 0 0 0 20.156252
1.4160548 -2.5422802 -0.024028921 24 0 0 0 20.171091
1.5401428 -2.5010166 -0.011201036 17 0 0 0 20.185934
1.3502479 -2.5186949 -0.05318898 80 0 0 0 20.200775
1.4693056 -2.4823546 -0.033329029 72 0 0 0 20.215616
1.643522 -2.5292075 -0.018484524 22 0 0 0 20.230455
1.7892572 -2.50845 0.002003944 6 0 0 0 20.245298
1.5949899 -2.5319362 -0.061964944 21 0 0 0 20.260139
1.7424654 -2.5262458 -0.035568751 6 0 0 0 20.274981
1.7870172 -2.3752723 -0.012327594 5 0 0 0 20.28982
1.9226035 -2.3428726 0.015290218 6 0 0 0 20.923985
1.8430259 -2.5107954 -0.071646318 7 0 0 0 20.938824
1.8778179 -2.3536606 -0.035269964 9 0 0 0 20.953665
2.0167024 -2.3297527 -0.0066964272 9 0 0 0 20.968506
2.1159675 -2.3047009 -0.036683839 4 0 0 0 21.013027
1.9809726 -1.9948946 0.00031856721 31 0 0 0 21.02787
1.7491237 -1.6269768 0.031678744 43 0 0 0 21.042711
1.937429 -1.9805853 -0.076135859 33 0 0 0 21.057552
1.7360713 -1.6454067 -0.028271798 41 0 0 0 21.072392
1.8204609 -1.5993441 0.0050141807 59 0 0 0 21.087234
1.9138491 -1.5554918 0.042189494 51 0 0 0 21.102076
1.8202908 -1.614974 -0.07106737 150 0 0 0 21.116917
1.8634646 -1.5360607 -0.029163677 109 0 0 0 21.131756
1.982375 -1.5157647 0.0096134944 20 0 0 0 21.146599
1.885905 -1.4462813 -0.073985681 16 0 0 0 21.176279
3.6645358 -2.2422304 0.10738016 70 0 0 0 21.220804
3.4938664 -2.1428058 -0.049255919 12 0 0 0 21.250484
3.4942942 -1.2774249 0.12993737 49 0 0 0 21.256647
6.6231332 1.1843935 0.35803461 44 0 0 0 21.260992
3.8647797 -2.1960883 0.033361394 12 0 0 0 21.265326
3.2963223 -1.2759757 -0.13287397 83 0 0 0 21.271488
6.8840895 1.431945 -0.29872763 1 0 0 0 21.275831
3.84267 -2.0139668 0.12349226 0 0 0 0 21.280169
3.2171903 -1.1416597 -0.041339215 39 0 0 0 21.286329
5.8002472 1.2789285 -0.055390395 14 0 0 0 21.290674
3.1429353 -1.7668284 -0.12554362 9 0 0 0 21.295008
3.4736679 -1.1214997 0.044906735 8 0 0 0 21.301172
5.804091 1.3610361 0.1319721 18 0 0 0 21.305515
3.5303605 -1.8404392 -0.048209593 10 0 0 0 21.309849
4.1632166 -1.2157452 0.1647796 30 0 0 0 21.316011
5.8260393 1.4437224 0.32713631 43 0 0 0 21.320356
4.1918297 -2.0169699 0.04257575 30 0 0 0 21.32469
3.2840626 -1.0065757 -0.13344491 48 0 0 0 21.330853
6.9285674 1.9752934 -0.30262235 1 0 0 0 21.335196
3.4628427 -1.5306671 0.12104744 48 0 0 0 21.339533
3.557461 -0.99178547 -0.044413958 34 0 0 0 21.345694
5.6686177 1.6739306 -0.051036749 3 0 0 0 21.350039
3.4578054 -1.6303672 -0.13940026 64 0 0 0 21.354372
4.2035694 -1.0510155 0.060109008 31 0 0 0 21.360537
6.9019608 2.1238136 0.16641295 64 0 0 0 21.36488
3.3653262 -1.4667767 -0.044574972 47 0 0 0 21.369211
4.3657618 -0.96798837 0.18270959 16 0 0 0 21.375376
6.4720383 2.0690153 0.37794521 23 0 0 0 21.379721
3.2259371 -1.2911246 0.036830191 8 0 0 0 21.384054
4.2007737 -0.96582079 -0.17247196 108 0 0 0 21.390217
7.0580692 2.5698724 -0.31221864 8 0 0 0 21.39456
7.890913 -1.6168132 -0.093722284 9 0 0 0 21.405058
6.9170628 2.5797513 -0.059588622 31 0 0 0 21.409403
7.0834107 -1.2664499 0.1099755 4 0 0 0 21.419901
6.8385921 2.6243966 0.17351155 58 0 0 0 21.424244
7.0075765 -1.075179 0.30972815 26 0 0 0 21.43474
6.3997612 2.5192955 0.38778144 91 0 0 0 21.439083
6.6907668 -1.0386869 -0.27565521 5 0 0 0 21.449579
3.1473486 1.4098536 -0.13983199 40 0 0 0 21.453924
5.7706447 -0.76593333 -0.065201253 0 0 0 0 21.464422
3.2167814 1.4638762 -0.025328934 98 0 0 0 21.468765
6.1136398 -0.67096746 0.10349248 7 0 0 0 21.479263
3.3207479 1.5421661 0.089911237 64 0 0 0 21.483608
6.0426917 -0.52419436 0.27899173 6 0 0 0 21.494104
3.2984076 1.5591199 0.20824528 55 0 0 0 21.498447
5.7279449 -0.4730677 -0.23833786 0 0 0 0 21.508944
7.0827742 -0.44263235 -0.077092752 3 0 0 0 21.523787
6.7763128 -0.28194484 0.12206685 0 0 0 0 21.538628
3.2003191 1.7598451 0.091278806 0 0 0 0 21.542973
5.8902884 -0.1207521 0.28460547 22 0 0 0 21.553469
3.1463675 1.7504821 0.20583348 78 0 0 0 21.557812
6.8342676 -0.071180835 -0.28658995 6 0 0 0 21.568308
2.2569058 1.4317732 -0.10293883 22 0 0 0 21.572653
4.894618 0.037080936 -0.051702958 1 0 0 0 21.583151
2.2357242 1.424829 -0.014734444 4 0 0 0 21.587494
4.8551512 0.12830271 0.093179718 23 0 0 0 21.597992
2.2907009 1.4732938 0.069898747 4 0 0 0 21.602337
7.0376835 0.31775498 0.35308349 105 0 0 0 21.612831
3.0774903 1.9920473 0.21074909 9 0 0 0 21.617176
4.5891275 0.28136629 -0.19417876 9 0 0 0 21.627672
2.6490195 1.9616933 -0.12170647 4 0 0 0 21.632015
8.0936947 0.62644815 -0.082092151 2 0 0 0 21.642513
2.9184585 2.1605484 -0.017707936 6 0 0 0 21.646858
7.0407534 0.66684425 0.14370781 86 0 0 0 21.657356
2.8843391 2.1447742 0.093597449 30 0 0 0 21.661699
6.9745617 0.77930325 0.36399132 150 0 0 0 21.672195
5.7785568 4.3083401 0.41218868 10 0 0 0 21.67654
6.0179768 0.80752093 -0.25738811 0 0 0 0 21.687037
2.7309732 2.3411245 -0.12778693 74 0 0 0 21.69138
2.9029 2.484925 0.21703833 48 0 0 0 21.692816
5.7440815 0.85245675 -0.056144107 50 0 0 0 21.701878
2.7341521 2.3375471 -0.01383315 43 0 0 0 21.706223
2.3732793 2.3526657 -0.11179361 5 0 0 0 21.707657
5.8464003 0.95950234 0.12625545 42 0 0 0 21.716721
2.7263002 2.3352268 0.095247827 150 0 0 0 21.721064
2.3863657 2.3509324 -0.0099407211 6 0 0 0 21.722496
2.5835311 2.537318 0.09579251 34 0 0 0 21.737337
2.7256436 2.6677999 0.21486308 10 0 0 0 21.75218
1.9968567 2.2846122 -0.095982753 18 0 0 0 21.767019
2.154197 2.4409089 -0.005957373 35 0 0 0 21.78186
2.2072341 2.4873717 0.088687383 46 0 0 0 21.796701
4.8251467 5.4041257 0.40293357 101 0 0 0 21.811544
1.7084286 2.2637014 -0.082912453 8 0 0 0 21.826384
2.3074181 3.0178275 -0.0028715839 5 0 0 0 21.841225
4.0840693 5.2948947 0.18054259 91 0 0 0 21.856066
4.1941071 5.3847241 0.37277326 31 0 0 0 21.870909
1.458138 2.2499838 -0.072226614 14 0 0 0 21.885748
3.4433827 5.2263169 0.0032471076 116 0 0 0 21.900587
3.5048671 5.2562723 0.17072256 105 0 0 0 21.91543
3.5569415 5.266418 0.33920622 107 0 0 0 21.930271
2.8430808 5.1597295 -0.14447959 108 0 0 0 21.945112
2.91324 5.180553 0.010855598 103 0 0 0 21.959951
2.9703376 5.2006707 0.16233097 101 0 0 0 21.974794
3.0323601 5.21668 0.31473228 117 0 0 0 21.989635
2.3537979 5.0990109 -0.12239027 61 0 0 0 22.004477
2.4907737 5.2605238 0.017885091 21 0 0 0 22.019316
2.6711693 5.5321093 0.16621234 20 0 0 0 22.034159
2.6073122 5.2818103 0.29771709 21 0 0 0 22.049
1.9173573 5.0781727 -0.10168939 52 0 0 0 22.063841
2.1648381 5.5534801 0.026877638 20 0 0 0 22.07868
2.128334 5.3216243 0.15416993 22 0 0 0 22.093521
2.1866593 5.3178196 0.28151488 19 0 0 0 22.108364
1.5786339 5.2833347 -0.086976491 6 0 0 0 22.123203
1.6460794 5.2893748 0.032314938 4 0 0 0 22.138044
1.6756037 5.2072182 0.14659953 10 0 0 0 22.152885
1.7273018 5.188982 0.257837 13 0 0 0 22.790056
1.2128458 5.4472747 -0.070265301 2 0 0 0 22.804895
1.2370549 5.2552304 0.039551146 2 0 0 0 22.819738
1.2887248 5.2326822 0.14287706 3 0 0 0 22.834579
0.78248715 5.237114 -0.048525594 95 0 0 0 22.86426
0.85379273 5.2492003 0.046749052 54 0 0 0 22.879103
0.87532848 5.0363069 0.13449395 17 0 0 0 22.893944
0.96558487 5.1910396 0.22824319 4 0 0 0 22.908785
0.40472096 5.2008986 -0.030530887 95 0 0 0 22.923624
0.47492617 5.2140574 0.05376032 104 0 0 0 22.938465
0.53489429 5.2164326 0.13711283 99 0 0 0 22.953308
0.60200334 5.2276797 0.21642858 101 0 0 0 22.968147
0.038754303 5.2024255 -0.01148394 69 0 0 0 22.982988
0.10842213 5.1956415 0.061716806 91 0 0 0 22.997829
0.1746669 5.3599548 0.13777584 143 0 0 0 23.012672
0.23701483 5.2453341 0.20353983 109 0 0 0 23.027512
-1.2486213 5.2113981 0.15680094 105 0 0 0 23.027676
-0.30839646 4.9054813 0.0069256346 1 0 0 0 23.042353
-1.8347576 5.1528497 0.090995811 100 0 0 0 23.042517
-0.25772035 5.2422109 0.070982434 4 0 0 0 23.057194
-1.7615834 5.1512322 0.11017947 98 0 0 0 23.057356
-0.1984881 5.315701 0.1356827 83 0 0 0 23.072037
-1.6963022 5.1537714 0.13147041 86 0 0 0 23.072199
-0.12913151 5.3019915 0.19385248 89 0 0 0 23.086876
-1.5934457 5.0445561 0.14180934 150 0 0 0 23.08704
-0.67019993 5.0109129 0.026427854 15 0 0 0 23.101715
-2.229646 5.1078849 0.11414626 100 0 0 0 23.101879
-0.58453882 4.8718805 0.074816346 2 0 0 0 23.116558
-2.1574063 5.1153393 0.12238301 104 0 0 0 23.11672
-0.52324659 4.860383 0.12308547 2 0 0 0 23.131399
-2.0951324 5.1239948 0.13173573 95 0 0 0 23.131561
-0.46135581 4.8798985 0.16749623 1 0 0 0 23.14624
-2.0289783 5.1306033 0.13403514 99 0 0 0 23.146404
-1.0756947 5.2282557 0.04695081 99 0 0 0 23.161079
-2.6453593 5.0703268 0.13956447 110 0 0 0 23.161243
-1.0049646 5.2405891 0.090229385 98 0 0 0 23.175922
-2.577148 5.0829191 0.13586958 113 0 0 0 23.176085
-0.94038898 5.2460542 0.132543 98 0 0 0 23.190763
-2.5111527 5.0845509 0.1331467 113 0 0 0 23.190926
-0.8638885 5.2032957 0.16749308 150 0 0 0 23.205605
-2.4432149 5.0871754 0.12340651 150 0 0 0 23.205769
-1.3443449 4.8096261 0.062914424 85 0 0 0 23.220444
-3.084084 5.0312176 0.1672318 114 0 0 0 23.220608
-1.3697199 5.1610584 0.098879963 63 0 0 0 23.235287
-2.9996946 5.0115318 0.14920236 50 0 0 0 23.235449
-1.3155273 5.2017899 0.13147672 105 0 0 0 23.250128
-2.9415193 5.0283823 0.13463813 116 0 0 0 23.25029
-2.8718386 5.0250235 0.11284923 150 0 0 0 23.265133
-3.5509109 4.9856544 0.19818135 123 0 0 0 23.279972
-3.4811962 4.9893394 0.16642532 122 0 0 0 23.294811
-3.4164767 4.9911094 0.13871562 105 0 0 0 23.309654
-3.3546801 5.0009789 0.1030764 118 0 0 0 23.324495
-4.0489531 4.9287033 0.23142406 124 0 0 0 23.339336
-3.9901531 4.9446831 0.18484674 129 0 0 0 23.354176
-3.9227135 4.9404588 0.14307737 111 0 0 0 23.369019
-4.5115304 4.3208199 0.064624228 71 0 0 0 23.379517
-3.8650403 4.9524803 0.092493147 123 0 0 0 23.38386
-4.8437519 3.8985031 0.29629856 96 0 0 0 23.394356
-4.0960722 4.341423 0.23913743 78 0 0 0 23.398701
-4.8330641 3.928637 0.21431965 119 0 0 0 23.409197
-4.0611038 4.3699327 0.18488343 73 0 0 0 23.41354
-4.8243713 3.9557841 0.13834892 79 0 0 0 23.424038
-4.0467668 4.4148574 0.13393657 53 0 0 0 23.428383
-4.9839487 4.1224718 0.053908218 16 0 0 0 23.438881
-4.030561 4.4577799 0.074958794 46 0 0 0 23.443224
-4.7754078 3.3328485 0.29984051 107 0 0 0 23.45372
-4.90975 4.5369058 0.29408836 91 0 0 0 23.458063
-4.7650628 3.3500195 0.21080296 110 0 0 0 23.468559
-4.5916162 4.2966723 0.20541108 70 0 0 0 23.472904
-4.8059673 3.4002187 0.12949142 4 0 0 0 23.483402
-4.5482054 4.3040528 0.13996182 70 0 0 0 23.487745
-4.7314367 2.8457186 0.30302918 107 0 0 0 23.513084
-4.7124977 2.8457327 0.20881411 106 0 0 0 23.527924
-4.8752995 2.9524643 0.12512293 1 0 0 0 23.542767
-4.6697598 2.3912294 0.307179 103 0 0 0 23.572449
-4.653018 2.3843105 0.20795482 91 0 0 0 23.587288
-6.99231 3.5764763 0.021557499 1 0 0 0 23.616972
-4.6280303 1.9871622 0.31179181 124 0 0 0 23.631811
-4.6343036 1.9817342 0.2088296 37 0 0 0 23.646652
-4.5896664 1.6131722 0.31658661 121 0 0 0 23.691175
-4.6339293 1.6095316 0.21205388 10 0 0 0 23.706017
-4.5508356 1.261179 0.32148218 138 0 0 0 23.75054
-4.6500421 1.2616717 0.21557823 1 0 0 0 23.765381
-7.4070196 -1.4028053 -0.038549207 15 0 0 0 23.992147
-4.324821 -0.87757486 0.37780681 121 0 0 0 24.006989
-7.3281636 -1.9536968 -0.037034955 13 0 0 0 24.051512
-4.2917185 -1.1744516 0.38803414 121 0 0 0 24.066353
-7.2665949 -2.5202408 -0.034402318 13 0 0 0 24.110876
-4.2637529 -1.4802376 0.40127689 103 0 0 0 24.125715
-7.1770148 -2.8793988 0.21692309 1 0 0 0 24.155397
-7.1987453 -3.1063097 -0.029756157 14 0 0 0 24.720114
-4.2326102 -1.7969047 0.41553578 99 0 0 0 24.734957
-7.0725107 -3.4422116 0.22927649 1 0 0 0 24.764635
-6.9681501 -3.6342504 -0.02281039 13 0 0 0 24.779478
-4.1979618 -2.1238284 0.43060857 93 0 0 0 24.794319
-6.8030815 -3.930927 0.23797742 2 0 0 0 24.823999
-6.6372976 -4.1031966 -0.013698433 11 0 0 0 24.838842
-4.1636391 -2.468756 0.44760028 88 0 0 0 24.853683
-6.6218009 -4.4798961 0.25237298 11 0 0 0 24.883364
-6.5671692 -4.755929 -0.0035600455 9 0 0 0 24.898207
-4.1206932 -2.8348725 0.46739641 92 0 0 0 24.913048
-3.9444847 -3.3194909 0.0061097248 8 0 0 0 24.957569
-2.0186265 -3.0692627 0.035878092 49 0 0 0 24.960032
-4.0782318 -3.2269914 0.48907536 93 0 0 0 24.972412
-2.2859457 -3.1174071 0.36564934 101 0 0 0 24.974874
-3.9056361 -3.3097651 0.32775354 86 0 0 0 24.987251
-2.0908833 -3.104825 0.2535331 104 0 0 0 24.989716
-3.6228178 -3.2837327 0.16772214 72 0 0 0 25.002092
-1.8819259 -3.0505338 0.14646047 57 0 0 0 25.004557
-3.3449407 -3.25863 0.014741489 71 0 0 0 25.016933
-1.7018806 -3.0436888 0.043484271 49 0 0 0 25.019396
-3.5981092 -3.2635772 0.45857009 79 0 0 0 25.031776
-1.9573727 -3.0849457 0.34515503 107 0 0 0 25.034239
-3.3374624 -3.2481153 0.30273488 76 0 0 0 25.046616
-1.7721369 -3.0692058 0.24316326 106 0 0 0 25.04908
-3.0854478 -3.2215347 0.1600492 82 0 0 0 25.061457
-1.6050793 -3.0661347 0.14831389 101 0 0 0 25.063919
-2.8415074 -3.2008092 0.021425573 87 0 0 0 25.076298
-1.4277462 -3.0482554 0.051420193 96 0 0 0 25.07876
-3.0901263 -3.20365 0.42121062 85 0 0 0 25.091141
-1.6639588 -3.0617826 0.32800665 104 0 0 0 25.093601
-2.856344 -3.1907206 0.28266275 88 0 0 0 25.10598
-1.4916891 -3.0498247 0.2361414 96 0 0 0 25.108444
-2.6373866 -3.1745372 0.15429585 90 0 0 0 25.120819
-1.3262641 -3.0317402 0.14738144 95 0 0 0 25.123283
-2.4183559 -3.1563661 0.028937543 101 0 0 0 25.135662
-1.1609886 -3.0216572 0.059585046 98 0 0 0 25.138124
-2.660408 -3.1601734 0.39164245 92 0 0 0 25.150503
-1.3924091 -3.0321743 0.31213105 99 0 0 0 25.152966
-2.4515443 -3.1508033 0.26735541 99 0 0 0 25.165344
-1.2290974 -3.0230737 0.2293521 99 0 0 0 25.167809
-2.2483697 -3.130352 0.15118463 99 0 0 0 25.180183
-1.071642 -3.0078623 0.14866729 97 0 0 0 25.182648
-0.91119659 -2.9937136 0.068944067 90 0 0 0 25.197489
-1.1419327 -3.0071442 0.29846731 102 0 0 0 25.21233
-0.98343128 -2.9929781 0.22376603 95 0 0 0 25.227173
-0.83291674 -2.9786556 0.15015434 97 0 0 0 25.242012
-0.67739272 -2.9644361 0.077486277 107 0 0 0 25.256851
-0.90432316 -2.9758506 0.28597552 96 0 0 0 25.271694
-0.75495058 -2.9725363 0.21932454 104 0 0 0 25.286535
-0.040513173 -2.8972852 0.10771825 119 0 0 0 25.290976
-0.60728687 -2.9551883 0.15375908 114 0 0 0 25.301376
-0.26617867 -2.9134674 0.25916657 117 0 0 0 25.305817
-0.45671517 -2.9418931 0.087141775 103 0 0 0 25.316216
-0.12340235 -2.9011052 0.21263288 120 0 0 0 25.320656
-0.68294787 -2.9572351 0.27560353 105 0 0 0 25.331059
0.015295045 -2.8926616 0.16612594 133 0 0 0 25.335499
-0.53635722 -2.9468915 0.21601695 106 0 0 0 25.3459
0.16017909 -2.8743327 0.1185967 124 0 0 0 25.35034
-0.39266619 -2.9314878 0.1564865 109 0 0 0 25.360741
-0.065766156 -2.8944323 0.25202858 138 0 0 0 25.365179
-0.245116 -2.923161 0.096879371 119 0 0 0 25.37558
0.07407967 -2.8830445 0.21352312 129 0 0 0 25.38002
-0.47149998 -2.9354169 0.26635641 109 0 0 0 25.390423
0.21303174 -2.8646224 0.17206058 123 0 0 0 25.394861
-0.32687989 -2.928067 0.21477774 114 0 0 0 25.405264
0.35986188 -2.8523569 0.13048095 112 0 0 0 25.409704
-0.18614167 -2.9136276 0.16127564 118 0 0 0 25.420103
0.13070871 -2.8733194 0.24694362 128 0 0 0 25.424543
0.27150118 -2.8679745 0.21439901 130 0 0 0 25.439384
0.41055939 -2.8475776 0.17894466 120 0 0 0 25.454226
0.55853534 -2.831357 0.14337103 113 0 0 0 25.469069
0.32620284 -2.8511784 0.24187361 129 0 0 0 25.483908
0.46816111 -2.840879 0.2153395 116 0 0 0 25.498749
0.60915685 -2.8275495 0.18683018 116 0 0 0 25.51359
0.75826973 -2.8083785 0.15825793 117 0 0 0 25.528433
0.52365816 -2.832078 0.2387666 119 0 0 0 25.543272
0.6666429 -2.8238225 0.2182114 126 0 0 0 25.558111
0.80884391 -2.8035386 0.19572161 108 0 0 0 25.572954
0.9628939 -2.7914939 0.17406066 108 0 0 0 25.587795
0.72313195 -2.8120091 0.23564084 117 0 0 0 25.602636
0.87018466 -2.8048663 0.22303522 114 0 0 0 25.617476
1.018283 -2.7937286 0.20743644 111 0 0 0 25.632318
1.1113869 -2.6234121 0.18020336 74 0 0 0 25.64716
0.92765445 -2.7900357 0.23346701 120 0 0 0 25.662001
1.0768239 -2.780962 0.22784699 114 0 0 0 25.67684
1.5173739 -2.5505922 0.21602528 102 0 0 0 25.68936
1.14942 -2.5872476 0.20395322 120 0 0 0 25.691683
1.272935 -2.5717542 0.21865076 120 0 0 0 25.704203
1.3017241 -2.5702226 0.19633542 108 0 0 0 25.706524
1.4232678 -2.561758 0.22602262 107 0 0 0 25.719044
1.1105049 -2.6985946 0.22786245 68 0 0 0 25.721363
1.5757252 -2.543787 0.23040815 100 0 0 0 25.733885
1.2107228 -2.5835118 0.21928933 109 0 0 0 25.736204
1.8561821 -2.6894643 0.2525931 103 0 0 0 25.748724
1.3571036 -2.5653892 0.21674284 111 0 0 0 25.751045
1.4914927 -2.5500574 0.22031716 109 0 0 0 25.763565
1.6761777 -2.5797968 0.23911834 150 0 0 0 25.778408
1.9264877 -2.6828704 0.26284081 96 0 0 0 25.793247
2.1161091 -2.6636803 0.27881786 103 0 0 0 25.808088
1.8429027 -2.6990905 0.23869444 103 0 0 0 25.822929
2.0175662 -2.6816356 0.26183045 101 0 0 0 25.837772
2.2012446 -2.6623473 0.28287426 98 0 0 0 25.852612
2.392282 -2.6272175 0.30791101 124 0 0 0 25.867453
2.1038096 -2.6612134 0.24196312 48 0 0 0 25.882294
2.23084 -2.5748067 0.26695621 28 0 0 0 25.897137
2.2342463 -2.3558483 0.27395383 25 0 0 0 25.911976
2.6964908 -2.5913131 0.34068772 117 0 0 0 25.926817
2.0986462 -2.3028831 0.21771239 19 0 0 0 25.941658
2.5936289 -2.6060276 0.28976119 120 0 0 0 25.956499
2.811512 -2.5884964 0.33141539 103 0 0 0 25.97134
3.0476766 -2.5613575 0.38091132 105 0 0 0 25.986179
2.7215872 -2.5933607 0.25738937 122 0 0 0 26.001022
2.946543 -2.5790193 0.31095001 9 0 0 0 26.015863
3.1817214 -2.5528698 0.36345208 100 0 0 0 26.030704
3.433224 -2.5160823 0.42582268 97 0 0 0 26.045544
4.2354956 -2.3152852 0.5248239 150 0 0 0 26.052298
1.8796598 -1.5541947 0.16297027 3 0 0 0 26.060387
3.743881 -2.2947164 0.28292087 0 0 0 0 26.067141
3.2063966 -2.4362907 0.32219672 13 0 0 0 26.075228
3.6542745 -2.0521278 0.33905163 0 0 0 0 26.08198
3.5930722 -2.5032806 0.40161878 82 0 0 0 26.090069
4.0896945 -2.0951777 0.44204894 45 0 0 0 26.096821
3.8847172 -2.4693716 0.481563 80 0 0 0 26.104908
4.8317642 -2.2425499 0.60117477 40 0 0 0 26.111662
3.8873334 -2.0183866 0.27663252 0 0 0 0 26.126505
3.4865716 -2.288785 0.33579689 1 0 0 0 26.134592
3.5493643 -1.6818211 0.31994504 0 0 0 0 26.141344
3.7383168 -2.2460582 0.41022247 8 0 0 0 26.149431
4.2263694 -1.8167813 0.45284551 52 0 0 0 26.156183
4.791482 -1.8515728 0.60045183 18 0 0 0 26.171026
3.5524046 -1.5344422 0.24059665 35 0 0 0 26.185867
4.3300114 -1.6954155 0.3812646 13 0 0 0 26.200708
4.3392444 -1.5269054 0.46295747 33 0 0 0 26.215548
5.4107456 -1.692019 0.68436545 17 0 0 0 26.230391
4.3772049 -1.5308133 0.2845073 40 0 0 0 26.245232
4.4231009 -1.389104 0.38267064 10 0 0 0 26.260073
4.4630599 -1.2412541 0.47592786 78 0 0 0 26.274912
7.9355502 -1.9241329 1.0154145 95 0 0 0 26.289755
4.2344503 -1.1507541 0.2658613 39 0 0 0 26.304596
4.3149467 -1.0327545 0.36953151 63 0 0 0 26.319435
7.9133735 -1.634765 0.84700024 107 0 0 0 26.334276
8.5533381 -1.4884508 1.1096337 14 0 0 0 26.349117
7.9907322 -1.5675927 0.48843339 44 0 0 0 26.36396
7.2838931 -1.2171742 0.61988932 59 0 0 0 26.378799
6.8714838 -0.94451666 0.74072826 62 0 0 0 26.393641
6.0776267 -0.65509576 0.80085492 0 0 0 0 26.408482
6.0440001 -0.74346542 0.36178127 62 0 0 0 26.423325
6.1987252 -0.59817845 0.52676243 39 0 0 0 26.438164
6.1575255 -0.3114948 0.3645438 9 0 0 0 26.482689
6.7836661 -0.17967929 0.580257 59 0 0 0 26.497528
6.9730644 -0.01417032 0.76995051 68 0 0 0 26.512367
6.9624958 0.16014569 0.95486957 27 0 0 0 26.887718
6.2822146 0.13002737 0.36920425 24 0 0 0 26.902559
7.0062718 0.29795069 0.60400057 150 0 0 0 26.9174
7.0355234 0.46061644 0.79144746 99 0 0 0 26.93224
9.3831501 0.83070111 1.3172622 47 0 0 0 26.947083
6.7754202 0.6315167 0.40108773 69 0 0 0 26.961924
6.9527574 0.78520918 0.60885727 150 0 0 0 26.976765
6.9175305 0.92513096 0.79491031 27 0 0 0 26.991604
9.2940197 1.4336571 1.3370496 49 0 0 0 27.006447
5.6513391 0.9368431 0.33792397 8 0 0 0 27.021288
6.8921113 1.2655933 0.61575925 137 0 0 0 27.036127
6.8677206 1.3932711 0.80863559 70 0 0 0 27.050968
9.2975693 2.060729 1.3759242 40 0 0 0 27.065809
5.8417277 1.4092697 0.35701483 41 0 0 0 27.080652
6.6696429 1.7131598 0.61129463 31 0 0 0 27.095491
6.8080444 1.8675877 0.82549715 31 0 0 0 27.110332
9.1523857 2.6637635 1.3963274 19 0 0 0 27.125174
6.5596399 2.0883477 0.41323674 20 0 0 0 27.140017
6.6564484 2.2115672 0.62975353 6 0 0 0 27.154856
6.7525663 2.3508039 0.84635234 11 0 0 0 27.169697
9.0055666 5.4544134 1.6049346 57 0 0 0 27.181948
9.1717882 3.3304794 1.4472075 43 0 0 0 27.184538
6.0470796 4.105556 0.46928027 31 0 0 0 27.196791
6.393662 2.556766 0.41824269 29 0 0 0 27.199381
8.5052614 5.8140826 0.97008431 31 0 0 0 27.211632
6.7477489 2.7789001 0.66237688 13 0 0 0 27.21422
8.4277706 5.8293304 1.2630291 40 0 0 0 27.226473
6.7277803 2.8653908 0.87601292 2 0 0 0 27.229059
8.3277435 5.8170075 1.5560949 34 0 0 0 27.241312
9.0394506 3.9722059 1.4806451 23 0 0 0 27.243902
5.5602322 4.3861794 0.46395546 102 0 0 0 27.256153
3.2608826 1.5842048 0.22333181 48 0 0 0 27.258743
7.7070551 6.0979018 0.93720996 61 0 0 0 27.270996
6.7600708 3.3507752 0.69289213 6 0 0 0 27.273584
7.6491318 6.0988259 1.2158707 61 0 0 0 27.285835
6.9483242 3.5290954 0.94265527 31 0 0 0 27.288424
7.6051946 6.0954528 1.5003575 65 0 0 0 27.300676
8.9417496 4.6422191 1.5238295 29 0 0 0 27.303267
2.9079032 2.6561184 0.26521337 44 0 0 0 27.315517
3.1018519 1.7933832 0.22405726 0 0 0 0 27.318108
6.6573935 6.069633 0.87166291 53 0 0 0 27.33036
6.3722372 3.7345102 0.68695241 150 0 0 0 27.332949
6.6554656 6.0825715 1.1277591 72 0 0 0 27.3452
6.4864597 3.8683138 0.92332566 6 0 0 0 27.347788
6.6586461 6.095367 1.3937988 56 0 0 0 27.360041
5.1506414 5.4292822 0.51731044 77 0 0 0 27.374882
5.1801057 5.4317703 0.73600876 67 0 0 0 27.389725
5.208951 5.4562926 0.95081592 65 0 0 0 27.404564
5.2326016 5.4678907 1.1706208 44 0 0 0 27.419403
4.4388032 5.4111981 0.49908265 90 0 0 0 27.434246
4.4666691 5.3948035 0.69670957 88 0 0 0 27.449087
4.5030599 5.4072647 0.89137596 90 0 0 0 27.463928
4.5415268 5.4196553 1.0930196 98 0 0 0 27.478767
3.7368059 5.2838984 0.47523966 94 0 0 0 27.49361
3.7960393 5.29497 0.65764624 94 0 0 0 27.508451
3.8423359 5.3123145 0.83522463 90 0 0 0 27.523293
3.8844769 5.3187151 1.0177985 94 0 0 0 27.538132
3.168642 5.2419486 0.46531495 93 0 0 0 27.552975
3.2264757 5.2421193 0.63068527 106 0 0 0 27.567816
3.2795279 5.2553978 0.79316908 95 0 0 0 27.582657
3.34079 5.2754898 0.96259415 92 0 0 0 27.597496
2.6492395 5.186029 0.45678714 80 0 0 0 27.612337
2.7222066 5.199964 0.61005312 115 0 0 0 27.62718
2.7781444 5.2142391 0.76050884 102 0 0 0 27.642019
2.8390303 5.2264295 0.91289651 115 0 0 0 27.67643
2.1707737 5.1252956 0.45278189 64 0 0 0 27.691273
2.2519133 5.155129 0.59403038 23 0 0 0 27.706112
2.3714368 5.3001823 0.75038922 19 0 0 0 27.720951
2.3637278 5.1458063 0.86476463 66 0 0 0 27.735794
1.7334529 5.0687294 0.4503454 60 0 0 0 27.750635
1.8471932 5.1829619 0.58962417 28 0 0 0 27.765476
2.0284326 5.5128012 0.76115727 22 0 0 0 27.780315
1.9434519 5.1100574 0.83023387 57 0 0 0 27.795158
1.3762803 5.2145467 0.47096208 1 0 0 0 27.809999
1.4665157 5.259284 0.59517759 1 0 0 0 27.824841
1.6081377 5.5169578 0.74681264 3 0 0 0 27.83968
1.5581065 5.1155777 0.80750924 12 0 0 0 27.854523
1.0351925 5.4630117 0.5028767 2 0 0 0 27.869364
1.1215119 5.4658604 0.61694068 2 0 0 0 27.884205
1.197121 5.4839177 0.73119354 3 0 0 0 27.899044
1.1525862 4.9675345 0.76329595 19 0 0 0 27.913885
-0.24341924 5.3482862 0.77049828 97 0 0 0 27.919777
0.61379707 5.2480826 0.49553189 95 0 0 0 27.928728
-0.8800993 5.277297 0.57819575 97 0 0 0 27.934616
0.70018411 5.2619896 0.59664547 96 0 0 0 27.943567
-0.78325015 5.2851639 0.64116305 100 0 0 0 27.949455
0.79443443 5.4156966 0.71532011 61 0 0 0 27.958408
-0.69933254 5.2972832 0.70329309 90 0 0 0 27.964298
0.82537937 5.1198125 0.76961035 16 0 0 0 27.973249
-0.61345166 5.310389 0.76040542 96 0 0 0 27.979139
0.23800041 5.2102189 0.5065043 92 0 0 0 27.988092
-1.255818 5.2353382 0.60315007 98 0 0 0 27.99398
0.32638288 5.2291284 0.59861833 97 0 0 0 28.002932
-1.1579762 5.2492366 0.65513355 98 0 0 0 28.00882
0.40370753 5.2462583 0.68884623 102 0 0 0 28.017773
-1.0721505 5.2623639 0.70724636 90 0 0 0 28.023663
0.48280743 5.2533665 0.77600789 100 0 0 0 28.032614
-0.98241144 5.2744441 0.75331056 95 0 0 0 28.038504
-0.12672493 5.1241255 0.51613164 26 0 0 0 28.047457
-1.6393552 5.2004972 0.63222468 110 0 0 0 28.053345
-0.040056106 5.3600473 0.62226897 102 0 0 0 28.062296
-1.5377315 5.2093711 0.67314231 101 0 0 0 28.068184
0.040082969 5.3721581 0.70444185 96 0 0 0 28.077135
-1.4509213 5.2275248 0.71526676 103 0 0 0 28.083027
0.12143408 5.2992978 0.77120745 128 0 0 0 28.091978
-1.3602853 5.2406363 0.75032502 120 0 0 0 28.097868
-0.50879741 5.316258 0.55823988 96 0 0 0 28.106819
-2.0319209 5.1617942 0.66538221 110 0 0 0 28.112707
-0.41279987 5.3261051 0.6312263 98 0 0 0 28.12166
-1.9311976 5.1817307 0.69636017 112 0 0 0 28.127548
-0.3298324 5.3362141 0.70135778 95 0 0 0 28.136499
-1.8378192 5.1848145 0.72534132 112 0 0 0 28.142389
-1.7471985 5.2029715 0.75042236 111 0 0 0 28.157232
-2.4404368 5.1233606 0.7027182 110 0 0 0 28.172071
-2.335 5.1352596 0.72160602 122 0 0 0 28.186913
-2.2405989 5.1453691 0.74060762 116 0 0 0 28.201754
-2.1442649 5.1554689 0.75358731 115 0 0 0 28.216597
-2.8669944 5.079226 0.74622852 128 0 0 0 28.231436
-2.7586532 5.0931234 0.75309259 138 0 0 0 28.246277
-2.6642978 5.1072822 0.76111263 150 0 0 0 28.261118
-2.5690281 5.120451 0.76311755 142 0 0 0 28.275961
-3.0605958 4.6408205 0.73333794 20 0 0 0 28.2908
-3.0049129 4.7267375 0.73911715 19 0 0 0 28.305639
-2.9620805 4.8188868 0.74806738 20 0 0 0 28.320482
-2.9356513 4.9443655 0.75435263 22 0 0 0 28.335323
-3.2140567 4.2086482 0.72003388 19 0 0 0 28.350164
-3.1802206 4.3080211 0.71711624 19 0 0 0 28.365004
-3.1641364 4.4177103 0.71944284 19 0 0 0 28.379847
-3.1642764 4.5562139 0.71802759 20 0 0 0 28.869799
-3.3396401 3.7993963 0.70848674 19 0 0 0 28.88464
-3.3405025 3.9194548 0.7000463 17 0 0 0 28.899481
-3.3561375 4.04877 0.69681221 18 0 0 0 28.91432
-3.3912878 4.2064729 0.68992424 20 0 0 0 28.929161
-3.4430814 3.4132419 0.69885117 17 0 0 0 28.944004
-3.4718723 3.5408506 0.68475419 24 0 0 0 28.958843
-3.5203228 3.6838078 0.67594558 24 0 0 0 28.973684
-3.587394 3.8501391 0.66245008 19 0 0 0 28.988525
-3.5437877 3.0630209 0.69335228 17 0 0 0 29.003368
-3.6025338 3.1962121 0.67461216 27 0 0 0 29.018208
-3.6790078 3.3417184 0.66012502 25 0 0 0 29.033049
-3.7839768 3.5167792 0.64208871 27 0 0 0 29.04789
-3.6321309 2.7295547 0.69079506 25 0 0 0 29.062733
-3.7189267 2.8632903 0.66736752 35 0 0 0 29.077572
-3.8126738 2.9991508 0.64502674 32 0 0 0 29.092413
-3.9389157 3.1646395 0.61918139 30 0 0 0 29.107254
-3.6884527 2.3974962 0.68589091 34 0 0 0 29.122095
-4.4558907 1.8142844 0.56370157 35 0 0 0 29.127466
-3.7915182 2.5205576 0.6565941 35 0 0 0 29.136936
-3.8346488 1.2109871 0.68606305 34 0 0 0 29.142307
-3.9192915 2.6570644 0.63163275 33 0 0 0 29.151775
-4.0476475 1.2911403 0.64678633 34 0 0 0 29.157148
-4.0708127 2.8120506 0.59901857 27 0 0 0 29.166618
-4.273572 1.376542 0.60567653 39 0 0 0 29.171988
-3.7294919 2.0791483 0.68188179 32 0 0 0 29.181459
-4.5870943 1.4876058 0.55965412 54 0 0 0 29.186831
-3.8548031 2.1916382 0.64878255 32 0 0 0 29.196301
-4.0245819 2.3299384 0.62129432 33 0 0 0 29.21114
-4.1159263 1.0062546 0.65323561 7 0 0 0 29.216513
-4.2152143 2.481667 0.58509791 27 0 0 0 29.225983
-4.3623209 1.0690467 0.60824871 12 0 0 0 29.231352
-3.7741179 1.7798516 0.68200135 34 0 0 0 29.240824
-4.5890427 1.1255519 0.54401374 96 0 0 0 29.246195
-3.9305491 1.8879309 0.64622617 32 0 0 0 29.255665
-4.1137667 2.0065005 0.61279589 33 0 0 0 29.270504
-4.3515339 2.1531146 0.57409769 34 0 0 0 29.285345
-3.8204186 1.4955736 0.68520957 34 0 0 0 29.300188
-3.9833074 1.5827926 0.64340997 32 0 0 0 29.315027
-4.2037144 1.692053 0.60934877 40 0 0 0 29.329868
-4.1147108 -0.72573465 0.68930084 2 0 0 0 29.572697
-4.376379 -0.82662463 0.62273341 142 0 0 0 29.587536
