# .PCD v0.7 - Point Cloud Data file format
VERSION 0.7
FIELDS x y z intensity normal_x normal_y normal_z curvature
SIZE 4 4 4 4 4 4 4 4
TYPE F F F F F F F F
COUNT 1 1 1 1 1 1 1 1
WIDTH 922
HEIGHT 1
VIEWPOINT 0 0 0 1 0 0 0
POINTS 922
DATA ascii
2.593678 -1.9885874 -0.12699944 40 0 0 0 4.9845738
2.4203346 -2.2322693 -0.12884206 43 0 0 0 4.9862442
2.6501389 -2.0706112 -0.22822329 95 0 0 0 4.989521
2.3840189 -2.2485831 -0.21663174 73 0 0 0 4.9911909
2.3465431 -1.8663425 -0.29979137 7 0 0 0 4.9944682
2.2276056 -2.143769 -0.29889351 16 0 0 0 4.9961381
2.933948 -2.1025116 -0.033702753 8 0 0 0 4.9994149
2.5949199 -2.2348232 -0.038765278 7 0 0 0 5.0010848
2.6831255 -1.9619744 -0.12849346 42 0 0 0 5.0043621
2.509536 -2.2106519 -0.13033088 77 0 0 0 5.006032
2.671272 -1.9885298 -0.22740421 31 0 0 0 5.0093088
2.453181 -2.2069471 -0.22003244 128 0 0 0 5.0109792
2.377954 -1.7987957 -0.30101457 10 0 0 0 5.014256
2.2160959 -2.0340302 -0.29392773 31 0 0 0 5.0159259
3.0239089 -2.0659039 -0.032207318 36 0 0 0 5.0192032
2.6015799 -2.1420074 -0.035879228 4 0 0 0 5.0208731
2.7757123 -1.9325134 -0.13100618 46 0 0 0 5.0241499
2.599736 -2.1890821 -0.13182424 83 0 0 0 5.0258198
2.7541597 -1.9525807 -0.23187125 33 0 0 0 5.0290971
2.4810076 -2.1312082 -0.21924385 11 0 0 0 5.030767
2.3976374 -1.7256559 -0.30018011 15 0 0 0 5.0340438
2.1755373 -1.9048188 -0.28482509 27 0 0 0 5.0357141
2.6542881 -1.7280773 -0.026541488 95 0 0 0 5.038991
2.8712451 -1.9041979 -0.13353278 151 0 0 0 5.0439382
2.6793878 -1.8066432 -0.22259966 100 0 0 0 5.0488849
2.4249561 -1.6599057 -0.30037916 20 0 0 0 5.0538321
2.3815534 -1.4751794 -0.022315089 53 0 0 0 5.0587788
2.333214 -1.4718691 -0.10705955 82 0 0 0 5.0637259
2.3122044 -1.4829324 -0.18993627 86 0 0 0 5.0686731
2.3514426 -1.5290515 -0.28910145 150 0 0 0 5.0736198
2.4307516 -1.4325438 -0.021608748 106 0 0 0 5.078567
2.442729 -1.4642771 -0.10964185 163 0 0 0 5.0835142
2.3226943 -1.4133409 -0.18904918 91 0 0 0 5.0884609
2.2989442 -1.4182702 -0.2799173 78 0 0 0 5.0934081
2.4274118 -1.3592584 -0.019650934 122 0 0 0 5.0983548
2.3373179 -1.3298428 -0.10419789 119 0 0 0 5.103302
2.3262413 -1.3424028 -0.18812625 86 0 0 0 5.1082492
2.3794084 -1.3902159 -0.28836372 68 0 0 0 5.1131959
2.4250143 -1.2870225 -0.0186971 91 0 0 0 5.1181431
2.3748212 -1.2806188 -0.1044351 115 0 0 0 5.1230898
2.3842556 -1.3032131 -0.1914632 88 0 0 0 5.128037
2.4219897 -1.3392446 -0.29162937 81 0 0 0 5.1329842
2.4615226 -1.2377467 -0.017928544 85 0 0 0 5.1379309
2.4212072 -1.2338393 -0.10571689 87 0 0 0 5.1428781
2.506964 -1.1899166 -0.018205758 16 0 0 0 5.1577191
2.4851234 -1.1969411 -0.10708214 40 0 0 0 5.1626658
2.4634373 -1.2009684 -0.19496217 11 0 0 0 5.167613
2.4614305 -1.2109907 -0.29194129 13 0 0 0 5.1725602
2.6013546 -1.1645414 -0.017721403 8 0 0 0 5.1775069
2.5717568 -1.1661776 -0.10956168 17 0 0 0 5.1824541
2.4355752 -1.1174524 -0.19188334 48 0 0 0 5.1874008
2.4962718 -1.1546255 -0.29416987 18 0 0 0 5.192348
2.4417696 -1.0425422 -0.10397822 4 0 0 0 5.2022419
2.4104102 -1.0400784 -0.18881318 52 0 0 0 5.2071891
4.3665843 -1.727747 -0.027533744 33 0 0 0 5.217083
2.5755548 -1.040257 -0.20067936 4 0 0 0 5.2269769
2.4785969 -1.007507 -0.28919515 38 0 0 0 5.2319241
4.3051395 -1.5944871 -0.026316401 0 0 0 0 5.2368708
2.640696 -0.98829371 -0.11006439 100 0 0 0 5.241818
2.6260698 -0.99067652 -0.20398359 28 0 0 0 5.2467651
2.5310984 -0.95802844 -0.29451013 44 0 0 0 5.2517118
3.7422121 -1.303318 -0.15659066 29 0 0 0 5.2616062
5.0307083 -1.7650297 -0.38897744 63 0 0 0 5.2665529
2.6082101 -0.91678149 -0.30194718 20 0 0 0 5.2715001
4.2801781 -1.3718816 -0.025359701 3 0 0 0 5.2764468
4.8631973 -1.569222 -0.20225732 150 0 0 0 5.281394
5.5445018 -1.7985277 -0.42764437 67 0 0 0 5.2863412
5.4329715 -1.7651833 -0.62808353 12 0 0 0 5.2912879
4.5171809 -1.33754 -0.026628161 18 0 0 0 5.2962351
4.902668 -1.4599925 -0.20354931 150 0 0 0 5.3011818
5.2388406 -1.5650048 -0.40322578 51 0 0 0 5.306129
5.2378821 -1.5631806 -0.60422033 55 0 0 0 5.3110762
4.0255766 -1.0958323 -0.023239801 63 0 0 0 5.3160229
4.0740585 -1.1124171 -0.16847859 55 0 0 0 5.3209701
4.1936164 -1.1485567 -0.32207444 30 0 0 0 5.3259168
4.3223491 -1.1791685 -0.49672392 42 0 0 0 5.330864
3.9669194 -0.98674899 -0.023016432 80 0 0 0 5.3358111
3.9513009 -0.98412812 -0.16293468 59 0 0 0 5.3407578
3.9466743 -0.98205125 -0.3019104 53 0 0 0 5.345705
3.9896562 -0.98736072 -0.45713061 13 0 0 0 5.3506522
3.8140702 -0.85897851 -0.022314068 59 0 0 0 5.3555989
3.8886068 -0.87584496 -0.16068968 91 0 0 0 5.3605461
3.9137948 -0.87825036 -0.29981846 25 0 0 0 5.3654928
3.9045784 -0.86694437 -0.44677871 11 0 0 0 5.37044
3.7609048 -0.76018345 -0.022111097 53 0 0 0 5.3753872
3.840694 -0.77230102 -0.15851851 117 0 0 0 5.3803339
3.7530169 -0.7500754 -0.28707549 5 0 0 0 5.3852811
3.7399416 -0.73656774 -0.42701754 28 0 0 0 5.3902278
3.8832312 -0.6961211 -0.022800194 72 0 0 0 5.395175
3.7528832 -0.66577816 -0.15514031 30 0 0 0 5.4001222
3.7426536 -0.65640581 -0.28609338 28 0 0 0 5.4050689
3.7693098 -0.64887714 -0.43023911 11 0 0 0 5.4100161
3.8489342 -0.60026538 -0.023693701 52 0 0 0 5.4149628
3.8267477 -0.58930379 -0.15858534 65 0 0 0 5.41991
3.8205965 -0.57813448 -0.29256156 59 0 0 0 5.4248571
3.8176417 -0.56212813 -0.43555918 30 0 0 0 5.4298038
4.057302 -0.5393346 -0.024419608 54 0 0 0 5.947968
4.6637821 -0.60844642 -0.1934801 51 0 0 0 5.9529152
3.8630123 -0.49201128 -0.29545754 49 0 0 0 5.9578619
4.7324443 -0.58116943 -0.53985423 60 0 0 0 5.9628091
4.5615854 -0.50506455 -0.029032024 53 0 0 0 5.9677558
4.710844 -0.50659084 -0.19579697 113 0 0 0 5.972703
4.7446818 -0.4934212 -0.36298078 80 0 0 0 5.9776502
4.7688594 -0.47178087 -0.54312271 71 0 0 0 5.9825969
4.5975161 -0.40566415 -0.030289507 55 0 0 0 5.9875441
4.7360778 -0.40065575 -0.19800471 43 0 0 0 5.9924908
6.6203055 -0.53283203 -0.50757629 2 0 0 0 5.997438
5.6737785 -0.42429534 -0.64680248 3 0 0 0 6.0023851
8.6541357 -0.57233965 -0.058978919 48 0 0 0 6.0073318
7.7862573 -0.47983968 -0.32759646 2 0 0 0 6.012279
6.6129479 -0.37721208 -0.50865382 3 0 0 0 6.0172262
5.7094603 -0.28883085 -0.65208668 2 0 0 0 6.0221729
7.6045833 -0.33435133 -0.053768449 9 0 0 0 6.0271201
7.9048004 -0.30838469 -0.3343305 2 0 0 0 6.0320668
6.6355891 -0.22207023 -0.51188493 5 0 0 0 6.037014
5.7171946 -0.15198541 -0.6532281 2 0 0 0 6.0419612
7.4370008 -0.1588219 -0.055037376 3 0 0 0 6.0469079
6.2411046 -0.062383693 -0.4829787 3 0 0 0 6.0568018
5.7449837 -0.014127979 -0.65747315 2 0 0 0 6.061749
6.5860462 0.0052802414 -0.050791334 31 0 0 0 6.0666962
5.7567511 0.12351935 -0.65963537 5 0 0 0 6.0815368
6.4650221 0.15047042 -0.052276362 6 0 0 0 6.086484
6.1000147 0.18121359 -0.26342997 3 0 0 0 6.0914311
6.1742153 0.22638625 -0.48184797 1 0 0 0 6.0963778
5.6962457 0.25672039 -0.654423 6 0 0 0 6.101325
6.9375167 0.31251571 -0.059817497 0 0 0 0 6.1062722
7.3894501 0.3881228 -0.3221969 32 0 0 0 6.1112189
6.5677719 0.39428604 -0.51499069 5 0 0 0 6.1161661
5.7000666 0.39575917 -0.65654558 15 0 0 0 6.1211128
8.0357533 0.60568672 -0.35467166 5 0 0 0 6.1310072
6.7381377 0.56217408 -0.53098798 6 0 0 0 6.1359539
5.4072466 0.50536752 -0.62512362 7 0 0 0 6.1409011
8.0367765 0.78994066 -0.35781118 4 0 0 0 6.150795
5.5879793 0.59886163 -0.44211316 0 0 0 0 6.1557422
5.4046316 0.6357097 -0.62620622 7 0 0 0 6.1606889
5.3281398 0.64895529 -0.23981121 16 0 0 0 6.1705828
5.2923646 0.69356942 -0.42166582 16 0 0 0 6.17553
5.3789978 0.7661829 -0.62617123 10 0 0 0 6.1804771
5.3003039 0.71565658 -0.055710625 3 0 0 0 6.1854239
5.162827 0.74825025 -0.23503527 19 0 0 0 6.190371
4.9496946 0.76756001 -0.39696178 16 0 0 0 6.1953182
4.9779124 0.83105272 -0.58116055 17 0 0 0 6.2002649
5.1538811 0.81301224 -0.058029909 60 0 0 0 6.2052121
4.9638715 0.83517867 -0.2290777 14 0 0 0 6.2101588
4.9394383 0.88525528 -0.39899549 25 0 0 0 6.215106
5.6779823 1.088972 -0.66594368 2 0 0 0 6.2200532
7.7122822 1.3932135 -0.091575511 99 0 0 0 6.2249999
7.7879062 1.4933308 -0.36404705 7 0 0 0 6.2299471
6.691155 1.3607844 -0.54433286 2 0 0 0 6.2348938
5.8295217 1.2617822 -0.68784857 2 0 0 0 6.239841
7.3843222 1.5045145 -0.09197358 38 0 0 0 6.2447882
8.1522379 1.7588375 -0.3871102 1 0 0 0 6.2497349
6.877327 1.5659486 -0.56443846 1 0 0 0 6.2546821
5.8085041 1.4050461 -0.68884659 2 0 0 0 6.2596288
6.9078403 1.5680349 -0.091575086 108 0 0 0 6.264576
6.1401811 1.4723459 -0.29557785 2 0 0 0 6.2695231
5.8472581 1.5633885 -0.69716239 2 0 0 0 6.279417
6.8469954 1.7162646 -0.095370576 130 0 0 0 6.2843642
6.8868203 1.8181758 -0.33666095 105 0 0 0 6.2893109
6.8527298 1.9026959 -0.57255971 8 0 0 0 6.2942581
5.8375535 1.7131028 -0.70022351 3 0 0 0 6.2992048
6.1701069 1.6944946 -0.09088254 11 0 0 0 6.304152
7.3166156 2.1125059 -0.36308125 122 0 0 0 6.3090992
6.7070098 2.0340769 -0.56490892 2 0 0 0 6.3140459
7.0905533 3.0129497 -0.14672665 3 0 0 0 6.3177252
5.864419 1.8740332 -0.70748031 2 0 0 0 6.3189931
1.7820635 2.4604647 -0.13826482 5 0 0 0 6.3212008
9.1489344 4.0679469 -0.5081256 0 0 0 0 6.3226719
7.236177 2.1618521 -0.11269089 101 0 0 0 6.3239398
1.6418231 2.403214 -0.18949978 51 0 0 0 6.326148
3.2341208 1.5029864 -0.2917757 43 0 0 0 6.3276191
7.2788577 2.2826321 -0.36801198 123 0 0 0 6.328887
1.5439999 2.393945 -0.23799345 4 0 0 0 6.3310952
3.3089297 1.6123157 -0.41825196 46 0 0 0 6.3325658
7.0145926 2.3073678 -0.59668821 5 0 0 0 6.3338342
1.4093828 2.3274224 -0.27524897 12 0 0 0 6.3360419
7.0222225 3.1725557 -0.15349315 37 0 0 0 6.337513
5.827457 2.0190794 -0.70839846 12 0 0 0 6.3387809
1.6570991 2.403538 -0.13757083 58 0 0 0 6.3409891
6.5593023 2.1200466 -0.10818851 18 0 0 0 6.3437281
1.5595598 2.400259 -0.18807164 4 0 0 0 6.3459358
3.2469213 1.6015056 -0.29691538 22 0 0 0 6.3474069
5.9831338 2.0289547 -0.30717951 38 0 0 0 6.3486748
1.4626969 2.3899426 -0.23456968 2 0 0 0 6.350883
3.2512372 1.6812633 -0.41500697 76 0 0 0 6.352354
1.3506179 2.3543501 -0.27296796 0 0 0 0 6.3558302
6.9804931 3.3438709 -0.16040543 39 0 0 0 6.3573012
5.8810477 2.1947136 -0.71980357 2 0 0 0 6.3585691
1.5779638 2.4034288 -0.13916132 5 0 0 0 6.3607769
3.4713879 1.7388101 -0.20116499 43 0 0 0 6.3622479
6.0102062 2.0909824 -0.10435088 27 0 0 0 6.3635159
1.4672351 2.3757703 -0.1855738 4 0 0 0 6.3657241
3.2722881 1.7114221 -0.30312872 19 0 0 0 6.3671951
5.8092632 2.117645 -0.30335256 41 0 0 0 6.368463
1.3635725 2.3487716 -0.22702284 0 0 0 0 6.3706708
3.1863062 1.7455586 -0.41172147 78 0 0 0 6.3721418
6.0099802 2.2927887 -0.52252376 2 0 0 0 6.3734102
1.2576979 2.3168817 -0.26245645 0 0 0 0 6.375618
3.5243506 1.7864329 -0.085463353 109 0 0 0 6.377089
5.8830361 2.3588684 -0.72593617 1 0 0 0 6.3783569
1.4879153 2.3848317 -0.13968056 4 0 0 0 6.3805652
3.3787925 1.7904449 -0.19972721 84 0 0 0 6.3820362
5.8249683 2.1732125 -0.10746095 27 0 0 0 6.3833041
1.3735743 2.3443379 -0.18206371 5 0 0 0 6.3855119
3.188741 1.7636142 -0.29973814 46 0 0 0 6.3869829
5.7076554 2.2308168 -0.30391487 49 0 0 0 6.3882508
1.2860743 2.3405755 -0.22261599 2 0 0 0 6.3904591
2.7176254 1.5744035 -0.3541798 0 0 0 0 6.3919301
6.8196878 2.7857044 -0.60004187 4 0 0 0 6.393198
1.1798676 2.3016944 -0.25604209 0 0 0 0 6.3954058
3.4902263 1.867233 -0.089347877 95 0 0 0 6.3968768
5.9239345 2.5411346 -0.73628181 3 0 0 0 6.3981452
3.350028 5.6493616 -0.33603022 52 0 0 0 6.400353
3.301466 1.8473349 -0.19937214 9 0 0 0 6.401824
7.0832992 2.8264093 -0.13839215 36 0 0 0 6.4030919
1.2949152 2.3331912 -0.1806486 6 0 0 0 6.4053001
2.7177324 1.587544 -0.25918198 4 0 0 0 6.4067712
5.7601514 2.4045043 -0.31331217 4 0 0 0 6.4080391
1.1984173 2.3088479 -0.21713725 4 0 0 0 6.4102468
2.6106188 1.5967085 -0.34464633 6 0 0 0 6.4117179
3.2826648 1.4326714 -0.29189846 1 0 0 0 6.4129858
1.1051809 2.289355 -0.24964689 0 0 0 0 6.415194
3.5458241 2.0017014 -0.095734626 18 0 0 0 6.4166651
3.3633018 1.5387117 -0.42139962 56 0 0 0 6.417933
3.1441209 5.5964098 -0.3369242 87 0 0 0 6.4201412
2.6890793 1.5860724 -0.16602558 0 0 0 0 6.4216118
1.2116789 2.3102539 -0.17820036 4 0 0 0 6.4250879
2.6095643 1.6068978 -0.25264034 9 0 0 0 6.426559
1.1159995 2.281868 -0.21168998 6 0 0 0 6.4300351
2.5312982 1.6326687 -0.33826593 6 0 0 0 6.4315062
1.0270135 2.2671735 -0.24222587 3 0 0 0 6.4349818
3.5006111 2.0810418 -0.099561729 0 0 0 0 6.4364529
2.9569223 5.5575542 -0.33892706 96 0 0 0 6.439929
2.5952599 1.6127259 -0.16456349 0 0 0 0 6.4414001
2.728858 5.5095687 -0.42372882 69 0 0 0 6.4448762
2.5187566 1.633406 -0.24819365 6 0 0 0 6.4463472
1.0452441 2.2683289 -0.2083144 6 0 0 0 6.4498229
2.4166727 1.6423293 -0.32668415 1 0 0 0 6.4512939
0.95388949 2.2457445 -0.23483165 7 0 0 0 6.4547701
2.7736218 5.5165005 -0.34094918 101 0 0 0 6.4597168
2.4485157 1.6009257 -0.15880035 0 0 0 0 6.4611878
2.5469992 5.4564342 -0.41974849 61 0 0 0 6.464664
2.4433653 1.6681665 -0.24483293 4 0 0 0 6.466135
0.97443992 2.2537897 -0.20493826 3 0 0 0 6.4696112
2.4127119 1.7256447 -0.32972801 27 0 0 0 6.4710822
0.88823658 2.233958 -0.22948439 7 0 0 0 6.4745579
2.5041914 1.6463661 -0.079112858 5 0 0 0 6.4760289
2.5917864 5.4643598 -0.34197032 97 0 0 0 6.4795051
2.4319279 1.6718431 -0.16276932 3 0 0 0 6.4809761
2.3690929 5.4021029 -0.41478851 44 0 0 0 6.4844518
2.4092746 1.7289314 -0.24570443 28 0 0 0 6.4859228
2.1637077 5.3450122 -0.48069903 40 0 0 0 6.489399
2.3787234 1.7884077 -0.32960191 55 0 0 0 6.49087
0.81800669 2.2103806 -0.22310403 3 0 0 0 6.4943461
2.5279686 1.7443404 -0.084309347 21 0 0 0 6.4958172
2.4213254 5.4196668 -0.34405699 50 0 0 0 6.4992929
2.4775987 1.7877648 -0.17009249 7 0 0 0 6.5007639
2.205899 5.3620639 -0.41091704 47 0 0 0 6.50424
2.3876522 1.7990956 -0.2476474 53 0 0 0 6.5057111
2.0079181 5.3126221 -0.47287264 40 0 0 0 6.5091872
2.3697605 1.871966 -0.33362076 50 0 0 0 6.5106578
1.8112411 5.2681346 -0.52283955 23 0 0 0 6.5141339
2.5166597 1.8210056 -0.089309677 32 0 0 0 6.515605
2.2527652 5.3728743 -0.34615278 51 0 0 0 6.5190811
3.1503193 2.3845491 -0.22200437 20 0 0 0 6.5205522
2.0467453 5.322823 -0.40806794 52 0 0 0 6.5240278
2.8138576 2.227735 -0.29816699 1 0 0 0 6.5254989
1.8597999 5.2938685 -0.46609837 41 0 0 0 6.528975
2.4266078 2.0123637 -0.34702191 1 0 0 0 6.5304461
1.664946 5.2452893 -0.51207173 66 0 0 0 6.5339222
3.1833467 2.4151123 -0.11918603 6 0 0 0 6.5353932
2.0947804 5.337575 -0.34831348 57 0 0 0 6.5388689
2.8562551 2.2668343 -0.20740461 1 0 0 0 6.5403399
1.8952144 5.2962208 -0.40626985 52 0 0 0 6.5438161
2.7254255 2.2621324 -0.29473984 4 0 0 0 6.5452871
1.7079036 5.2592773 -0.45929217 51 0 0 0 6.5487628
2.7253926 2.3741603 -0.39583781 7 0 0 0 6.5502338
1.5171196 5.211504 -0.50028759 72 0 0 0 6.55371
3.1256502 2.4850447 -0.12294389 8 0 0 0 6.555181
1.9424158 5.3150105 -0.35251513 58 0 0 0 6.5586572
2.7648103 2.3013752 -0.20696256 4 0 0 0 6.5601282
1.7468269 5.2724652 -0.40449134 50 0 0 0 6.5636039
2.975528 2.5892897 -0.32827741 24 0 0 0 6.5650749
1.5630485 5.2253404 -0.45252323 94 0 0 0 6.5685511
2.6631994 2.4333024 -0.39256537 11 0 0 0 6.5700221
1.38001 5.1922078 -0.48957151 71 0 0 0 6.5734978
3.0595169 2.5463767 -0.12765205 6 0 0 0 6.5749688
1.7926673 5.284308 -0.3547239 58 0 0 0 6.578445
2.6710794 2.33002 -0.20550442 4 0 0 0 6.579916
1.6031897 5.2434678 -0.40273324 85 0 0 0 6.5833921
2.9065697 2.6537671 -0.32797477 31 0 0 0 6.5848632
1.4227217 5.2021904 -0.44678783 93 0 0 0 6.5883389
2.1087356 2.0210164 -0.31639913 19 0 0 0 6.5898099
1.2397842 5.1500344 -0.47782052 67 0 0 0 6.593286
3.0007646 2.6153557 -0.13240457 7 0 0 0 6.5947571
1.6454221 5.2434659 -0.35793748 74 0 0 0 6.5982332
2.9165092 2.6634243 -0.23202208 150 0 0 0 6.5997038
1.4602098 5.2074265 -0.40097338 81 0 0 0 6.6031799
1.2826174 5.1630087 -0.44004044 87 0 0 0 6.6081271
2.0832577 2.0943682 -0.31832683 44 0 0 0 6.6095982
1.1039404 5.115653 -0.46709964 75 0 0 0 6.6130738
2.9451056 2.6861844 -0.13717461 7 0 0 0 6.6145449
1.5059509 5.2182603 -0.36120522 93 0 0 0 6.618021
1.3246131 5.1790314 -0.39925858 80 0 0 0 6.6229682
2.086453 2.091306 -0.24633195 98 0 0 0 6.6244388
1.1499401 5.1324706 -0.43433917 86 0 0 0 6.6279149
2.2593329 2.3820946 -0.35245675 32 0 0 0 6.6293859
0.97503471 5.0799265 -0.45741352 78 0 0 0 6.6328621
1.3681849 5.1869612 -0.36447719 92 0 0 0 6.6378088
2.6571083 2.662158 -0.2256934 1 0 0 0 6.6392798
1.1886262 5.1426425 -0.39753577 78 0 0 0 6.642756
2.3511415 2.471812 -0.28498799 39 0 0 0 6.644227
1.0182134 5.1008816 -0.42864284 86 0 0 0 6.6477032
2.0506239 2.2682028 -0.32629853 25 0 0 0 6.6491742
0.84552163 5.0522366 -0.44773254 77 0 0 0 6.6526499
1.2321781 5.150568 -0.36675462 83 0 0 0 6.6575971
2.5127156 2.6372118 -0.2199354 6 0 0 0 6.6590681
1.0558755 5.1110973 -0.39683467 76 0 0 0 6.6625438
2.2154675 2.4404335 -0.27526936 29 0 0 0 6.6640148
0.88963014 5.0721402 -0.42296585 87 0 0 0 6.667491
1.9376193 2.2497318 -0.31470636 29 0 0 0 6.668962
0.75434387 5.2579265 -0.45945212 19 0 0 0 6.6724381
2.5357578 2.650213 -0.13905248 6 0 0 0 6.6739092
1.0995489 5.1220145 -0.37105706 58 0 0 0 6.6773849
2.3720698 2.6070726 -0.21519274 6 0 0 0 6.6788559
0.92626846 5.0823998 -0.39615291 48 0 0 0 6.682332
1.9978114 2.3079455 -0.25505164 31 0 0 0 6.6838031
0.77514428 5.1277986 -0.42543551 18 0 0 0 6.6872792
1.8667283 2.2742457 -0.3103641 27 0 0 0 6.6887498
0.63444775 5.3048429 -0.45688739 91 0 0 0 6.6922259
2.4003735 2.6258173 -0.13934164 6 0 0 0 6.693697
0.96926463 5.1003528 -0.37437844 16 0 0 0 6.6971731
2.0687764 2.3816535 -0.19446415 28 0 0 0 6.6986442
0.7981925 5.0646358 -0.39648962 17 0 0 0 6.7021198
1.9142945 2.3200598 -0.25163516 26 0 0 0 6.7035909
0.67585886 5.3318768 -0.44011378 96 0 0 0 6.707067
1.8491039 2.3652289 -0.31434777 25 0 0 0 6.7085381
0.50174147 5.2732964 -0.44718987 88 0 0 0 6.7120142
2.2550783 2.5828812 -0.1385659 7 0 0 0 6.7134848
0.84564668 5.0923767 -0.37974635 11 0 0 0 6.7169609
1.967249 2.3736217 -0.19193974 27 0 0 0 6.7184319
0.71560246 5.3449793 -0.42031917 43 0 0 0 6.7219081
1.8337249 2.331027 -0.24823308 28 0 0 0 6.7233791
0.54459333 5.2892413 -0.43441388 93 0 0 0 6.7268548
1.5918902 2.1385679 -0.27785242 83 0 0 0 6.7283258
0.37569663 5.2554355 -0.44053885 91 0 0 0 6.731802
2.0359159 2.4414346 -0.13233504 29 0 0 0 6.733273
0.7468186 5.265389 -0.39939961 19 0 0 0 6.7367492
1.8739998 2.3711894 -0.19046246 26 0 0 0 6.7382202
0.58322072 5.3003907 -0.4186123 84 0 0 0 6.7416959
1.654555 2.207659 -0.23022009 21 0 0 0 6.7431669
0.41671035 5.254447 -0.429739 93 0 0 0 6.7466431
1.5578836 2.2013166 -0.27873045 67 0 0 0 6.7481141
0.25155711 5.235477 -0.43289655 91 0 0 0 6.7515898
1.9225081 2.4159558 -0.13273671 24 0 0 0 6.7530608
0.62795705 5.3142395 -0.4088434 93 0 0 0 6.756537
1.8264592 2.4235861 -0.19326261 26 0 0 0 6.758008
0.45412397 5.2616453 -0.41792813 80 0 0 0 6.7614841
1.6121126 2.2618082 -0.23204826 56 0 0 0 6.7629552
0.2928386 5.2404761 -0.42710358 91 0 0 0 6.7664309
1.4949286 2.2244337 -0.27542919 49 0 0 0 6.7679019
0.12887095 5.2454782 -0.42728904 57 0 0 0 6.771378
1.8600516 2.4500573 -0.13644621 28 0 0 0 6.7728491
0.49912804 5.2814822 -0.41316611 91 0 0 0 6.7763252
1.7736796 2.4712317 -0.19603276 5 0 0 0 6.7777958
0.32918474 5.2467208 -0.41928682 85 0 0 0 6.7812719
1.5900941 2.3449914 -0.23700422 39 0 0 0 6.782743
0.16795319 5.2055302 -0.42244557 89 0 0 0 6.7862191
1.4404459 2.2571464 -0.27317911 23 0 0 0 6.7876902
0.0058458308 4.959166 -0.39941856 19 0 0 0 6.7911658
0.37251493 5.2606373 -0.41847906 90 0 0 0 6.9280901
0.20496804 5.2127366 -0.41860548 78 0 0 0 6.9330368
0.046182387 5.2424941 -0.42484403 114 0 0 0 6.937984
-0.11778133 5.2675104 -0.41905293 57 0 0 0 6.9429312
0.24864003 5.2266235 -0.42183089 90 0 0 0 6.9478779
0.084756881 5.3577428 -0.43313378 91 0 0 0 6.9528251
-0.07640592 5.2965183 -0.42828116 63 0 0 0 6.9577718
-0.23421752 5.1170135 -0.40234134 25 0 0 0 6.962719
0.1255254 5.2706542 -0.43325618 57 0 0 0 6.9676661
-0.039537273 5.2526698 -0.42842275 19 0 0 0 6.9726129
-0.19351472 5.0909896 -0.41051814 23 0 0 0 6.97756
0.0019267711 5.0143795 -0.41841605 17 0 0 0 6.9874539
-0.15709664 5.0381484 -0.41364995 20 0 0 0 6.9924011
-0.31281415 5.0887861 -0.40992412 3 0 0 0 6.9973478
-0.11504225 4.9990411 -0.42482162 20 0 0 0 7.0072422
-0.27644619 5.0559654 -0.41807353 20 0 0 0 7.0121889
-0.2286991 4.9485025 -0.42721355 25 0 0 0 7.02703
-0.83920532 5.1354432 -0.38136333 101 0 0 0 7.0616589
-0.8029598 5.1436467 -0.41354948 90 0 0 0 7.0764999
-0.95931178 5.1162515 -0.37675497 98 0 0 0 7.0814471
-0.71871763 4.8181601 -0.41367957 3 0 0 0 7.091341
-0.90957499 5.0517149 -0.40694416 150 0 0 0 7.0962882
-1.0778525 5.0879717 -0.37114736 91 0 0 0 7.1012349
-0.82100815 4.7330236 -0.41010171 73 0 0 0 7.1111288
-1.0415002 5.0991635 -0.4113372 94 0 0 0 7.116076
-1.1971002 5.0657301 -0.36554256 94 0 0 0 7.1210232
-0.81455928 4.9128551 -0.46329132 47 0 0 0 7.1259699
-1.0078008 5.0964742 -0.44650158 84 0 0 0 7.1309171
-0.40023541 1.7483479 -0.14056106 2 0 0 0 7.1358638
-1.3136421 5.0373478 -0.35994661 93 0 0 0 7.140811
-0.97142416 5.1086626 -0.49169207 88 0 0 0 7.1457582
-0.39008686 1.7528409 -0.15461536 26 0 0 0 7.1507049
-1.278716 5.0405903 -0.40812305 92 0 0 0 7.155652
-1.4313331 5.0060148 -0.35534346 125 0 0 0 7.1605992
-0.37705365 1.7551883 -0.17168191 10 0 0 0 7.1655459
-0.42898703 1.7357036 -0.15540996 62 0 0 0 7.1704931
-1.3981324 5.0153427 -0.40751699 95 0 0 0 7.1754398
-1.4795698 4.7540655 -0.33388951 150 0 0 0 7.180387
-0.41605562 1.7360523 -0.17347434 59 0 0 0 7.1853342
-0.46693164 1.7175188 -0.15520866 52 0 0 0 7.1902809
-1.5107081 4.9657354 -0.40392423 150 0 0 0 7.1952281
-1.6331359 4.8506098 -0.33822381 148 0 0 0 7.2001748
-0.45671502 1.7240043 -0.17526518 90 0 0 0 7.205122
-0.50763452 1.7044722 -0.15599866 36 0 0 0 7.2100692
-1.6318833 4.9455733 -0.40431598 119 0 0 0 7.2150159
-1.7850564 4.9190407 -0.34054279 102 0 0 0 7.2199631
-0.49737421 1.7119553 -0.17705636 135 0 0 0 7.2249098
-0.54819161 1.6944212 -0.15679231 10 0 0 0 7.229857
-1.1403189 3.2008059 -0.26220596 22 0 0 0 7.2348042
-1.1847861 3.0428329 -0.20885096 34 0 0 0 7.2397509
-0.5372768 1.694863 -0.17884719 150 0 0 0 7.244698
-0.58875334 1.6843685 -0.15858629 4 0 0 0 7.2496452
-1.1952492 3.1213682 -0.25787076 24 0 0 0 7.2545919
-1.2462502 2.993747 -0.20451052 29 0 0 0 7.2595391
-0.57784331 1.684809 -0.18164124 150 0 0 0 7.2644858
-0.62955242 1.6693214 -0.1593751 1 0 0 0 7.269433
-1.2363449 3.0172324 -0.25058219 35 0 0 0 7.2743802
-2.0986526 4.7299833 -0.32085827 14 0 0 0 7.2793269
-0.6176483 1.6697127 -0.18343496 148 0 0 0 7.2842741
-1.2426779 3.0775478 -0.29760641 30 0 0 0 7.2892208
-2.0474663 4.6783457 -0.39006823 17 0 0 0 7.294168
-2.2617559 4.79494 -0.32312384 69 0 0 0 7.2991152
-0.65745783 1.6546144 -0.18622901 110 0 0 0 7.3040619
-1.3522015 3.1328971 -0.30712312 6 0 0 0 7.3090091
-2.2195299 4.7657542 -0.40030992 40 0 0 0 7.3139558
-2.2373974 4.470377 -0.29996693 20 0 0 0 7.318903
-0.69631177 1.6384691 -0.18802713 73 0 0 0 7.3238502
-2.2092614 4.8001919 -0.47839516 80 0 0 0 7.3287969
-2.3092563 4.6709704 -0.39579618 18 0 0 0 7.333744
-2.5216618 4.7634521 -0.31784177 108 0 0 0 7.3386912
-1.4199114 3.1270771 -0.36779484 14 0 0 0 7.3436379
-2.2873595 4.6768103 -0.47391352 67 0 0 0 7.3485851
-2.4979672 4.7661872 -0.40696588 102 0 0 0 7.3535318
-2.6326113 4.7057366 -0.31225848 54 0 0 0 7.358479
-2.3007877 4.7614317 -0.57292718 61 0 0 0 7.3634262
-2.4715855 4.7617912 -0.49009669 90 0 0 0 7.3683729
-2.6255188 4.7383041 -0.40732795 95 0 0 0 7.3733201
-2.7426624 4.6459723 -0.30767876 90 0 0 0 7.3782668
-2.4448304 4.7663736 -0.58623707 98 0 0 0 7.383214
-2.6001594 4.7339516 -0.49545416 83 0 0 0 7.3881612
-2.5386732 4.3386331 -0.37641174 63 0 0 0 7.3931079
-2.8925328 4.6532083 -0.3069644 84 0 0 0 7.3980551
-2.5795147 4.7410717 -0.59675366 95 0 0 0 7.9121132
-2.5173888 4.3347459 -0.46270499 49 0 0 0 7.9170599
-2.7040262 4.3808627 -0.3838574 91 0 0 0 7.9220071
-3.0299566 4.6319237 -0.30452147 89 0 0 0 7.9269538
-2.4929993 4.3314438 -0.55782467 31 0 0 0 7.931901
-2.6779573 4.3704753 -0.47497952 77 0 0 0 7.9368482
-2.9759943 4.5781293 -0.40574035 91 0 0 0 7.9417949
-3.1590562 4.5920615 -0.30088347 90 0 0 0 7.9467421
-2.8245177 4.646678 -0.61352473 73 0 0 0 7.9516888
-2.9752243 4.6049862 -0.50977463 70 0 0 0 7.956636
-3.1470602 4.6033502 -0.4129585 95 0 0 0 7.9615831
-2.9668088 4.6254559 -0.62583989 72 0 0 0 7.971477
-3.1240549 4.593092 -0.51806736 79 0 0 0 7.9764242
-3.0905471 4.5733061 -0.63421804 70 0 0 0 7.9912648
-3.4253736 3.926965 -0.25711039 92 0 0 0 8.045682
-3.41522 3.9213145 -0.37616333 90 0 0 0 8.060523
-3.6523335 3.9969134 -0.26110774 61 0 0 0 8.0654697
-3.4031453 3.9135737 -0.49122354 78 0 0 0 8.0753641
-3.7175152 4.0709567 -0.39687276 66 0 0 0 8.0803108
-3.7739661 3.945662 -0.2585021 64 0 0 0 8.0852575
-3.391083 3.9068213 -0.61928457 57 0 0 0 8.0902052
-3.6979299 4.0538311 -0.52196139 57 0 0 0 8.0951519
-3.8432581 4.0178947 -0.39824682 43 0 0 0 8.1000986
-3.8767695 3.8694754 -0.25496536 76 0 0 0 8.1050463
-3.5404184 3.884917 -0.6345728 45 0 0 0 8.109993
-3.8411024 4.0136147 -0.52926451 52 0 0 0 8.1149397
-4.0983357 4.0871706 -0.41311511 33 0 0 0 8.1198874
-3.9861789 3.8016138 -0.25140539 74 0 0 0 8.1248341
-3.6805193 3.8465502 -0.64689189 42 0 0 0 8.1297808
-3.9863245 3.972491 -0.53755832 58 0 0 0 8.1347284
-4.51966 4.302578 -0.44332501 122 0 0 0 8.1396751
-4.1398182 3.7719152 -0.25067011 74 0 0 0 8.1446218
-3.8417962 3.8262146 -0.6631276 34 0 0 0 8.1495686
-4.51019 4.2859049 -0.59536874 96 0 0 0 8.1545162
-4.6908836 4.2616992 -0.4474999 124 0 0 0 8.1594629
-4.3130541 3.7511637 -0.25085142 63 0 0 0 8.1644096
-3.9889927 3.7861786 -0.67741436 21 0 0 0 8.1693573
-4.6863918 4.2462578 -0.6065219 101 0 0 0 8.174304
-4.872911 4.225338 -0.4536292 128 0 0 0 8.1792507
-4.5298066 3.7625327 -0.2528564 43 0 0 0 8.1841984
-4.1404233 3.7413373 -0.69167835 17 0 0 0 8.1891451
-4.8647823 4.2027068 -0.61766291 108 0 0 0 8.1940918
-4.9831553 4.1194553 -0.45203903 99 0 0 0 8.1990395
-4.7489934 3.7650027 -0.25584427 45 0 0 0 8.2039862
-4.3035173 3.7040579 -0.70889527 9 0 0 0 8.2089329
-4.9037747 4.0373411 -0.61135775 60 0 0 0 8.2138796
-4.9167252 3.8759501 -0.435164 88 0 0 0 8.2188272
-4.8276343 3.6495969 -0.25039485 82 0 0 0 8.223774
-4.8003702 3.9350433 -0.77877206 33 0 0 0 8.2287207
-4.892427 3.8355229 -0.5992589 76 0 0 0 8.2336683
-4.7966356 3.6028409 -0.41551572 98 0 0 0 8.238615
-7.8549509 3.7218113 -0.29927185 8 0 0 0 8.2434044
-4.8140965 3.7534492 -0.7705723 56 0 0 0 8.2485094
-3.6130617 1.7499187 -0.39052728 41 0 0 0 8.2532978
-4.8090429 3.5902083 -0.5794614 69 0 0 0 8.2534561
-7.8160324 3.4896026 -0.28928888 9 0 0 0 8.2631922
-4.8042598 3.561717 -0.75847471 23 0 0 0 8.2682972
-3.5914967 1.6357213 -0.38354602 38 0 0 0 8.2730856
-7.9556212 3.3350377 -0.28553492 12 0 0 0 8.28298
-8.4896164 5.5480757 -0.39488518 3 0 0 0 8.2831383
-3.5619867 1.5201421 -0.3766008 29 0 0 0 8.2928743
-7.9919887 3.1404791 -0.2782318 0 0 0 0 8.3027678
-8.4010525 5.223382 -0.37705854 5 0 0 0 8.3029261
-3.5391352 1.4118901 -0.3706305 13 0 0 0 8.3126621
-8.317812 4.9129601 -0.36121863 8 0 0 0 8.3227139
-3.5181353 1.306731 -0.36465406 1 0 0 0 8.3324499
-8.2613888 4.6278539 -0.34627435 5 0 0 0 8.3425016
-8.1965933 4.3503542 -0.33337536 7 0 0 0 8.3622904
-4.7368593 2.6902797 -0.70714706 0 0 0 0 8.3672371
-8.1343584 4.0819893 -0.32047191 6 0 0 0 8.3820782
-3.9617417 -0.58030546 -0.090166084 0 0 0 0 8.5305462
-3.9227962 -0.66630667 -0.089291416 1 0 0 0 8.550334
-3.8925714 -0.75402522 -0.2253723 5 0 0 0 8.5651751
-3.9110091 -0.7550118 -0.088288702 1 0 0 0 8.5701218
-3.8819239 -0.84567857 -0.22436182 6 0 0 0 8.5849628
-3.8881371 -0.84224463 -0.08733844 1 0 0 0 8.5899096
-3.8459647 -0.93153352 -0.22247304 6 0 0 0 8.6047506
-3.8693109 -0.93028557 -0.087368779 2 0 0 0 8.6096983
-3.8332727 -1.0222837 -0.22247271 5 0 0 0 8.6245394
-3.8636591 -1.0217006 -0.087335527 1 0 0 0 8.6294861
-3.7961855 -1.11333 -0.35758212 5 0 0 0 8.6393805
-3.8044448 -1.1107997 -0.2205486 5 0 0 0 8.6443272
-3.834645 -1.1062222 -0.086415686 1 0 0 0 8.6492739
-3.7632647 -1.2000386 -0.35567826 2 0 0 0 8.6591682
-3.7734787 -1.1964147 -0.21963665 2 0 0 0 8.664115
-3.8097725 -1.1935495 -0.086474359 0 0 0 0 8.6690617
-3.7477565 -1.2949252 -0.35468733 1 0 0 0 8.678956
-3.763921 -1.290017 -0.21961945 1 0 0 0 8.6839027
-3.7991207 -1.2852024 -0.086463958 1 0 0 0 8.6888504
-3.7301531 -1.3879093 -0.35370761 0 0 0 0 8.6987438
-3.739135 -1.3793399 -0.21867584 0 0 0 0 8.7036905
-3.7732456 -1.3725766 -0.086527087 0 0 0 0 8.7086382
-3.7105548 -1.4809893 -0.353737 0 0 0 0 8.7185316
-3.7204404 -1.4703747 -0.21870275 0 0 0 0 8.7234793
-5.8309994 -4.6505046 -0.85564834 1 0 0 0 8.9094524
-5.8790598 -4.4630671 -0.85361117 1 0 0 0 8.9312534
-3.2941325 -2.8317931 -0.35071877 19 0 0 0 8.9539747
-3.2884073 -3.0344715 -0.49759272 9 0 0 0 8.9688158
-3.2983472 -2.8393993 -0.10571329 2 0 0 0 8.9836569
-3.2916107 -3.0441041 -0.22959012 0 0 0 0 8.998498
-3.4053741 -3.068609 -0.11305653 13 0 0 0 9.0034447
-3.0832148 -3.796293 -0.50899422 2 0 0 0 9.0875444
-3.1440921 -3.763231 -0.37274805 24 0 0 0 9.0924911
-2.9114702 -3.7664299 -0.48980856 65 0 0 0 9.1073322
-3.0159645 -3.7863669 -0.36432281 66 0 0 0 9.1122789
-2.7401509 -3.7245281 -0.46962941 62 0 0 0 9.12712
-2.841728 -3.7456131 -0.35115618 64 0 0 0 9.1320667
-2.9359174 -3.7580466 -0.23972353 77 0 0 0 9.1370144
-3.0359325 -3.7662046 -0.13326833 77 0 0 0 9.1419611
-2.576828 -3.6822438 -0.45041305 61 0 0 0 9.1469078
-2.6711509 -3.6976726 -0.33697736 69 0 0 0 9.1518555
-2.7613726 -3.7103016 -0.23156273 73 0 0 0 9.1568022
-2.8700278 -3.7310715 -0.13205871 80 0 0 0 9.1617489
-2.4270227 -3.6503279 -0.43312609 61 0 0 0 9.1666956
-2.5128081 -3.654155 -0.3247385 66 0 0 0 9.1716433
-2.6022005 -3.6698337 -0.22532542 71 0 0 0 9.17659
-2.7068834 -3.690798 -0.13083947 70 0 0 0 9.1815367
-2.278836 -3.610323 -0.41583711 58 0 0 0 9.1864843
-2.3659801 -3.6210999 -0.31343809 64 0 0 0 9.191431
-2.4575353 -3.6396852 -0.2190132 77 0 0 0 9.1963778
-2.5527766 -3.6510925 -0.12957774 67 0 0 0 9.2013254
-2.1431248 -3.5797365 -0.4014833 56 0 0 0 9.2062721
-2.2304342 -3.5935147 -0.30408138 61 0 0 0 9.2112188
-2.3136802 -3.6054904 -0.21269941 81 0 0 0 9.2161655
-2.41223 -3.6227546 -0.12924469 66 0 0 0 9.2211132
-2.009218 -3.5450556 -0.38612351 55 0 0 0 9.2260599
-2.0933638 -3.5549858 -0.29373917 59 0 0 0 9.2310066
-2.1810594 -3.5757668 -0.20833041 65 0 0 0 9.2359543
-2.2745337 -3.5912733 -0.12790017 78 0 0 0 9.240901
-1.8824033 -3.5120387 -0.37172943 57 0 0 0 9.2458477
-1.9679028 -3.528918 -0.28433371 67 0 0 0 9.2507954
-2.0481029 -3.5390475 -0.20296742 73 0 0 0 9.2557421
-2.1418369 -3.5595534 -0.1275323 68 0 0 0 9.2606888
-1.7618288 -3.4837306 -0.35930258 56 0 0 0 9.2656364
-1.8431094 -3.4958081 -0.27492991 77 0 0 0 9.2705832
-1.9267081 -3.5137911 -0.19854228 79 0 0 0 9.2755299
-2.0195088 -3.535347 -0.12711082 69 0 0 0 9.2804766
-1.643011 -3.4503298 -0.34587094 69 0 0 0 9.2854242
-1.725408 -3.4643624 -0.26649192 74 0 0 0 9.2903709
-1.8070747 -3.4834428 -0.19411238 88 0 0 0 9.2953176
-1.8947093 -3.5012441 -0.12670735 91 0 0 0 9.3002653
-1.5313849 -3.4205918 -0.33440319 79 0 0 0 9.305212
-1.6118497 -3.4357216 -0.25903219 84 0 0 0 9.3101587
-1.6914847 -3.4539011 -0.18966271 95 0 0 0 9.3151064
-1.773764 -3.4639523 -0.12628815 84 0 0 0 9.3200531
-1.4250854 -3.3976064 -0.32290524 76 0 0 0 9.3249998
-1.5022401 -3.4058905 -0.25155485 87 0 0 0 9.3299475
-1.5776561 -3.4192679 -0.18520829 102 0 0 0 9.3348942
-1.6647117 -3.4451163 -0.12679999 91 0 0 0 9.3398409
-1.3215982 -3.370482 -0.31239721 89 0 0 0 9.3447876
-1.3979096 -3.381813 -0.24404834 92 0 0 0 9.3497353
-1.4746315 -3.4011409 -0.18269148 98 0 0 0 9.354682
-1.5528524 -3.4093909 -0.12633701 103 0 0 0 9.3596287
-1.2212029 -3.345211 -0.30187303 89 0 0 0 9.3645763
-1.2964861 -3.3555944 -0.23752975 98 0 0 0 9.369523
-1.3723174 -3.3769703 -0.17917545 111 0 0 0 9.3744698
-1.4516973 -3.3881736 -0.12681371 106 0 0 0 9.3794174
-1.125874 -3.325026 -0.29253346 85 0 0 0 10.016775
-1.1876752 -3.3040371 -0.22928311 68 0 0 0 10.021722
-1.2705561 -3.3471384 -0.17589176 114 0 0 0 10.026669
-1.3502855 -3.3653655 -0.12753366 108 0 0 0 10.031616
-1.0339597 -3.3093312 -0.28395015 87 0 0 0 10.036563
-1.0921624 -3.2754998 -0.22272553 52 0 0 0 10.04151
-1.1649806 -3.2960517 -0.17139556 56 0 0 0 10.046457
-1.2508073 -3.337023 -0.12799364 124 0 0 0 10.051404
-0.94261736 -3.2845967 -0.27437061 89 0 0 0 10.056351
-1.0009791 -3.2537656 -0.21714316 51 0 0 0 10.061298
-1.0716716 -3.2714179 -0.16882487 57 0 0 0 10.066245
-1.1450621 -3.2819426 -0.12750067 52 0 0 0 10.071192
-0.85441756 -3.2627168 -0.26577458 95 0 0 0 10.076139
-0.91284418 -3.2328882 -0.21254618 59 0 0 0 10.081086
-0.98145366 -3.2486384 -0.16623859 59 0 0 0 10.086033
-1.055186 -3.2661586 -0.12790774 59 0 0 0 10.09098
-0.76836139 -3.2437384 -0.25816628 89 0 0 0 10.095927
-0.82670319 -3.2119141 -0.20693997 51 0 0 0 10.100874
-0.89547092 -3.2306647 -0.16462959 61 0 0 0 10.105821
-0.96697938 -3.2432864 -0.12831236 59 0 0 0 10.110768
-0.68315923 -3.2217138 -0.24955595 88 0 0 0 10.115715
-0.74493831 -3.1987422 -0.20230812 55 0 0 0 10.120662
-0.81048322 -3.2126415 -0.16201562 59 0 0 0 10.125609
-0.87972939 -3.219367 -0.12971295 61 0 0 0 10.130556
-0.60100561 -3.2005463 -0.24193111 95 0 0 0 10.135503
-0.66953856 -3.2143035 -0.19962591 101 0 0 0 10.14045
-0.72978181 -3.2004232 -0.161378 47 0 0 0 10.145397
-0.79665899 -3.1992531 -0.13009186 68 0 0 0 10.150344
-0.52227604 -3.1882272 -0.23528402 98 0 0 0 10.155291
-0.58958828 -3.1970394 -0.19598813 117 0 0 0 10.160238
-0.654015 -3.2079937 -0.16070315 109 0 0 0 10.165185
-0.72346628 -3.2187192 -0.13239695 98 0 0 0 10.170132
-0.44279143 -3.1599228 -0.22765188 101 0 0 0 10.175079
-0.51077384 -3.1827226 -0.1913425 99 0 0 0 10.180026
-0.57526046 -3.1946788 -0.15905672 104 0 0 0 10.184973
-0.6415872 -3.2025514 -0.13376638 110 0 0 0 10.18992
-0.33665597 -2.8855793 -0.20232372 62 0 0 0 10.194867
-0.43130276 -3.1544197 -0.18670988 127 0 0 0 10.199814
-0.4963654 -3.1783655 -0.15741256 107 0 0 0 10.204761
-0.56393862 -3.1911883 -0.13511327 122 0 0 0 10.209708
-0.28725252 -3.0911343 -0.21138029 150 0 0 0 10.214655
-0.35221708 -3.1130817 -0.18108499 150 0 0 0 10.219602
-0.41809434 -3.1540124 -0.15577127 108 0 0 0 10.224549
-0.48491609 -3.1718793 -0.13647154 115 0 0 0 10.229496
-0.21040106 -3.0336688 -0.20275736 150 0 0 0 10.234443
-0.28110307 -3.1344421 -0.18037687 110 0 0 0 10.23939
-0.34215418 -3.1365566 -0.15511402 98 0 0 0 10.244337
-0.40784484 -3.1514761 -0.13782164 117 0 0 0 10.249284
-0.13779077 -2.9599838 -0.19312806 150 0 0 0 10.254231
-0.20615478 -3.0959098 -0.17473079 101 0 0 0 10.259178
-0.26830167 -3.1210029 -0.15344575 103 0 0 0 10.264125
-0.33210111 -3.1380167 -0.13916007 113 0 0 0 10.269072
-0.067699902 -2.8971925 -0.18447894 150 0 0 0 10.274019
-0.13457754 -3.0862527 -0.17204741 103 0 0 0 10.278966
-0.19436 -3.1034503 -0.15277877 102 0 0 0 10.283913
-0.25665343 -3.1095252 -0.14050816 98 0 0 0 10.28886
-0.00088834274 -2.8402519 -0.17581064 97 0 0 0 10.293807
-0.062527537 -3.0666044 -0.16837315 111 0 0 0 10.298754
-0.12374349 -3.0927479 -0.15209171 109 0 0 0 10.303701
-0.18495284 -3.0968738 -0.14182742 108 0 0 0 10.308648
0.064586438 -2.7902572 -0.16913067 82 0 0 0 10.313595
0.0075605349 -3.024837 -0.16370691 150 0 0 0 10.318542
0.62600654 -2.6703935 -0.12862146 65 0 0 0 10.319911
-0.051374324 -3.0661077 -0.15042379 102 0 0 0 10.323489
0.57235682 -2.6828942 -0.13138252 34 0 0 0 10.324858
-0.11320993 -3.0832229 -0.14414705 113 0 0 0 10.328436
0.52178901 -2.6935391 -0.13615832 25 0 0 0 10.329805
0.12827545 -2.7782204 -0.16341335 80 0 0 0 10.333383
0.47333622 -2.7223122 -0.14992939 12 0 0 0 10.334752
0.07480602 -2.9158587 -0.15607958 150 0 0 0 10.33833
0.68688053 -2.6542149 -0.12389289 74 0 0 0 10.339699
0.019330978 -3.0534053 -0.15073748 104 0 0 0 10.343277
0.63321811 -2.6667182 -0.12965408 80 0 0 0 10.344646
-0.041181974 -3.0635762 -0.14547192 115 0 0 0 10.348224
0.58345336 -2.6814077 -0.13643037 75 0 0 0 10.349593
0.1922878 -2.7591903 -0.15870222 97 0 0 0 10.353171
0.53436822 -2.7021446 -0.15220508 36 0 0 0 10.35454
0.13797089 -2.8297138 -0.1494166 150 0 0 0 10.358118
0.74851453 -2.6430771 -0.1201632 88 0 0 0 10.359487
0.089654505 -3.027667 -0.14905894 122 0 0 0 10.363065
0.69493741 -2.6535845 -0.12792648 91 0 0 0 10.364434
0.029987182 -3.0408845 -0.14679486 109 0 0 0 10.368012
0.64439958 -2.6632347 -0.13670349 101 0 0 0 10.369381
0.25402093 -2.7460589 -0.15397635 109 0 0 0 10.372959
0.59463507 -2.6769342 -0.15448087 96 0 0 0 10.374328
0.2002937 -2.7825739 -0.14571954 145 0 0 0 10.377906
0.80328536 -2.607589 -0.11542244 116 0 0 0 10.379275
0.1537942 -2.9205461 -0.14441587 150 0 0 0 10.382853
0.75660962 -2.6414485 -0.12619738 98 0 0 0 10.384222
0.099684499 -3.0281341 -0.14910328 116 0 0 0 10.3878
0.70615697 -2.6491024 -0.13697647 95 0 0 0 10.389169
0.31589422 -2.7299292 -0.14925288 99 0 0 0 10.392747
0.65728939 -2.6648488 -0.15675625 93 0 0 0 10.394116
0.26128885 -2.7423782 -0.14201096 122 0 0 0 10.397694
0.8631081 -2.5923595 -0.11168718 93 0 0 0 10.399063
0.21398278 -2.812237 -0.13975626 150 0 0 0 10.402641
0.81141818 -2.6049621 -0.12345724 101 0 0 0 10.40401
0.16554271 -2.9481251 -0.14744635 150 0 0 0 10.407588
0.76967359 -2.6400583 -0.1382525 86 0 0 0 10.408957
0.3777203 -2.7147975 -0.1445279 78 0 0 0 10.412535
0.71913183 -2.6487195 -0.15903077 91 0 0 0 10.413904
0.32391816 -2.7312908 -0.13928649 141 0 0 0 10.417482
0.94870281 -2.6464138 -0.11100797 22 0 0 0 10.418851
0.27196074 -2.7508769 -0.13705069 119 0 0 0 10.422429
0.87484908 -2.5979123 -0.12273073 81 0 0 0 10.423798
0.22036414 -2.7835014 -0.14180662 150 0 0 0 10.427376
0.82361466 -2.6005292 -0.13751067 69 0 0 0 10.428745
0.44040024 -2.7027082 -0.14080372 61 0 0 0 10.432323
0.78192598 -2.633635 -0.16130799 55 0 0 0 10.433692
0.38568446 -2.7171593 -0.13756017 107 0 0 0 10.43727
1.0223817 -2.655858 -0.10831164 21 0 0 0 10.438639
0.33400372 -2.7307529 -0.13633029 139 0 0 0 10.442217
0.95438397 -2.6316609 -0.12304091 22 0 0 0 10.443586
0.28138372 -2.7423089 -0.14309818 127 0 0 0 10.447164
0.88989335 -2.5966172 -0.13879348 66 0 0 0 10.448533
0.50117993 -2.6885259 -0.13607256 28 0 0 0 10.452111
0.84114546 -2.6093714 -0.16357656 81 0 0 0 10.45348
0.44754824 -2.7010276 -0.13483529 76 0 0 0 10.457058
1.0816265 -2.6315873 -0.10457925 21 0 0 0 10.458427
0.39580807 -2.7156231 -0.13660456 105 0 0 0 10.462005
1.0173351 -2.6135726 -0.12131973 22 0 0 0 10.463374
0.34422964 -2.726228 -0.14437775 99 0 0 0 10.466952
0.97651416 -2.6497207 -0.14311855 21 0 0 0 10.468321
0.56276691 -2.6783853 -0.13234124 24 0 0 0 10.471899
0.90479332 -2.5973282 -0.16685407 34 0 0 0 10.473268
0.5092203 -2.6888912 -0.13310602 31 0 0 0 10.476846
1.1373004 -2.5981374 -0.099838227 20 0 0 0 10.478215
0.45780346 -2.6964955 -0.13588218 43 0 0 0 10.481793
1.0800942 -2.5994797 -0.12059417 21 0 0 0 10.483162
0.40611887 -2.709101 -0.14665356 38 0 0 0 10.48674
1.0376927 -2.626545 -0.14339335 20 0 0 0 10.488109
0.98987633 -2.6403494 -0.17317986 19 0 0 0 10.493056
1.2083564 -2.5994453 -0.09713535 19 0 0 0 10.498003
1.1620489 -2.6243265 -0.12091967 19 0 0 0 10.50295
1.1006348 -2.6084559 -0.14367123 20 0 0 0 10.507897
1.059233 -2.634578 -0.17747566 19 0 0 0 10.512844
1.2732191 -2.5834424 -0.093418904 18 0 0 0 10.517791
1.2141854 -2.5806997 -0.11817059 18 0 0 0 10.522738
1.1682396 -2.5975926 -0.1449628 19 0 0 0 10.527685
1.1303535 -2.6338933 -0.1817745 18 0 0 0 10.532632
1.3446021 -2.5777557 -0.09072163 16 0 0 0 10.537579
1.2844677 -2.5769656 -0.11746735 17 0 0 0 10.542526
1.24313 -2.6020858 -0.14727291 16 0 0 0 10.547473
1.1999478 -2.6231234 -0.18507397 16 0 0 0 10.55242
1.1014705 -1.9997245 -0.068130814 0 0 0 0 10.557367
1.3642205 -2.584686 -0.11779483 16 0 0 0 10.562314
1.3053017 -2.5789526 -0.14854977 17 0 0 0 10.567261
2.2018313 -2.2553935 -0.047580417 59 0 0 0 10.567454
1.2723172 -2.6174591 -0.18966816 15 0 0 0 10.572208
2.1721456 -2.2860436 -0.10789344 57 0 0 0 10.572401
1.1050773 -1.9027437 -0.06246176 3 0 0 0 10.577155
2.0510385 -2.2163568 -0.16140941 51 0 0 0 10.577348
1.0849326 -1.9458716 -0.088340156 3 0 0 0 10.582102
2.0817142 -2.3029478 -0.23447965 58 0 0 0 10.582295
1.3815457 -2.5764658 -0.15017927 11 0 0 0 10.587049
2.3374476 -2.2896886 -0.045616318 18 0 0 0 10.587242
1.3384284 -2.59551 -0.19297428 10 0 0 0 10.591996
2.2416875 -2.2552319 -0.10721813 75 0 0 0 10.592189
1.1528999 -1.8869438 -0.059682459 6 0 0 0 10.596943
2.1309943 -2.1980488 -0.16377108 61 0 0 0 10.597136
1.1115507 -1.8910401 -0.086496435 13 0 0 0 10.60189
2.0903237 -2.2052166 -0.23158543 49 0 0 0 10.602083
1.0889614 -1.9220426 -0.11437324 16 0 0 0 10.606837
2.4292727 -2.2749305 -0.043026656 22 0 0 0 10.60703
1.0662947 -1.9540493 -0.14924905 13 0 0 0 10.611784
2.3420689 -2.2498872 -0.10765945 17 0 0 0 10.611977
1.2167187 -1.8929143 -0.057957172 2 0 0 0 10.616731
2.3001287 -2.263 -0.17346369 70 0 0 0 10.616924
1.1510786 -1.8598365 -0.084691808 17 0 0 0 10.621678
2.2153254 -2.2290633 -0.24211398 88 0 0 0 10.621871
1.1081052 -1.8558486 -0.11150483 21 0 0 0 10.626625
2.5184271 -2.2530382 -0.040429909 7 0 0 0 10.626818
1.0606241 -1.840644 -0.14430647 44 0 0 0 10.631572
2.4204557 -2.2224898 -0.10801954 17 0 0 0 10.631765
1.7046371 -2.526377 -0.074633926 11 0 0 0 10.636519
2.3795524 -2.2346518 -0.17582914 76 0 0 0 10.636712
1.2250787 -1.8833032 -0.085998125 0 0 0 0 10.641466
2.3310428 -2.2374566 -0.25161234 49 0 0 0 10.641659
1.1373866 -1.8081492 -0.11066712 29 0 0 0 10.646413
2.6047289 -2.2280066 -0.0368223 7 0 0 0 10.646606
1.0834264 -1.7816304 -0.14344876 47 0 0 0 10.65136
2.5076916 -2.1985073 -0.10841553 32 0 0 0 10.651553
1.7606757 -2.4849234 -0.070907906 7 0 0 0 10.656307
2.4734414 -2.2179906 -0.17924909 82 0 0 0 10.6565
1.716276 -2.5099156 -0.11469307 11 0 0 0 10.661254
2.3107166 -2.1163454 -0.24660687 40 0 0 0 10.661447
1.6591605 -2.507283 -0.15644285 7 0 0 0 10.666201
2.5609367 -2.0947855 -0.032721575 0 0 0 0 10.666394
1.1218936 -1.7513804 -0.1446384 48 0 0 0 10.671148
2.6045897 -2.181982 -0.10884792 68 0 0 0 10.671341
1.8354275 -2.4713726 -0.068243094 7 0 0 0 10.676095
2.514549 -2.1528099 -0.17947207 57 0 0 0 10.676288
1.7986375 -2.5047312 -0.11405566 9 0 0 0 10.681042
2.2123575 -1.9305165 -0.23330587 18 0 0 0 10.681235
1.7320795 -2.4896476 -0.15877327 7 0 0 0 10.685989
2.7448094 -2.145386 -0.030486351 4 0 0 0 10.686182
1.1650707 -1.727357 -0.14684387 2 0 0 0 10.690936
2.6168153 -2.0924227 -0.10596129 31 0 0 0 10.691129
1.8980371 -2.4392331 -0.064538158 14 0 0 0 10.695883
2.5498955 -2.0823536 -0.17967325 53 0 0 0 10.696076
1.8830389 -2.4986403 -0.11442735 10 0 0 0 10.70083
2.4418328 -2.0313232 -0.25523481 150 0 0 0 10.701023
1.8041435 -2.468967 -0.1601017 6 0 0 0 10.705777
2.7579393 -2.0578697 -0.027601629 0 0 0 0 10.70597
1.7068334 -2.404402 -0.21072118 28 0 0 0 10.710724
2.5998693 -1.9844822 -0.10195982 20 0 0 0 10.710917
1.95693 -2.400912 -0.06082103 31 0 0 0 10.715671
2.6247878 -2.0437772 -0.18202433 66 0 0 0 10.715864
1.9042145 -2.4105065 -0.11058144 18 0 0 0 10.720618
2.5706232 -2.0383179 -0.2657893 28 0 0 0 10.720811
1.8357849 -2.3923361 -0.15829347 11 0 0 0 10.725565
2.9095283 -2.0709181 -0.025250588 12 0 0 0 10.725758
1.7750318 -2.3805389 -0.21403472 51 0 0 0 10.730512
2.6844313 -1.9533619 -0.1023474 31 0 0 0 10.730705
2.0348637 -2.3835013 -0.058171596 32 0 0 0 10.735459
2.6620872 -1.9744104 -0.18123251 65 0 0 0 10.735652
1.9810896 -2.3940506 -0.1109268 28 0 0 0 10.740406
1.893703 -2.3529732 -0.15957272 21 0 0 0 10.745353
3.0430281 -2.0640976 -0.021833856 16 0 0 0 10.745546
1.8528372 -2.365133 -0.21938369 79 0 0 0 10.7503
2.7768865 -1.9246111 -0.1037673 36 0 0 0 10.750493
2.114655 -2.3691788 -0.055527497 32 0 0 0 10.755247
2.7342093 -1.9306976 -0.18457425 95 0 0 0 10.75544
2.0628233 -2.3808219 -0.11029054 28 0 0 0 10.760194
2.6229825 -1.8825314 -0.26612064 14 0 0 0 10.760387
1.9724265 -2.3396075 -0.16192359 21 0 0 0 10.765141
2.633518 -1.7015823 -0.016296739 43 0 0 0 10.765334
1.8956109 -2.3070431 -0.22061002 82 0 0 0 10.770088
3.045279 -2.0081828 -0.10987535 138 0 0 0 10.770281
2.1880171 -2.3425407 -0.051863763 32 0 0 0 10.775035
2.878233 -1.9333869 -0.19119656 37 0 0 0 10.775228
2.1332688 -2.3520486 -0.10961574 28 0 0 0 10.779982
2.5962319 -1.770129 -0.26107919 23 0 0 0 10.780175
2.0532875 -2.3233368 -0.16428544 32 0 0 0 10.784929
2.3666623 -1.4568515 -0.012300196 57 0 0 0 10.785122
1.9554229 -2.2697704 -0.22389528 74 0 0 0 10.789876
2.3436804 -1.4708564 -0.083188064 93 0 0 0 10.790069
2.295532 -1.4666666 -0.15097909 82 0 0 0 10.795016
2.29036 -1.4845122 -0.22894233 85 0 0 0 10.799963
2.3981745 -1.4042332 -0.0094704488 56 0 0 0 10.80491
4.0240092 -1.0835766 0.01717023 56 0 0 0 10.809355
2.5339825 -1.5117416 -0.086984985 154 0 0 0 10.809857
4.0447664 -1.0986714 -0.11290771 59 0 0 0 10.814302
2.3504374 -1.4271573 -0.15324232 90 0 0 0 10.814804
4.1468534 -1.1295758 -0.24833021 38 0 0 0 10.819249
2.2889302 -1.4083356 -0.22698589 85 0 0 0 10.819751
4.1789861 -1.1352066 -0.396465 24 0 0 0 10.824196
2.4453335 -1.3593534 -0.0087032365 98 0 0 0 10.824698
3.9719298 -0.97699124 0.018331928 77 0 0 0 10.829143
2.341445 -1.3265402 -0.079271562 92 0 0 0 10.829645
3.9335113 -0.97330713 -0.10850077 68 0 0 0 10.83409
2.3158433 -1.332414 -0.14915416 109 0 0 0 10.834592
3.9220676 -0.97087973 -0.23445065 6 0 0 0 10.839037
2.3235095 -1.3538631 -0.22917096 69 0 0 0 10.839539
3.9771972 -0.97757781 -0.37768531 42 0 0 0 10.843984
2.4378181 -1.284893 -0.005718241 88 0 0 0 10.844486
3.795912 -0.84460986 0.019016616 20 0 0 0 10.848931
2.3710411 -1.2718321 -0.078434676 117 0 0 0 10.849433
3.85865 -0.86165553 -0.10524348 96 0 0 0 10.853878
2.3629925 -1.2875357 -0.15038686 96 0 0 0 10.85438
3.9076655 -0.87205857 -0.2334484 74 0 0 0 10.858825
2.3844442 -1.3136342 -0.2334605 83 0 0 0 10.859327
3.8827569 -0.85699916 -0.36834887 0 0 0 0 10.863772
2.4732251 -1.2344581 -0.0039031494 60 0 0 0 10.864274
3.7950308 -0.75643033 0.020967301 80 0 0 0 10.868719
2.4289529 -1.232458 -0.077709995 99 0 0 0 10.869221
3.8737895 -0.77322251 -0.10536282 96 0 0 0 10.873666
3.7772577 -0.74980682 -0.22495636 9 0 0 0 10.878613
3.6978207 -0.72419035 -0.35062644 38 0 0 0 10.88356
2.5253797 -1.1898078 -0.0021566637 15 0 0 0 10.884062
3.9976718 -0.70476067 0.023055928 14 0 0 0 10.888507
2.4928021 -1.1943623 -0.079009876 22 0 0 0 10.889009
3.7818029 -0.66377878 -0.10202949 32 0 0 0 10.893454
2.4418635 -1.1850445 -0.15279315 4 0 0 0 10.893956
3.7626228 -0.6559813 -0.22294968 47 0 0 0 10.898401
2.4536905 -1.202687 -0.23783083 14 0 0 0 10.898903
3.7398689 -0.63801599 -0.35386187 32 0 0 0 10.903348
2.59319 -1.1528934 -0.00047242906 3 0 0 0 10.90385
3.8388827 -0.58920473 0.023676615 54 0 0 0 10.908295
2.579304 -1.1643268 -0.079402238 27 0 0 0 10.908797
3.8276258 -0.58278203 -0.10227717 36 0 0 0 10.913242
2.4518507 -1.1214125 -0.15187639 7 0 0 0 10.913744
3.8215113 -0.57359368 -0.22625542 64 0 0 0 10.918189
2.4853616 -1.1460739 -0.2400035 19 0 0 0 10.918691
3.8007419 -0.55572355 -0.36017624 51 0 0 0 10.923136
4.0319972 -0.52707589 0.025800768 30 0 0 0 10.928083
4.1123209 -0.53093183 -0.10954481 39 0 0 0 10.93303
2.4088342 -1.0352887 -0.14874484 67 0 0 0 10.933532
3.8386385 -0.48525417 -0.22738293 19 0 0 0 10.937977
2.4513402 -1.0603677 -0.23591077 6 0 0 0 10.938479
3.8945179 -0.47596559 -0.36963168 32 0 0 0 10.942924
4.4289937 -1.7388334 0.0059709377 71 0 0 0 10.943426
4.8758001 -0.53026652 0.032138202 26 0 0 0 10.947871
3.8976212 -1.5510248 -0.11684897 0 0 0 0 10.948373
4.7212582 -0.50218475 -0.12520659 55 0 0 0 10.952818
4.7242789 -0.48744169 -0.28022829 92 0 0 0 10.957765
2.4721644 -1.000245 -0.23703837 29 0 0 0 10.958267
4.7516217 -0.46483594 -0.45136189 77 0 0 0 10.962712
4.5620961 -1.675902 0.0093582757 13 0 0 0 10.963214
4.8788376 -0.42223665 0.034061294 17 0 0 0 10.967659
3.7812092 -1.4074099 -0.11143566 10 0 0 0 10.968161
4.7312837 -0.39448255 -0.12431417 12 0 0 0 10.972606
2.6371663 -0.98981214 -0.16075823 28 0 0 0 10.973108
7.20433 -0.57390398 -0.42794859 2 0 0 0 10.977553
2.5785561 -0.97214168 -0.24651486 47 0 0 0 10.978055
6.1161814 -0.45131731 -0.58129764 3 0 0 0 10.9825
4.7200761 -1.6161276 0.012640601 10 0 0 0 10.983002
4.9048429 -0.31527653 0.034885373 2 0 0 0 10.987447
3.8132887 -1.3207651 -0.11062739 17 0 0 0 10.987949
8.6450624 -0.52456337 -0.22723436 15 0 0 0 10.992394
4.8740392 -1.6996362 -0.29596385 13 0 0 0 10.992896
7.133337 -0.40033633 -0.42474371 1 0 0 0 10.997341
5.1901379 -1.8156246 -0.49525219 62 0 0 0 10.997843
