# .PCD v0.7 - Point Cloud Data file format
VERSION 0.7
FIELDS x y z intensity normal_x normal_y normal_z curvature
SIZE 4 4 4 4 4 4 4 4
TYPE F F F F F F F F
COUNT 1 1 1 1 1 1 1 1
WIDTH 912
HEIGHT 1
VIEWPOINT 0 0 0 1 0 0 0
POINTS 912
DATA ascii
-0.26600742 -3.7494648 -2.8289948 355 0 0 0 77.647614
0.73864549 -31.056084 -8.4236488 17 0 0 0 77.647614
-1.8743601 -10.36819 -4.250989 47 0 0 0 77.647614
0.19445243 -5.0101728 -3.1520348 266 0 0 0 77.647614
-0.69649106 -3.6774089 -2.7363234 393 0 0 0 77.647614
-0.22179192 -3.192765 -2.6765018 363 0 0 0 77.647614
-1.9262644 -25.070356 -6.4251704 9 0 0 0 77.647614
-0.93449682 -5.0493383 -3.0155141 307 0 0 0 77.647614
-1.4746251 -4.9041796 -2.9358006 301 0 0 0 77.647614
-2.0988083 -27.370373 -1.4905108 17 0 0 0 77.647614
0.17706987 -3.6947467 -2.8876772 365 0 0 0 77.647614
-4.7524271 -16.587469 -5.7959018 17 0 0 0 77.647614
-4.424931 -25.160496 -2.3083413 15 0 0 0 77.647614
-7.8121052 -27.658562 -6.5996399 12 0 0 0 77.647614
-0.60595065 -3.1582992 -2.6135261 393 0 0 0 77.647614
0.6760779 -32.037632 -3.7455103 9 0 0 0 77.647614
-6.5891232 -23.195923 -6.8034592 17 0 0 0 77.647614
-2.0320637 -26.445564 -4.0638833 18 0 0 0 77.647614
-7.8736196 -28.032446 -5.1840906 15 0 0 0 77.647614
0.16908796 -3.15118 -2.7385001 347 0 0 0 77.647614
-2.7276804 -35.719921 1.5513511 5 0 0 0 77.647614
-5.383647 -30.268175 -7.4448738 15 0 0 0 77.647614
-0.88575983 -11.735106 -4.9385705 8 0 0 0 77.647614
-0.31447649 -4.3633699 -2.9580081 322 0 0 0 77.647614
-1.2672179 -4.1462708 -2.7823772 413 0 0 0 77.647614
-8.7944393 -31.664242 -0.94129938 8 0 0 0 77.647614
-1.7683451 -5.9695926 -3.1691358 237 0 0 0 77.647614
0.36487383 -12.439951 -5.451849 10 0 0 0 77.647614
-2.1151783 -27.683855 -8.5747919 12 0 0 0 77.647614
-1.4375299 -18.926819 -6.9032249 15 0 0 0 77.647614
0.71281362 -31.464741 -6.8811994 16 0 0 0 77.647614
-1.1925695 -6.5563478 -3.0684915 44 0 0 0 77.647614
0.19136035 -5.3972921 -3.024132 165 0 0 0 77.647614
0.60226411 -27.502905 -4.5955062 16 0 0 0 77.647614
-4.5993199 -26.187052 -1.0999177 13 0 0 0 77.647614
-1.0751884 -5.8635378 -3.1132469 232 0 0 0 77.647614
-0.40856156 -5.5228882 -2.9834502 257 0 0 0 77.647614
-0.80519438 -4.3054523 -2.8756595 360 0 0 0 77.647614
-9.1744404 -33.103081 0.69799238 7 0 0 0 77.647614
0.76659179 -36.428364 1.1445036 10 0 0 0 77.647614
-2.7989521 -9.6757202 -3.9338417 105 0 0 0 77.647614
0.53052223 -19.514948 -7.4350653 10 0 0 0 77.647614
-0.37734923 -5.1540666 -3.128809 351 0 0 0 77.647614
-4.3442864 -24.618099 -3.4950259 13 0 0 0 77.647614
-0.97676897 -3.0709033 -2.5652201 455 0 0 0 77.647614
-8.1090002 -29.132978 -2.3601701 8 0 0 0 77.647614
-1.106153 -3.5535953 -2.6627808 439 0 0 0 77.647614
0.18540785 -4.3322778 -3.044049 262 0 0 0 77.647614
-2.0912902 -7.1461973 -3.3366027 92 0 0 0 77.647614
0.40676329 -19.386333 -7.3815188 8 0 0 0 77.738754
-7.9894924 -27.634506 -6.5998044 20 0 0 0 77.738754
-2.8494444 -9.6268387 -3.9186981 85 0 0 0 77.738754
0.51288068 -34.628399 -0.62112856 4 0 0 0 77.738754
-0.62488073 -3.1503704 -2.6091282 403 0 0 0 77.738754
0.1490953 -3.1488116 -2.7347596 355 0 0 0 77.738754
-1.503172 -4.888864 -2.9307895 332 0 0 0 77.738754
0.4070636 -27.189884 -3.1686304 16 0 0 0 77.738754
-0.95445603 -11.679692 -4.9152522 10 0 0 0 77.738754
-4.5845189 -25.16066 -2.3064172 16 0 0 0 77.738754
-2.1845863 -26.309105 -4.0404038 15 0 0 0 77.738754
0.15749422 -5.3909822 -3.0189285 148 0 0 0 77.738754
0.43269345 -27.499844 -4.5904331 13 0 0 0 77.738754
-2.084965 -25.189177 -5.145256 16 0 0 0 77.738754
-4.7560468 -26.136894 -1.0943204 19 0 0 0 77.738754
0.51821172 -31.443151 -6.8709321 17 0 0 0 77.738754
-1.9146538 -10.228776 -4.1959133 36 0 0 0 77.738754
-0.99532783 -3.0630131 -2.5627043 454 0 0 0 77.738754
0.54612565 -31.02845 -8.4103069 15 0 0 0 77.738754
0.15817416 -4.3305202 -3.0411267 275 0 0 0 77.738754
-0.28925887 -3.7450073 -2.8259668 372 0 0 0 77.738754
-1.2297838 -6.5306611 -3.0584266 104 0 0 0 77.738754
-0.72106165 -3.6813402 -2.7416291 428 0 0 0 77.738754
-1.1284038 -3.547133 -2.6620607 479 0 0 0 77.738754
-2.5470078 -30.664814 -7.8670883 30 0 0 0 77.738754
-8.9705353 -31.546408 -0.93312681 10 0 0 0 77.738754
-8.3187456 -29.191395 -2.3633523 8 0 0 0 77.738754
-1.800088 -5.9412384 -3.1583064 215 0 0 0 77.738754
-4.3305674 -23.584618 -4.5582309 19 0 0 0 77.738754
-0.24080607 -3.1780694 -2.6643243 352 0 0 0 77.738754
-9.3623552 -32.994167 0.70344168 7 0 0 0 77.738754
-2.2822535 -27.621162 -8.5546579 17 0 0 0 77.738754
0.16350473 -5.0226812 -3.1583316 317 0 0 0 77.738754
0.5267002 -27.336233 -8.8856974 15 0 0 0 77.738754
-0.96437138 -5.0355163 -3.0094841 293 0 0 0 77.738754
-8.151967 -28.488638 -3.773824 20 0 0 0 77.738754
0.4869923 -33.116737 -2.2245677 8 0 0 0 77.738754
-5.8856406 -32.463753 1.8508449 12 0 0 0 77.738754
-4.4818835 -24.515533 -3.4797342 13 0 0 0 77.738754
-8.0566082 -28.020348 -5.1852694 13 0 0 0 77.738754
-0.82989001 -4.2894192 -2.8671117 336 0 0 0 77.738754
-2.9398429 -35.623642 1.5537111 5 0 0 0 77.738754
-2.807595 -33.842144 -0.18709326 7 0 0 0 77.738754
-0.40856159 -5.1402206 -3.120656 353 0 0 0 77.738754
-0.3418898 -4.3634324 -2.958446 335 0 0 0 77.738754
-2.190938 -7.3186693 -3.4228437 140 0 0 0 77.738754
0.15335223 -3.6828787 -2.8765984 340 0 0 0 77.738754
-4.8066158 -16.393412 -5.7342973 16 0 0 0 77.738754
-5.5713506 -30.240458 -7.4406552 22 0 0 0 77.738754
-1.1143171 -5.8711767 -3.1196878 257 0 0 0 77.738754
0.28714895 -12.422625 -5.4412088 13 0 0 0 77.738754
-0.44345012 -5.5268335 -2.985929 305 0 0 0 77.738754
-1.2844061 -4.1108456 -2.762408 375 0 0 0 77.738754
-0.85310125 -4.2667794 -2.8540378 371 0 0 0 77.844482
0.13246465 -5.0367532 -3.1655917 322 0 0 0 77.844482
-2.7336898 -30.62002 -7.8538098 18 0 0 0 77.844482
-6.1139913 -32.660641 3.503392 18 0 0 0 77.844482
-0.26051152 -3.1739392 -2.6611588 345 0 0 0 77.844482
-8.4669991 -28.916615 -3.8315837 11 0 0 0 77.844482
0.35410422 -31.007523 -8.3984032 14 0 0 0 77.844482
-4.8631806 -16.214855 -5.6778693 15 0 0 0 77.844482
-0.36839557 -4.3527102 -2.9514291 329 0 0 0 77.844482
-8.1646357 -27.601986 -6.5975943 28 0 0 0 77.844482
-0.64434153 -3.1454027 -2.6072164 405 0 0 0 77.844482
0.23999807 -27.215235 -3.1668606 16 0 0 0 77.844482
-6.7644687 -22.742004 -6.6833491 21 0 0 0 77.844482
-5.7570591 -30.202192 -7.4334393 18 0 0 0 77.844482
0.1306027 -4.3156343 -3.0288217 248 0 0 0 77.844482
0.35834724 -27.405058 -8.9023361 15 0 0 0 77.844482
-1.3009354 -4.0746231 -2.7418196 342 0 0 0 77.844482
-9.9855251 -34.414471 2.5070295 9 0 0 0 77.844482
0.13020232 -3.6826606 -2.8747683 358 0 0 0 77.844482
-8.5041084 -29.161297 -2.3587329 6 0 0 0 77.844482
-4.6202021 -24.422012 -3.4653537 14 0 0 0 77.844482
-0.43960238 -5.1262517 -3.1123974 325 0 0 0 77.844482
-9.5771446 -32.980206 0.71151757 8 0 0 0 77.844482
-1.8336319 -5.9195776 -3.1510322 217 0 0 0 77.844482
-1.0123533 -3.0506403 -2.5563474 457 0 0 0 77.844482
0.28325897 -33.083553 -2.2166867 15 0 0 0 77.844482
-1.6512032 -18.675091 -6.8105664 9 0 0 0 77.844482
-2.356621 -26.465864 -1.4324646 14 0 0 0 77.844482
-1.0230421 -11.630401 -4.8944287 12 0 0 0 77.844482
-1.1630893 -5.927186 -3.1522162 173 0 0 0 77.844482
-2.2387934 -25.160185 -5.1372709 13 0 0 0 77.844482
0.26285625 -27.458364 -4.5784621 16 0 0 0 77.844482
-2.4452093 -27.519588 -8.5221052 11 0 0 0 77.844482
-4.7466578 -25.172586 -2.30514 11 0 0 0 77.844482
-1.5302802 -4.8693213 -2.9231653 361 0 0 0 77.844482
-8.2744312 -28.125219 -5.2078857 19 0 0 0 77.844482
-2.2763245 -25.509369 -3.913734 10 0 0 0 77.844482
-4.4810205 -23.585398 -4.5587959 15 0 0 0 77.844482
-2.2526109 -7.358788 -3.4464457 155 0 0 0 77.844482
-6.0844011 -32.427734 1.8573613 9 0 0 0 77.844482
-0.47793534 -5.5253792 -2.9854083 251 0 0 0 77.844482
-1.9564379 -10.105704 -4.1474624 38 0 0 0 77.844482
-5.996623 -31.948492 0.24706903 23 0 0 0 77.844482
-4.9248896 -26.152596 -1.0910627 20 0 0 0 77.844482
0.1295052 -3.1553619 -2.7388952 350 0 0 0 77.844482
0.27700484 -26.808678 -5.8470101 15 0 0 0 77.844482
-0.31265247 -3.7428401 -2.8246832 351 0 0 0 77.844482
0.12340017 -5.3697495 -3.0052078 190 0 0 0 77.844482
-2.8994203 -9.5777836 -3.9033704 84 0 0 0 77.844482
0.28531975 -19.302841 -7.3451095 11 0 0 0 77.844482
-0.99542987 -5.0283227 -3.0074482 268 0 0 0 77.844482
-2.8227758 -31.664091 -3.2778337 15 0 0 0 77.844482
-1.1488625 -3.5352058 -2.6571474 457 0 0 0 77.844482
-0.74077117 -3.6607881 -2.728354 438 0 0 0 77.844482
0.20925394 -12.379317 -5.4189963 13 0 0 0 77.844482
-1.2670574 -6.5066075 -3.0490785 121 0 0 0 77.844482
0.10926622 -3.1445093 -2.7278643 355 0 0 0 77.936386
-2.4131792 -25.283978 -3.8768082 15 0 0 0 77.936386
-0.51339722 -5.5341387 -2.9907463 211 0 0 0 77.936386
-1.3245735 -4.0613952 -2.7371628 332 0 0 0 77.936386
0.11151908 -26.794121 -5.8394723 16 0 0 0 77.936386
0.096361496 -36.135925 1.1516953 5 0 0 0 77.936386
0.089810371 -5.3630199 -2.9999933 211 0 0 0 77.936386
-0.87841505 -4.2553673 -2.8488181 346 0 0 0 77.936386
-2.9130147 -30.501625 -7.8224616 11 0 0 0 77.936386
-1.5545685 -4.8413434 -2.9106057 312 0 0 0 77.936386
-9.7761869 -32.911182 0.71788782 11 0 0 0 77.936386
0.16474177 -19.196964 -7.3008647 9 0 0 0 77.936386
-9.3786545 -31.507149 -0.92220718 6 0 0 0 77.936386
0.10690796 -3.6767619 -2.8686557 341 0 0 0 77.936386
-0.66360635 -3.1395121 -2.6047258 385 0 0 0 77.936386
-1.0290152 -3.0373886 -2.5494196 410 0 0 0 77.936386
-1.9887829 -9.9424562 -4.0826488 52 0 0 0 77.936386
-8.3656378 -27.654043 -6.6165476 11 0 0 0 77.936386
-2.3056364 -7.3688116 -3.4561141 150 0 0 0 77.936386
0.16045691 -30.613756 -8.2860117 10 0 0 0 77.936386
-6.1961455 -31.930725 0.25297788 12 0 0 0 77.936386
-1.8634976 -5.8866515 -3.1379113 236 0 0 0 77.936386
-0.76025254 -3.6400785 -2.7151527 407 0 0 0 77.936386
-4.6288161 -23.570677 -4.5569668 16 0 0 0 77.936386
-2.9445047 -9.5141802 -3.8823626 94 0 0 0 77.936386
-2.3930018 -25.136982 -5.1311617 15 0 0 0 77.936386
0.072522953 -27.197786 -3.1606812 7 0 0 0 77.936386
0.079751842 -32.966263 -2.2038009 10 0 0 0 77.936386
-5.8846736 -29.868996 -7.3540702 53 0 0 0 77.936386
-0.47174045 -5.1256113 -3.1126111 346 0 0 0 77.936386
-1.1674404 -3.5177376 -2.6481817 422 0 0 0 77.936386
-8.6689939 -28.945486 -3.8366256 14 0 0 0 77.936386
-0.39268214 -4.3187842 -2.9286456 333 0 0 0 77.936386
-0.28091803 -3.1779804 -2.6651819 340 0 0 0 77.936386
-1.0269533 -5.023406 -3.0070422 279 0 0 0 77.936386
0.18868707 -27.403286 -8.8968182 12 0 0 0 77.936386
-8.512289 -28.28965 -5.2423992 6 0 0 0 77.936386
-1.205412 -5.9472551 -3.1656432 216 0 0 0 77.936386
-4.9399304 -16.10857 -5.6474075 22 0 0 0 77.936386
0.10290556 -4.286675 -3.0067339 260 0 0 0 77.936386
-1.3037243 -6.4805064 -3.039011 134 0 0 0 77.936386
-1.75644 -18.555275 -6.7670174 20 0 0 0 77.936386
-3.2360625 -33.948578 -0.17632966 8 0 0 0 77.936386
-4.8984561 -25.128687 -2.299222 17 0 0 0 77.936386
-6.896019 -22.671623 -6.6700673 17 0 0 0 77.936386
0.087210581 -34.291336 -0.60404617 6 0 0 0 77.936386
-4.7581167 -24.330564 -3.4518685 22 0 0 0 77.936386
-0.33531678 -3.7325642 -2.8173926 411 0 0 0 77.936386
0.10136656 -5.0564771 -3.1767054 319 0 0 0 77.936386
-2.5216503 -26.477964 -1.4296358 10 0 0 0 77.936386
-0.29927936 -3.1599543 -2.6503522 338 0 0 0 78.041084
-5.8503098 -28.758436 -7.081778 19 0 0 0 78.041084
-5.0126944 -15.993012 -5.6134892 25 0 0 0 78.041084
-1.3475581 -4.0464921 -2.7313426 360 0 0 0 78.041084
-0.90499276 -4.2503695 -2.8479605 398 0 0 0 78.041084
-2.0399406 -9.8799467 -4.0595484 34 0 0 0 78.041084
-0.12282044 -32.986446 -2.1997263 14 0 0 0 78.041084
0.083855361 -3.6778185 -2.8680675 336 0 0 0 78.041084
-1.0468053 -3.0277681 -2.5455887 385 0 0 0 78.041084
-0.35754791 -3.7190406 -2.807605 409 0 0 0 78.041084
-7.0246434 -22.59326 -6.6542115 18 0 0 0 78.041084
-9.41366 -30.865498 -2.4950926 14 0 0 0 78.041084
-0.089443609 -25.731335 -2.9838922 10 0 0 0 78.041084
-1.341576 -6.4613552 -3.0322144 140 0 0 0 78.041084
-9.9666023 -32.814156 0.72428459 9 0 0 0 78.041084
-0.68379533 -3.1380708 -2.6060021 401 0 0 0 78.041084
-0.4184702 -4.3044677 -2.919374 359 0 0 0 78.041084
0.055179358 -12.303025 -5.3800831 11 0 0 0 78.041084
-1.2489208 -5.9714174 -3.1812894 253 0 0 0 78.041084
-2.3486135 -7.3464289 -3.4503603 150 0 0 0 78.041084
-1.1568124 -11.514018 -4.8460321 6 0 0 0 78.041084
-6.3954711 -31.910727 0.25947481 7 0 0 0 78.041084
-1.5801681 -4.8182325 -2.9009838 361 0 0 0 78.041084
-0.075578518 -27.495453 -4.5757484 16 0 0 0 78.041084
-2.5429282 -25.072971 -5.116364 14 0 0 0 78.041084
0.045607299 -19.131561 -7.2720037 8 0 0 0 78.041084
-1.8599436 -18.432188 -6.7221284 10 0 0 0 78.041084
-4.9125047 -24.324799 -3.4503531 22 0 0 0 78.041084
0.075994499 -4.2820182 -3.0019822 323 0 0 0 78.041084
0.069931254 -5.0676422 -3.1823399 312 0 0 0 78.041084
-0.54932159 -5.5462217 -2.9978943 201 0 0 0 78.041084
-1.1876445 -3.5055857 -2.6432762 376 0 0 0 78.041084
-0.50278729 -5.1138043 -3.1059263 305 0 0 0 78.041084
-1.8932848 -5.8544855 -3.1251523 217 0 0 0 78.041084
-2.7239063 -26.853636 -1.446439 8 0 0 0 78.041084
-8.7313395 -28.38364 -5.2634773 14 0 0 0 78.041084
0.089481488 -3.1448178 -2.7267027 362 0 0 0 78.041084
-8.8797684 -28.999601 -3.8446681 12 0 0 0 78.041084
-3.0540636 -30.019987 -7.6971602 19 0 0 0 78.041084
-0.02554645 -27.683945 -7.4839425 17 0 0 0 78.041084
-0.7796616 -3.6201012 -2.7024875 433 0 0 0 78.041084
-10.412496 -34.310631 2.5229487 5 0 0 0 78.041084
-2.9846923 -9.437149 -3.8557024 111 0 0 0 78.041084
0.056556739 -5.3804812 -3.0085089 151 0 0 0 78.041084
-0.053699926 -26.756186 -5.8264999 14 0 0 0 78.041084
-2.5535254 -25.118902 -3.8489182 26 0 0 0 78.041084
-4.7797008 -23.570518 -4.5577035 23 0 0 0 78.041084
-9.581109 -31.479813 -0.91627449 5 0 0 0 78.041084
-3.5806935 -35.434582 1.5669007 5 0 0 0 78.041084
-8.5940371 -27.790461 -6.6556025 15 0 0 0 78.041084
-1.0572021 -5.0124645 -3.0029607 326 0 0 0 78.041084
-5.0696335 -24.330599 -3.451035 16 0 0 0 78.133507
-2.6044436 -24.19364 -4.9345183 12 0 0 0 78.133507
-0.15115835 -27.522284 -8.9260912 14 0 0 0 78.133507
-6.6803732 -32.317329 1.8760526 10 0 0 0 78.133507
-0.80093467 -3.6093793 -2.6970437 381 0 0 0 78.133507
-0.37897217 -3.6990142 -2.7930231 381 0 0 0 78.133507
-2.087702 -9.8044271 -4.0313544 31 0 0 0 78.133507
-1.0660607 -3.0223994 -2.5455852 423 0 0 0 78.133507
0.060721867 -3.6739831 -2.8638113 320 0 0 0 78.133507
0.049221352 -4.2844725 -3.0025239 320 0 0 0 78.133507
-1.3669131 -4.0210981 -2.7184939 369 0 0 0 78.133507
-4.9231229 -23.532787 -4.5516858 8 0 0 0 78.133507
-0.58449525 -5.5492983 -3.0003338 290 0 0 0 78.133507
-10.61984 -34.238152 2.5293083 8 0 0 0 78.133507
-7.1493645 -22.503967 -6.635747 11 0 0 0 78.133507
-0.32536691 -32.977417 -2.1942947 12 0 0 0 78.133507
-5.6379509 -27.178246 -1.1241771 20 0 0 0 78.133507
-9.7687492 -31.403433 -0.90940732 5 0 0 0 78.133507
-1.2916608 -5.990037 -3.1942153 250 0 0 0 78.133507
-3.7968452 -35.404781 1.572466 10 0 0 0 78.133507
-3.4052365 -31.597424 -3.2605369 17 0 0 0 78.133507
-2.6976645 -25.006056 -3.8297024 15 0 0 0 78.133507
0.038253341 -5.0625391 -3.1778417 278 0 0 0 78.133507
-0.53059185 -5.0720892 -3.0810213 322 0 0 0 78.133507
-8.9453821 -28.455257 -5.281095 8 0 0 0 78.133507
-0.44409505 -4.289947 -2.9101772 394 0 0 0 78.133507
-9.6064224 -30.818037 -2.489722 21 0 0 0 78.133507
-1.0840724 -4.9861774 -2.989754 304 0 0 0 78.133507
-0.31842706 -3.1516278 -2.6440017 344 0 0 0 78.133507
-0.92780137 -4.2280884 -2.8355265 391 0 0 0 78.133507
-0.33365145 -34.30901 -0.5936653 13 0 0 0 78.133507
-0.24411647 -27.401455 -4.5559621 12 0 0 0 78.133507
-6.0022345 -28.601324 -7.0463214 18 0 0 0 78.133507
-1.9155108 -5.8001709 -3.1005859 239 0 0 0 78.133507
-9.5401869 -30.486389 -4.0452828 24 0 0 0 78.133507
-1.3820852 -6.4552255 -3.031867 122 0 0 0 78.133507
-3.2389092 -29.997011 -7.6909442 22 0 0 0 78.133507
-1.207479 -3.4925089 -2.6378422 412 0 0 0 78.133507
-2.3840623 -7.3012218 -3.4339986 127 0 0 0 78.133507
-0.34484008 -35.983112 1.1582862 5 0 0 0 78.133507
-10.155315 -32.713177 0.73006785 7 0 0 0 78.133507
-0.24768174 -25.725775 -2.979495 11 0 0 0 78.133507
-0.072540015 -19.022327 -7.2270498 17 0 0 0 78.133507
-0.021123208 -12.26183 -5.3597193 5 0 0 0 78.133507
-3.0183258 -9.3422031 -3.8218915 86 0 0 0 78.133507
0.069573566 -3.1389596 -2.7202995 356 0 0 0 78.133507
0.022932751 -5.3524723 -2.9914279 182 0 0 0 78.133507
-8.8270864 -27.933374 -6.697051 9 0 0 0 78.133507
-1.2205131 -11.435061 -4.8133774 4 0 0 0 78.133507
-1.6060884 -4.7965798 -2.892452 350 0 0 0 78.133507
-0.70399261 -3.1364579 -2.6073284 406 0 0 0 78.133507
-1.2261137 -3.4763138 -2.6300008 437 0 0 0 78.237694
-1.4247043 -6.458632 -3.0360575 162 0 0 0 78.237694
-6.7878313 -31.837652 0.27176681 14 0 0 0 78.237694
-1.6326259 -4.7772951 -2.8853538 352 0 0 0 78.237694
-4.0116358 -35.363705 1.5782064 6 0 0 0 78.237694
-5.2174368 -24.290909 -3.4449029 14 0 0 0 78.237694
-3.0133548 -26.466471 -1.417722 17 0 0 0 78.237694
-6.1559038 -28.459698 -7.014431 21 0 0 0 78.237694
-11.300832 -35.626572 4.4988909 8 0 0 0 78.237694
-3.0561998 -26.849077 -8.3139315 15 0 0 0 78.237694
-1.1050161 -4.9346409 -2.9611278 312 0 0 0 78.237694
-2.055984 -18.12631 -6.6115022 14 0 0 0 78.237694
-5.6055665 -26.177744 -2.3905494 15 0 0 0 78.237694
-2.8602247 -25.065287 -3.8368192 16 0 0 0 78.237694
-1.9444926 -5.7677598 -3.0878494 258 0 0 0 78.237694
-9.7309427 -30.438381 -4.04 16 0 0 0 78.237694
-0.41003576 -27.211834 -4.5198579 18 0 0 0 78.237694
-0.56567204 -36.008114 1.1651328 5 0 0 0 78.237694
-4.5386882 -13.876637 -4.8776994 26 0 0 0 78.237694
-2.1074016 -9.6047907 -3.9514289 51 0 0 0 78.237694
-0.18959852 -18.941441 -7.1928596 18 0 0 0 78.237694
-0.72418678 -3.1347616 -2.6086013 433 0 0 0 78.237694
-5.8000674 -27.121861 -1.117813 14 0 0 0 78.237694
-0.5420891 -34.181454 -0.585702 9 0 0 0 78.237694
-9.1494799 -28.49073 -5.291698 10 0 0 0 78.237694
0.0066543189 -5.0581365 -3.1737931 300 0 0 0 78.237694
-1.3857191 -3.9948723 -2.7050407 383 0 0 0 78.237694
-2.4250684 -7.2740641 -3.4261935 143 0 0 0 78.237694
0.022431787 -4.2868128 -3.0029891 298 0 0 0 78.237694
-5.0718293 -23.520187 -4.550334 25 0 0 0 78.237694
-0.95090592 -4.2081704 -2.8246906 378 0 0 0 78.237694
-0.47089937 -4.2876186 -2.909395 363 0 0 0 78.237694
-9.0379553 -27.999474 -6.7198124 17 0 0 0 78.237694
0.037657481 -3.6708353 -2.8601124 316 0 0 0 78.237694
-0.82370096 -3.6056237 -2.6969068 380 0 0 0 78.237694
-1.0813481 -3.0059786 -2.536093 397 0 0 0 78.237694
-0.56108856 -5.0590777 -3.0738208 280 0 0 0 78.237694
0.049817201 -3.1375215 -2.7178116 346 0 0 0 78.237694
-6.8797078 -32.283268 1.8829756 16 0 0 0 78.237694
-0.62118137 -5.565289 -3.0098641 244 0 0 0 78.237694
-0.33902612 -3.1576223 -2.6499057 394 0 0 0 78.237694
-9.8025703 -30.780819 -2.4847705 19 0 0 0 78.237694
-2.7489271 -24.137136 -4.9216838 25 0 0 0 78.237694
-0.40161639 -3.6923378 -2.7887061 413 0 0 0 78.237694
-3.4210243 -29.950895 -7.6785045 20 0 0 0 78.237694
-3.0555403 -9.2614002 -3.7938199 104 0 0 0 78.237694
-3.5978813 -31.562649 -3.2533102 11 0 0 0 78.237694
-0.09689077 -12.220252 -5.3391519 9 0 0 0 78.237694
-7.2818313 -22.44066 -6.6248169 25 0 0 0 78.237694
-10.381232 -32.731194 0.73895937 5 0 0 0 78.237694
-0.010374594 -5.3408251 -2.9836414 190 0 0 0 78.237694
-0.4029887 -25.540537 -2.9537029 16 0 0 0 78.237694
-10.838737 -34.202423 2.5390182 10 0 0 0 78.237694
-1.3317951 -5.9954715 -3.2000177 229 0 0 0 78.237694
0.014628809 -3.6651483 -2.8546062 345 0 0 0 78.330627
-1.9688147 -5.7225485 -3.0683413 243 0 0 0 78.330627
-1.2454116 -3.4622643 -2.6239793 459 0 0 0 78.330627
-1.3694874 -5.989388 -3.1998296 224 0 0 0 78.330627
-1.0983382 -2.9945543 -2.5310538 366 0 0 0 78.330627
-1.409827 -3.9843287 -2.7025681 421 0 0 0 78.330627
-0.66210908 -5.6149912 -3.0381556 161 0 0 0 78.330627
-9.9973974 -30.738523 -2.4799607 23 0 0 0 78.330627
-10.569876 -32.630676 0.74484903 10 0 0 0 78.330627
-3.0880134 -9.1689634 -3.7611539 107 0 0 0 78.330627
-3.1699762 -26.399128 -1.4106066 17 0 0 0 78.330627
-3.6615899 -30.392157 -7.79248 15 0 0 0 78.330627
-0.55348647 -25.239132 -2.9148707 27 0 0 0 78.330627
-0.30527547 -18.836365 -7.1500573 13 0 0 0 78.330627
-11.540273 -35.623966 4.5147157 16 0 0 0 78.330627
-2.463485 -7.2397242 -3.4152036 146 0 0 0 78.330627
-6.9847794 -31.804188 0.27774549 18 0 0 0 78.330627
-0.57281089 -26.982681 -4.4777799 25 0 0 0 78.330627
-2.8368063 -23.613726 -4.8134298 21 0 0 0 78.330627
-3.0119228 -25.026255 -3.8292642 16 0 0 0 78.330627
-10.127778 -31.202656 -0.89379239 7 0 0 0 78.330627
-2.1516423 -9.5244932 -3.9214046 57 0 0 0 78.330627
-9.8622179 -30.07395 -5.5928817 27 0 0 0 78.330627
-0.84498376 -3.5954306 -2.6920552 391 0 0 0 78.330627
-0.043803059 -5.3584938 -2.9927194 247 0 0 0 78.330627
-1.3440876 -11.267958 -4.7444172 10 0 0 0 78.330627
-0.56964558 -27.757336 -6.0338302 19 0 0 0 78.330627
-0.35910705 -3.1581457 -2.6513209 370 0 0 0 78.330627
-5.2156739 -23.484526 -4.5450206 24 0 0 0 78.330627
-0.7824012 -35.829929 1.1650807 4 0 0 0 78.330627
-1.6524518 -4.7390356 -2.8667786 293 0 0 0 78.330627
-5.339839 -23.875774 -7.1720428 17 0 0 0 78.330627
-0.46515206 -26.044651 -8.4366369 19 0 0 0 78.330627
-9.2667532 -28.114853 -6.7552505 11 0 0 0 78.330627
-0.0043677995 -4.2807941 -2.9977181 332 0 0 0 78.330627
-0.59214056 -5.0517616 -3.0703585 312 0 0 0 78.330627
-0.74189568 -3.1223946 -2.6010041 453 0 0 0 78.330627
-4.6131444 -13.815106 -4.8627119 17 0 0 0 78.330627
-0.49883795 -4.294909 -2.915463 425 0 0 0 78.330627
-4.2277369 -35.335236 1.5840216 8 0 0 0 78.330627
-1.1328802 -4.9156466 -2.952533 317 0 0 0 78.330627
-6.3027759 -28.293436 -6.9771237 11 0 0 0 78.330627
-2.1546123 -18.000534 -6.5666547 18 0 0 0 78.330627
-7.4137921 -22.376469 -6.6142311 14 0 0 0 78.330627
-11.052997 -34.151089 2.5471804 9 0 0 0 78.330627
-0.60625428 -27.396639 -1.808292 18 0 0 0 78.330627
-0.9737978 -4.1880827 -2.8139234 394 0 0 0 78.330627
-0.024972189 -5.0678263 -3.1789541 302 0 0 0 78.330627
0.030051881 -3.1321676 -2.712064 357 0 0 0 78.330627
-9.9214735 -30.389116 -4.0351686 19 0 0 0 78.330627
-1.4740397 -6.4908853 -3.0542762 138 0 0 0 78.330627
-0.42565197 -3.6981101 -2.7941589 420 0 0 0 78.330627
-5.3647342 -24.249302 -3.4389987 7 0 0 0 78.330627
-0.75161338 -34.171574 -0.58043355 7 0 0 0 78.330627
0.01036663 -3.127481 -2.7069299 371 0 0 0 78.434052
-0.70613831 -25.144394 -2.8999875 30 0 0 0 78.434052
-0.69520634 -5.5965095 -3.0289838 223 0 0 0 78.434052
-10.051132 -30.02503 -5.5883708 24 0 0 0 78.434052
-1.6761912 -4.7129788 -2.8556774 295 0 0 0 78.434052
-2.1844709 -9.3989458 -3.872452 69 0 0 0 78.434052
-0.448515 -3.6935165 -2.7916617 375 0 0 0 78.434052
-6.7899318 -29.948946 -1.2299583 12 0 0 0 78.434052
-7.1815662 -31.769501 0.28420779 21 0 0 0 78.434052
-5.5018082 -24.163401 -3.4264989 15 0 0 0 78.434052
-4.442389 -35.295509 1.5899439 7 0 0 0 78.434052
-0.69891369 -26.191788 -5.6874409 11 0 0 0 78.434052
-3.8555436 -30.420378 -7.799777 26 0 0 0 78.434052
-1.1106064 -2.9706874 -2.5152817 470 0 0 0 78.434052
-3.1312275 -9.110858 -3.7426565 119 0 0 0 78.434052
-0.86578494 -3.5835922 -2.6859598 424 0 0 0 78.434052
-10.789994 -32.626842 0.75335801 9 0 0 0 78.434052
-0.99801272 -4.1743922 -2.8075314 365 0 0 0 78.434052
-0.62543619 -26.007502 -8.4208641 11 0 0 0 78.434052
-10.193628 -30.699764 -2.4750767 19 0 0 0 78.434052
-0.031025898 -4.268136 -2.9877431 302 0 0 0 78.434052
-0.69891763 -27.261805 -7.3531628 17 0 0 0 78.434052
-1.4355502 -3.9784141 -2.7033107 396 0 0 0 78.434052
-0.62206376 -5.0358415 -3.0615935 347 0 0 0 78.434052
-5.7846785 -25.309752 -4.9029932 20 0 0 0 78.434052
-3.1429846 -24.826525 -3.7966309 16 0 0 0 78.434052
-0.52506453 -4.2873302 -2.9112842 396 0 0 0 78.434052
-4.6604161 -13.675208 -4.8197756 26 0 0 0 78.434052
-2.9783053 -23.564589 -4.8024969 27 0 0 0 78.434052
-6.4532304 -28.15023 -6.9453177 14 0 0 0 78.434052
-0.056606077 -5.0689363 -3.1786613 276 0 0 0 78.434052
-0.75636321 -3.0972314 -2.5825396 352 0 0 0 78.434052
-7.5470595 -22.317078 -6.6049538 20 0 0 0 78.434052
-0.0083339503 -3.6640632 -2.8527696 339 0 0 0 78.434052
-1.525468 -6.5298915 -3.075758 130 0 0 0 78.434052
-2.2620785 -17.956356 -6.5517054 15 0 0 0 78.434052
-1.99646 -5.68821 -3.0547121 247 0 0 0 78.434052
-10.113943 -30.345312 -4.0307679 17 0 0 0 78.434052
-3.2195554 -25.460897 -2.6118295 17 0 0 0 78.434052
-0.41927058 -18.714811 -7.1009278 15 0 0 0 78.434052
-0.7340889 -26.800934 -4.4434314 14 0 0 0 78.434052
-0.37883338 -3.1555569 -2.6500964 390 0 0 0 78.434052
-1.1617281 -4.9015594 -2.9469357 311 0 0 0 78.434052
-5.7104783 -25.154018 -2.292078 15 0 0 0 78.434052
-1.4018844 -5.9607396 -3.1874049 221 0 0 0 78.434052
-9.9592934 -29.602339 -7.1226711 12 0 0 0 78.434052
-0.077481031 -5.3786116 -3.0031877 197 0 0 0 78.434052
-1.2667946 -3.4542286 -2.6226113 422 0 0 0 78.434052
-2.4893215 -7.1699443 -3.3872147 142 0 0 0 78.434052
-1.4675298 -11.128769 -4.6879759 8 0 0 0 78.526978
-10.314556 -30.32465 -4.0300603 14 0 0 0 78.526978
-0.77541542 -3.0914192 -2.5806761 378 0 0 0 78.526978
-3.368459 -25.383869 -2.6015527 17 0 0 0 78.526978
-0.057656668 -4.2642312 -2.9842074 330 0 0 0 78.526978
-0.031227916 -3.6573074 -2.8466382 319 0 0 0 78.526978
-10.153234 -29.574959 -7.1245971 19 0 0 0 78.526978
-1.5725714 -6.5481968 -3.0876067 115 0 0 0 78.526978
-7.6754851 -22.244062 -6.5921936 11 0 0 0 78.526978
-4.7646103 -13.70349 -4.8370299 24 0 0 0 78.526978
-0.86394018 -27.151972 -7.32023 14 0 0 0 78.526978
-0.39767638 -3.1460028 -2.6430902 353 0 0 0 78.526978
-2.0201638 -5.6436524 -3.0356832 218 0 0 0 78.526978
-6.6104121 -28.041149 -6.9226394 10 0 0 0 78.526978
-3.1159575 -23.489283 -4.7867117 26 0 0 0 78.526978
-5.9435234 -25.286963 -4.9006691 21 0 0 0 78.526978
-2.5171204 -7.1077976 -3.3630579 163 0 0 0 78.526978
-0.088146344 -5.0639 -3.1746793 321 0 0 0 78.526978
-0.73413652 -5.6239247 -3.0452712 176 0 0 0 78.526978
-2.3648891 -17.879772 -6.5253778 17 0 0 0 78.526978
-1.1880049 -4.8772378 -2.9352777 310 0 0 0 78.526978
-10.991611 -32.565647 0.76019269 11 0 0 0 78.526978
-0.88724357 -3.5747135 -2.6822999 401 0 0 0 78.526978
-10.399043 -30.687101 -2.472852 18 0 0 0 78.526978
-1.0205069 -4.1540532 -2.7967689 362 0 0 0 78.526978
-0.64982945 -5.0044804 -3.0434988 314 0 0 0 78.526978
-0.32080522 -12.083408 -5.2738295 6 0 0 0 78.526978
-3.3561337 -14.114367 -5.0216966 28 0 0 0 78.526978
-3.2108817 -24.168478 -3.6937201 34 0 0 0 78.526978
-1.4323168 -5.9249954 -3.1713352 279 0 0 0 78.526978
-0.86034834 -25.127113 -2.8946366 19 0 0 0 78.526978
-0.55110973 -4.2787309 -2.9066017 403 0 0 0 78.526978
-1.4606767 -3.9707217 -2.7030172 341 0 0 0 78.526978
-1.28417 -3.4354081 -2.6130664 438 0 0 0 78.526978
-0.89504796 -26.674347 -4.4189034 23 0 0 0 78.526978
-0.92542267 -26.886127 -1.765896 19 0 0 0 78.526978
-0.11051442 -5.3567352 -2.9900455 263 0 0 0 78.526978
-0.78542531 -25.973997 -8.4070091 20 0 0 0 78.526978
-0.85902661 -26.143906 -5.6738372 14 0 0 0 78.526978
-3.1683037 -9.0366993 -3.7177196 127 0 0 0 78.526978
-1.7020237 -4.6932735 -2.8486648 296 0 0 0 78.526978
-1.1273079 -2.9591029 -2.5102472 424 0 0 0 78.526978
-2.1912866 -9.1705456 -3.7808046 83 0 0 0 78.526978
-0.46941498 -3.6737626 -2.7776875 425 0 0 0 78.526978
-10.242686 -29.983231 -5.5858479 17 0 0 0 78.526978
-0.0093095154 -3.1338851 -2.7117581 404 0 0 0 78.526978
-5.6509018 -24.131647 -3.4222412 22 0 0 0 78.526978
-4.0305629 -30.301273 -7.7698426 10 0 0 0 78.526978
-6.9960952 -30.003267 -1.2284046 3 0 0 0 78.526978
-0.41640452 -3.1363811 -2.6360326 414 0 0 0 78.631683
-6.74541 -27.8444 -6.8779159 13 0 0 0 78.631683
-0.64015985 -18.395775 -6.974824 17 0 0 0 78.631683
-0.028933471 -3.1289606 -2.7066133 303 0 0 0 78.631683
-0.4913477 -3.6633914 -2.7709358 446 0 0 0 78.631683
-5.7923794 -24.068222 -3.4131565 19 0 0 0 78.631683
-10.747004 -31.14666 -0.87759256 7 0 0 0 78.631683
-1.0493443 -26.418743 -4.3725471 30 0 0 0 78.631683
-0.5775004 -4.273294 -2.9041078 360 0 0 0 78.631683
-1.2117192 -4.8436527 -2.9179261 301 0 0 0 78.631683
-3.8233898 -27.540606 -0.10296416 20 0 0 0 78.631683
-2.5467029 -7.0524917 -3.3420997 180 0 0 0 78.631683
-3.5348332 -25.466648 -1.3489696 19 0 0 0 78.631683
-1.6234215 -6.5803127 -3.1060829 135 0 0 0 78.631683
-2.1922474 -8.929863 -3.6838257 65 0 0 0 78.631683
-10.434727 -29.942171 -5.5831723 22 0 0 0 78.631683
-1.0958607 -27.010838 -1.7700514 16 0 0 0 78.631683
-1.7288622 -4.6767235 -2.8435862 285 0 0 0 78.631683
-1.1413743 -2.9409397 -2.4995093 459 0 0 0 78.631683
-1.4323599 -35.604198 1.1760688 9 0 0 0 78.631683
-3.2599225 -23.464697 -4.7811146 22 0 0 0 78.631683
-1.0218444 -25.293535 -2.9103727 17 0 0 0 78.631683
-0.77509373 -5.6633091 -3.0681517 243 0 0 0 78.631683
-3.3627639 -24.171461 -3.6926689 32 0 0 0 78.631683
-1.3778247 -34.092297 -0.56263787 12 0 0 0 78.631683
-0.11932373 -5.0469146 -3.163094 334 0 0 0 78.631683
-4.8249922 -13.606019 -4.8094172 39 0 0 0 78.631683
-1.0423682 -4.1320271 -2.7848351 393 0 0 0 78.631683
-0.054052152 -3.6520252 -2.8416855 327 0 0 0 78.631683
-0.67963934 -4.9907613 -3.0362961 366 0 0 0 78.631683
-8.2616138 -34.589676 2.0531907 13 0 0 0 78.631683
-3.5211792 -25.339521 -2.5943408 9 0 0 0 78.631683
-6.0929351 -25.389828 -2.3106191 21 0 0 0 78.631683
-0.084194474 -4.2585821 -2.9794388 310 0 0 0 78.631683
-11.19906 -32.52116 0.76797062 11 0 0 0 78.631683
-1.465541 -5.9020295 -3.1621788 235 0 0 0 78.631683
-1.3033605 -3.421845 -2.6075819 375 0 0 0 78.631683
-1.0174017 -26.065859 -5.6533909 13 0 0 0 78.631683
-0.79460698 -3.086282 -2.5793982 376 0 0 0 78.631683
-10.347507 -29.547361 -7.126246 22 0 0 0 78.631683
-1.5240387 -11.029962 -4.6474395 7 0 0 0 78.631683
-2.0433791 -5.5990672 -3.0165756 232 0 0 0 78.631683
-0.90802056 -3.5634174 -2.6767945 380 0 0 0 78.631683
-1.4816427 -3.9519253 -2.6950262 348 0 0 0 78.631683
-0.14408617 -5.3642721 -2.9935834 262 0 0 0 78.631683
-6.1608644 -25.505825 -4.9453321 19 0 0 0 78.631683
-10.594574 -30.643906 -2.4677124 25 0 0 0 78.631683
-0.39397156 -12.027186 -5.2476244 5 0 0 0 78.631683
-3.4396605 -14.078753 -5.0131965 21 0 0 0 78.631683
-3.2086353 -8.9738846 -3.6974101 119 0 0 0 78.631683
-4.2281628 -30.353075 -7.7837114 20 0 0 0 78.631683
-1.0669143 -4.1211257 -2.7807288 437 0 0 0 78.723587
-3.6813548 -25.348351 -2.5931921 11 0 0 0 78.723587
-5.6914454 -22.791687 -6.8653097 20 0 0 0 78.723587
-1.4988496 -3.9235704 -2.6805682 380 0 0 0 78.723587
-1.6711724 -6.5979376 -3.1179099 144 0 0 0 78.723587
-0.1105762 -4.2494569 -2.9724274 361 0 0 0 78.723587
-7.4068637 -30.090246 -1.2239578 7 0 0 0 78.723587
-9.2164078 -25.805695 -6.2265854 13 0 0 0 78.723587
-0.04861214 -3.1306183 -2.7074723 315 0 0 0 78.723587
-0.076759323 -3.6441987 -2.8349354 319 0 0 0 78.723587
-2.0676668 -5.5585222 -2.9998634 256 0 0 0 78.723587
-4.3001766 -29.535717 -7.5742974 9 0 0 0 78.723587
-4.2768707 -29.478086 -0.10780666 14 0 0 0 78.723587
-3.6713462 -25.308321 -1.3372275 26 0 0 0 78.723587
-6.2538929 -25.372639 -2.3077285 16 0 0 0 78.723587
-1.2658168 -27.090578 -1.7716986 12 0 0 0 78.723587
-0.70978689 -4.9801874 -3.0312707 357 0 0 0 78.723587
-0.81297803 -3.077997 -2.5756278 384 0 0 0 78.723587
-11.393137 -32.437626 0.77434146 8 0 0 0 78.723587
-3.4497805 -23.756256 -4.8410912 11 0 0 0 78.723587
-1.3139641 -3.3862352 -2.5851295 387 0 0 0 78.723587
-0.92950338 -3.555063 -2.6737344 385 0 0 0 78.723587
-4.6669316 -12.906461 -4.5670729 41 0 0 0 78.723587
-1.5857055 -34.057323 -0.55695802 6 0 0 0 78.723587
-6.3641043 -25.654236 -4.976903 8 0 0 0 78.723587
-3.5197911 -24.207661 -3.6973093 19 0 0 0 78.723587
-8.1015244 -33.005112 0.31420064 9 0 0 0 78.723587
-1.1791046 -26.08045 -5.6538758 12 0 0 0 78.723587
-1.580568 -10.939001 -4.6106186 3 0 0 0 78.723587
-0.15031952 -5.0305243 -3.1521373 290 0 0 0 78.723587
-0.81270373 -5.6754107 -3.0762801 205 0 0 0 78.723587
-1.7537352 -4.6551118 -2.8355811 309 0 0 0 78.723587
-10.797266 -30.620106 -2.4647791 12 0 0 0 78.723587
-0.60256982 -4.2586579 -2.8954735 366 0 0 0 78.723587
-6.9007654 -27.737486 -6.8562531 25 0 0 0 78.723587
-3.5196629 -14.029737 -5.0003328 24 0 0 0 78.723587
-1.2389079 -4.8248973 -2.9098592 296 0 0 0 78.723587
-1.2130107 -26.433142 -4.371953 10 0 0 0 78.723587
-1.651348 -35.614544 1.1821707 5 0 0 0 78.723587
-5.0852313 -35.174488 1.6070839 5 0 0 0 78.723587
-5.936862 -24.018328 -3.4065645 10 0 0 0 78.723587
-0.43534461 -3.1288664 -2.6309724 363 0 0 0 78.723587
-1.498318 -5.8779655 -3.1526625 230 0 0 0 78.723587
-2.0064576 -7.9597187 -3.2820256 87 0 0 0 78.723587
-3.2425797 -8.8951025 -3.6706965 120 0 0 0 78.723587
-1.1606727 -2.9364212 -2.5007672 453 0 0 0 78.723587
-2.5734963 -6.9910398 -3.3183978 166 0 0 0 78.723587
-10.632263 -29.915556 -5.5839658 12 0 0 0 78.723587
-0.17743251 -5.3619838 -2.9917872 224 0 0 0 78.723587
-0.51361364 -3.6559889 -2.7666755 459 0 0 0 78.723587
-8.3056192 -32.962524 0.32111642 6 0 0 0 78.829315
-0.95028275 -3.5443048 -2.6688201 382 0 0 0 78.829315
-10.998698 -30.591272 -2.4609339 14 0 0 0 78.829315
-3.8365309 -25.350721 -1.3359363 15 0 0 0 78.829315
-0.73843139 -4.9602127 -3.0204062 336 0 0 0 78.829315
-2.0924606 -5.5204444 -2.9844279 258 0 0 0 78.829315
-2.6031275 -6.9389768 -3.2991083 152 0 0 0 78.829315
-5.823668 -22.724037 -6.8504133 18 0 0 0 78.829315
-0.068424858 -3.1374607 -2.7128923 305 0 0 0 78.829315
-1.7390251 -6.6916547 -3.1662612 113 0 0 0 78.829315
-5.2999115 -35.138432 1.6136022 4 0 0 0 78.829315
-1.2680864 -4.814364 -2.9068069 343 0 0 0 78.829315
-1.5157491 -3.8952048 -2.6660438 384 0 0 0 78.829315
-0.85074162 -5.6890669 -3.0852458 254 0 0 0 78.829315
-0.18147726 -5.0241241 -3.1475215 300 0 0 0 78.829315
-1.5272603 -5.8400912 -3.1355736 279 0 0 0 78.829315
-3.5598614 -13.827652 -4.9322405 26 0 0 0 78.829315
-0.535447 -3.6461468 -2.7605247 436 0 0 0 78.829315
-0.13697091 -4.2443004 -2.9682281 347 0 0 0 78.829315
-6.4277983 -25.405655 -2.3090603 18 0 0 0 78.829315
-1.3342509 -3.3762825 -2.5825839 406 0 0 0 78.829315
-3.6881981 -24.314272 -3.7124555 20 0 0 0 78.829315
-3.284076 -8.8390036 -3.6533329 119 0 0 0 78.829315
-1.5481038 -30.71936 -8.2776165 7 0 0 0 78.829315
-11.589972 -32.362331 0.78154606 5 0 0 0 78.829315
-1.3745553 -26.402287 -4.3634205 9 0 0 0 78.829315
-7.645987 -30.260502 -1.2267292 6 0 0 0 78.829315
-1.6277525 -10.793171 -4.5503225 3 0 0 0 78.829315
-0.45485777 -3.1258175 -2.6297326 373 0 0 0 78.829315
-10.931534 -30.295029 -4.0321827 9 0 0 0 78.829315
-11.132117 -31.023161 -0.86446804 13 0 0 0 78.829315
-9.3661709 -25.724081 -6.2145033 12 0 0 0 78.829315
-1.1793699 -2.9303842 -2.5007114 454 0 0 0 78.829315
-6.0804424 -23.965719 -3.3992319 28 0 0 0 78.829315
-1.7910869 -33.981155 -0.54990542 9 0 0 0 78.829315
-2.0499799 -7.9253755 -3.2709773 89 0 0 0 78.829315
-10.830171 -29.888689 -5.5843434 9 0 0 0 78.829315
-1.4398866 -27.302555 -3.1373823 5 0 0 0 78.829315
-0.099426404 -3.6386397 -2.8299747 294 0 0 0 78.829315
-4.7274203 -12.825872 -4.5453601 33 0 0 0 78.829315
-1.7765374 -4.6285796 -2.8244834 320 0 0 0 78.829315
-0.62359321 -4.2178102 -2.868685 385 0 0 0 78.829315
-0.21144196 -5.3769374 -2.9997396 293 0 0 0 78.829315
-1.0911399 -4.1093302 -2.77599 357 0 0 0 78.829315
-0.8318702 -3.0718896 -2.5737071 405 0 0 0 78.829315
-1.3034706 -25.366234 -5.494947 12 0 0 0 78.829315
-3.5806181 -23.632753 -4.8154602 19 0 0 0 78.829315
-4.4778075 -29.479389 -7.5607629 22 0 0 0 78.829315
-3.8331082 -25.299175 -2.5856094 6 0 0 0 78.829315
-7.0723395 -27.697672 -6.8509507 15 0 0 0 78.829315
-2.1500039 -14.222638 -5.1864052 19 0 0 0 78.829315
-2.6296144 -6.8799276 -3.2766852 177 0 0 0 78.919937
-0.61144209 -11.896836 -5.1875882 7 0 0 0 78.919937
-9.5349522 -25.694485 -6.2158637 17 0 0 0 78.919937
-2.1280608 -5.5112591 -2.9850993 268 0 0 0 78.919937
-0.12189154 -3.6289613 -2.8219879 280 0 0 0 78.919937
-8.197834 -31.626352 -1.2798712 7 0 0 0 78.919937
-0.16369504 -4.2486939 -2.9710667 330 0 0 0 78.919937
-0.24520305 -5.3820548 -3.0023763 248 0 0 0 78.919937
-0.55584925 -3.62747 -2.7477818 453 0 0 0 78.919937
-5.9518661 -22.642488 -6.8320475 15 0 0 0 78.919937
-3.8195512 -24.194651 -7.4990411 15 0 0 0 78.919937
-1.1977444 -2.9234567 -2.5000865 448 0 0 0 78.919937
-0.76698774 -4.9408531 -3.0101702 350 0 0 0 78.919937
-1.5176061 -25.706966 -1.6719728 20 0 0 0 78.919937
-11.339428 -31.001392 -0.85944009 6 0 0 0 78.919937
-1.6792094 -10.685308 -4.5065889 4 0 0 0 78.919937
-1.7363118 -30.683493 -8.2656088 19 0 0 0 78.919937
-3.8342915 -24.269276 -3.7048488 31 0 0 0 78.919937
-1.5578527 -5.8097053 -3.1228118 266 0 0 0 78.919937
-6.23209 -23.944771 -3.3970699 15 0 0 0 78.919937
-6.585341 -25.371883 -2.3048263 19 0 0 0 78.919937
-5.5093889 -35.069519 1.6179779 7 0 0 0 78.919937
-1.6640893 -28.283325 -0.44752002 14 0 0 0 78.919937
-3.5675714 -13.511351 -4.8233805 37 0 0 0 78.919937
-11.123241 -30.242914 -4.0279417 20 0 0 0 78.919937
-1.5365231 -26.383156 -4.3575678 12 0 0 0 78.919937
-11.780498 -32.26989 0.78771967 15 0 0 0 78.919937
-0.99535185 -6.3501654 -3.0431387 30 0 0 0 78.919937
-8.5030012 -32.893513 0.327142 7 0 0 0 78.919937
-0.84824586 -3.0566885 -2.5642178 383 0 0 0 78.919937
-1.4463974 -25.124441 -5.4399843 25 0 0 0 78.919937
-11.023729 -29.848391 -5.5830479 14 0 0 0 78.919937
-3.3246756 -8.7817812 -3.6357994 124 0 0 0 78.919937
-0.088304654 -3.1433735 -2.7177131 362 0 0 0 78.919937
-0.4741213 -3.1210849 -2.6272631 357 0 0 0 78.919937
-3.982233 -25.235281 -2.5771253 18 0 0 0 78.919937
-1.5379032 -3.8807604 -2.6614096 365 0 0 0 78.919937
-6.8963766 -26.404762 -5.1290545 15 0 0 0 78.919937
-2.2298617 -14.157943 -5.1648531 30 0 0 0 78.919937
-0.21249017 -5.01578 -3.1419373 307 0 0 0 78.919937
-0.88898337 -5.7024083 -3.0943208 250 0 0 0 78.919937
-1.7920023 -6.7242632 -3.1856396 121 0 0 0 78.919937
-8.8833351 -34.384552 2.0705621 6 0 0 0 78.919937
-1.7978213 -4.5986571 -2.8114817 370 0 0 0 78.919937
-0.97053999 -3.5318196 -2.6627898 398 0 0 0 78.919937
-4.7960901 -12.768895 -4.5325193 35 0 0 0 78.919937
-1.1137315 -4.0917072 -2.7674639 373 0 0 0 78.919937
-3.7227592 -23.588781 -4.8068595 28 0 0 0 78.919937
-1.355672 -3.3691599 -2.5824549 449 0 0 0 78.919937
-2.0941069 -7.8943119 -3.2616 112 0 0 0 78.919937
-11.202595 -30.567617 -2.4582276 12 0 0 0 78.919937
-4.6674914 -29.501278 -7.5683331 16 0 0 0 78.919937
-0.65006089 -4.2151341 -2.8685338 414 0 0 0 78.919937
-7.2444344 -27.659473 -6.8469129 13 0 0 0 78.919937
-4.0470233 -25.675106 -1.3504338 18 0 0 0 78.919937
-1.2947193 -4.7944608 -2.8982406 327 0 0 0 78.919937
-4.7975073 -12.537206 -4.4567723 56 0 0 0 79.026947
-3.3603234 -8.7131824 -3.6133418 126 0 0 0 79.026947
-0.79818231 -4.9390855 -3.0107794 363 0 0 0 79.026947
-7.4157853 -27.618496 -6.8417664 21 0 0 0 79.026947
-1.8210248 -4.5743437 -2.801892 357 0 0 0 79.026947
-1.5885801 -5.7809424 -3.1108568 258 0 0 0 79.026947
-2.1420443 -7.8782897 -3.2584257 123 0 0 0 79.026947
-3.9625714 -24.132414 -7.4819951 18 0 0 0 79.026947
-1.7429174 -10.660096 -4.4979262 5 0 0 0 79.026947
-3.6331472 -13.423479 -4.7965193 47 0 0 0 79.026947
-8.3838358 -31.545776 -1.2719572 7 0 0 0 79.026947
-0.67506278 -4.2033978 -2.8620739 334 0 0 0 79.026947
-3.8824112 -23.653353 -4.8201728 17 0 0 0 79.026947
-1.1372509 -4.0780401 -2.7616138 402 0 0 0 79.026947
-0.14477578 -3.632534 -2.8244607 341 0 0 0 79.026947
-1.3220569 -4.7777958 -2.8916087 283 0 0 0 79.026947
-11.400665 -30.526794 -2.4535151 17 0 0 0 79.026947
-4.0033574 -24.365919 -3.7186489 24 0 0 0 79.026947
-2.3199248 -14.159706 -5.1675711 35 0 0 0 79.026947
-2.2939463 -35.400055 1.1943107 9 0 0 0 79.026947
-0.49333158 -3.1162965 -2.6247211 380 0 0 0 79.026947
-1.6023813 -25.132582 -5.4391489 29 0 0 0 79.026947
-0.24293214 -4.9980454 -3.1303358 291 0 0 0 79.026947
-0.93403447 -5.75632 -3.1257212 191 0 0 0 79.026947
-0.2803033 -5.4113669 -3.0186741 183 0 0 0 79.026947
-1.559611 -3.8654764 -2.656146 372 0 0 0 79.026947
-11.521745 -30.910824 -0.85175312 13 0 0 0 79.026947
-5.5018511 -33.562786 -0.10947324 7 0 0 0 79.026947
-1.3712277 -3.3477201 -2.5711029 459 0 0 0 79.026947
-0.86550593 -3.0451746 -2.5578418 426 0 0 0 79.026947
-1.6761149 -25.707415 -1.6680735 16 0 0 0 79.026947
-8.712903 -32.872608 0.33436799 8 0 0 0 79.026947
-0.10781737 -3.137223 -2.7118871 356 0 0 0 79.026947
-1.8521243 -6.7810555 -3.2166359 119 0 0 0 79.026947
-9.6936951 -25.637491 -6.2101827 14 0 0 0 79.026947
-4.2659898 -26.0245 -1.3656358 8 0 0 0 79.026947
-4.9768772 -30.246948 -7.7622166 12 0 0 0 79.026947
-0.18979286 -4.2383313 -2.9633794 325 0 0 0 79.026947
-11.226183 -29.830948 -5.5855856 20 0 0 0 79.026947
-11.315391 -30.191545 -4.0232601 19 0 0 0 79.026947
-2.6498377 -6.8064456 -3.2471373 219 0 0 0 79.026947
-1.2127827 -2.9085686 -2.4924884 471 0 0 0 79.026947
-2.154186 -5.4779005 -2.9724066 241 0 0 0 79.026947
-1.7768539 -27.302649 -3.1305394 9 0 0 0 79.026947
-0.99001342 -3.5169611 -2.6548958 393 0 0 0 79.026947
-7.625526 -28.655125 -2.6061599 28 0 0 0 79.026947
-4.1315036 -25.17548 -2.5685713 27 0 0 0 79.026947
-1.0283839 -6.3053102 -3.0228515 113 0 0 0 79.026947
-6.089478 -22.598372 -6.8247223 19 0 0 0 79.026947
-0.57803899 -3.6213098 -2.7446566 442 0 0 0 79.026947
-9.2918081 -34.229046 2.0816598 4 0 0 0 79.116547
-0.16763785 -3.6343291 -2.8257778 346 0 0 0 79.116547
-4.8416681 -12.422483 -4.4233489 55 0 0 0 79.116547
-11.499913 -30.119389 -4.0166564 20 0 0 0 79.116547
-0.21564309 -4.2252936 -2.9540584 371 0 0 0 79.116547
-9.8608685 -25.602112 -6.2106562 17 0 0 0 79.116547
-1.8414021 -4.5434299 -2.7884085 405 0 0 0 79.116547
-0.97291607 -5.7691169 -3.1347761 192 0 0 0 79.116547
-0.60161382 -3.6235795 -2.7482831 431 0 0 0 79.116547
-3.6922288 -13.315167 -4.7627702 50 0 0 0 79.116547
-0.2741051 -4.9969058 -3.129581 316 0 0 0 79.116547
-0.51275182 -3.1128328 -2.6235459 393 0 0 0 79.116547
-1.6209306 -5.7587585 -3.1027727 232 0 0 0 79.116547
-1.7870927 -25.313709 -4.1740437 24 0 0 0 79.116547
-1.8751955 -26.317677 -3.0133841 15 0 0 0 79.116547
-6.2158036 -22.513477 -6.80583 20 0 0 0 79.116547
-1.3525217 -4.7724929 -2.8922324 323 0 0 0 79.116547
-4.1488166 -24.315128 -3.7104332 16 0 0 0 79.116547
-5.9260674 -34.925941 1.6274223 4 0 0 0 79.116547
-0.88524246 -3.0423973 -2.5591669 412 0 0 0 79.116547
-1.5786464 -3.843797 -2.6466212 426 0 0 0 79.116547
-1.228896 -2.8964126 -2.4874732 508 0 0 0 79.116547
-7.5902724 -27.588476 -6.8403082 22 0 0 0 79.116547
-8.9213057 -32.844574 0.34078074 8 0 0 0 79.116547
-2.5057137 -35.314373 1.1974217 7 0 0 0 79.116547
-1.7696743 -25.298513 -5.4735394 18 0 0 0 79.116547
-4.4526944 -26.156542 -1.3697203 13 0 0 0 79.116547
-3.4000151 -8.6565208 -3.5962138 107 0 0 0 79.116547
-2.1128969 -30.628723 -8.2463503 11 0 0 0 79.116547
-2.6830127 -6.7676439 -3.2346215 169 0 0 0 79.116547
-2.1753588 -5.4327865 -2.9534626 261 0 0 0 79.116547
-4.2944121 -25.198093 -2.5692494 17 0 0 0 79.116547
-0.31399071 -5.4099741 -3.017854 219 0 0 0 79.116547
-1.9328128 -6.9080539 -3.2818587 104 0 0 0 79.116547
-1.010676 -3.5065665 -2.6506572 395 0 0 0 79.116547
-2.1973276 -7.8886895 -3.2666872 112 0 0 0 79.116547
-0.12706853 -3.1263845 -2.7021744 309 0 0 0 79.116547
-1.1627035 -4.0713816 -2.7608387 384 0 0 0 79.116547
-7.6752524 -27.974277 -5.4428258 17 0 0 0 79.116547
-11.421453 -29.792694 -5.5851526 20 0 0 0 79.116547
-4.0845642 -23.949492 -7.4281993 15 0 0 0 79.116547
-7.751019 -28.346884 -4.0306392 6 0 0 0 79.116547
-11.597251 -30.480898 -2.4492006 14 0 0 0 79.116547
-5.1632299 -30.215054 -7.7565613 14 0 0 0 79.116547
-2.3927426 -14.058846 -5.1330752 28 0 0 0 79.116547
-11.724674 -30.875233 -0.84640181 7 0 0 0 79.116547
-1.0661811 -6.2913165 -3.0178802 140 0 0 0 79.116547
-8.5867605 -31.528667 -1.2674676 11 0 0 0 79.116547
-0.69871926 -4.1841154 -2.850637 384 0 0 0 79.116547
-0.8275463 -4.9261117 -3.0047233 322 0 0 0 79.116547
-1.38999 -3.3343787 -2.5662866 472 0 0 0 79.116547
-1.7821237 -10.491719 -4.4286656 7 0 0 0 79.116547
-7.86519 -28.841719 -2.6223149 19 0 0 0 79.116547
-7.8549638 -27.954102 -5.4419971 20 0 0 0 79.225342
-0.62237811 -3.6093113 -2.7390871 370 0 0 0 79.225342
-1.3798429 -4.7563367 -2.8860996 266 0 0 0 79.225342
-0.85426676 -4.898757 -2.9896719 304 0 0 0 79.225342
-0.72214687 -4.1647787 -2.8390908 381 0 0 0 79.225342
-0.19013506 -3.629009 -2.821413 344 0 0 0 79.225342
-4.8884134 -12.317507 -4.3931289 54 0 0 0 79.225342
-6.1392889 -34.885727 1.6342007 10 0 0 0 79.225342
-1.6515812 -5.7313786 -3.0917449 209 0 0 0 79.225342
-0.2418939 -4.2219481 -2.9515691 325 0 0 0 79.225342
-0.34844813 -5.4206171 -3.0237751 288 0 0 0 79.225342
-7.9525805 -28.396807 -4.0385113 12 0 0 0 79.225342
-0.30400261 -4.9754376 -3.1158226 292 0 0 0 79.225342
-1.1867017 -4.0598435 -2.7566378 331 0 0 0 79.225342
-2.7137461 -6.7237062 -3.2194734 200 0 0 0 79.225342
-2.0136337 -7.0291939 -3.3443155 142 0 0 0 79.225342
-2.2675467 -7.9505148 -3.2964652 79 0 0 0 79.225342
-9.1189613 -32.776684 0.34771848 6 0 0 0 79.225342
-2.4560308 -13.910553 -5.0808311 36 0 0 0 79.225342
-7.7656846 -27.561295 -6.8390369 27 0 0 0 79.225342
-2.0545447 -26.493256 -1.7128133 19 0 0 0 79.225342
-5.9114475 -33.483967 -0.097073652 5 0 0 0 79.225342
-4.2846417 -24.211979 -3.6936071 25 0 0 0 79.225342
-11.61127 -29.739567 -5.5813208 12 0 0 0 79.225342
-1.1028899 -6.2718534 -3.010143 140 0 0 0 79.225342
-4.4622369 -25.245201 -2.5718548 10 0 0 0 79.225342
-2.20174 -5.4017119 -2.9421444 273 0 0 0 79.225342
-2.2018247 -28.475431 -0.43679643 12 0 0 0 79.225342
-11.683945 -30.046221 -4.0092607 14 0 0 0 79.225342
-4.6189313 -26.161432 -1.3662807 10 0 0 0 79.225342
-1.013646 -5.7912631 -3.148921 220 0 0 0 79.225342
-11.7944 -30.435673 -2.4442239 20 0 0 0 79.225342
-1.6045611 -3.8391395 -2.6489713 387 0 0 0 79.225342
-1.4086262 -3.3210046 -2.5613852 415 0 0 0 79.225342
-0.53123075 -3.1040571 -2.6177614 379 0 0 0 79.225342
-0.85907567 -11.942812 -4.507772 17 0 0 0 79.225342
-1.031234 -3.4961243 -2.6463261 426 0 0 0 79.225342
-3.7348638 -13.153153 -4.7093234 59 0 0 0 79.225342
-1.9429493 -25.30298 -4.1694484 11 0 0 0 79.225342
-2.3012147 -30.605995 -8.2379332 26 0 0 0 79.225342
-3.4318597 -8.5816383 -3.5712211 113 0 0 0 79.225342
-11.912083 -30.798252 -0.83908147 7 0 0 0 79.225342
-8.7648048 -31.420784 -1.2584283 10 0 0 0 79.225342
-1.9235729 -25.260832 -5.4630046 21 0 0 0 79.225342
-8.0736504 -28.905645 -2.6264589 26 0 0 0 79.225342
-5.3527155 -30.201317 -7.7550087 23 0 0 0 79.225342
-6.3459725 -22.444696 -6.7914152 17 0 0 0 79.225342
-10.030783 -25.573088 -6.2122202 11 0 0 0 79.225342
-0.90496558 -3.0395648 -2.5604098 453 0 0 0 79.225342
-1.2479683 -2.8913894 -2.4886601 463 0 0 0 79.225342
-0.14588325 -3.1095009 -2.6870949 280 0 0 0 79.225342
-1.865075 -4.5213189 -2.7803218 340 0 0 0 79.225342
-1.8320976 -10.396003 -4.3901711 7 0 0 0 79.225342
-2.2305481 -5.3770075 -2.934634 274 0 0 0 79.313148
-11.800883 -29.685066 -5.5783215 21 0 0 0 79.313148
-1.0510089 -3.4831746 -2.6403127 473 0 0 0 79.313148
-2.5130155 -13.736888 -5.0198278 43 0 0 0 79.313148
-4.6189866 -25.22653 -2.5684791 20 0 0 0 79.313148
-0.33393598 -4.9579086 -3.104893 303 0 0 0 79.313148
-2.4874709 -30.558771 -8.2241478 14 0 0 0 79.313148
-3.8004212 -13.076237 -4.6871591 52 0 0 0 79.313148
-1.1403751 -6.2574096 -3.0051854 125 0 0 0 79.313148
-8.0369081 -27.940168 -5.4434347 16 0 0 0 79.313148
-2.0682297 -7.0546179 -3.3610768 133 0 0 0 79.313148
-5.9252687 -32.637169 3.1599803 17 0 0 0 79.313148
-1.055166 -5.8156328 -3.1646535 203 0 0 0 79.313148
-1.2108442 -4.0488815 -2.7531066 344 0 0 0 79.313148
-0.93099689 -11.911855 -4.496007 22 0 0 0 79.313148
-12.093143 -30.705221 -0.83221322 8 0 0 0 79.313148
-2.741967 -6.6744881 -3.2020643 180 0 0 0 79.313148
-2.3604383 -8.0864515 -3.3579063 54 0 0 0 79.313148
-0.16465947 -3.0954227 -2.6747508 260 0 0 0 79.313148
-0.55082887 -3.1018569 -2.6178834 381 0 0 0 79.313148
-1.8928968 -4.5093865 -2.7788746 354 0 0 0 79.313148
-0.88068354 -4.8711696 -2.9747689 309 0 0 0 79.313148
-1.68296 -5.7071433 -3.0827489 250 0 0 0 79.313148
-0.21314089 -3.6328673 -2.8245919 306 0 0 0 79.313148
-0.74873447 -4.163918 -2.8406425 323 0 0 0 79.313148
-4.8019433 -26.2556 -1.3684124 7 0 0 0 79.313148
-0.38317963 -5.4326916 -3.0308321 194 0 0 0 79.313148
-0.89097762 -11.678714 -5.0905628 7 0 0 0 79.313148
-10.134027 -35.671078 4.0128107 7 0 0 0 79.313148
-2.0774124 -25.225946 -5.454051 15 0 0 0 79.313148
-1.4261928 -3.3052194 -2.5548215 409 0 0 0 79.313148
-9.7202301 -34.147423 2.0975435 8 0 0 0 79.313148
