# .PCD v0.7 - Point Cloud Data file format
VERSION 0.7
FIELDS x y z intensity normal_x normal_y normal_z curvature
SIZE 4 4 4 4 4 4 4 4
TYPE F F F F F F F F
COUNT 1 1 1 1 1 1 1 1
WIDTH 921
HEIGHT 1
VIEWPOINT 0 0 0 1 0 0 0
POINTS 921
DATA ascii
-2.1424649 -3.7865641 -0.33208606 61 0 0 0 4.4881058
-2.2273934 -3.796102 -0.25135955 59 0 0 0 4.493053
-2.3192182 -3.8224092 -0.1783952 69 0 0 0 4.4980001
-2.4211428 -3.846343 -0.11111928 70 0 0 0 4.5029469
-1.9967449 -3.7310858 -0.31976408 59 0 0 0 4.507894
-2.0853572 -3.7535081 -0.24490574 62 0 0 0 4.5128412
-2.1731215 -3.7749786 -0.17607874 67 0 0 0 4.5177879
-3.040112 -3.2458987 -0.37465525 1 0 0 0 4.5222211
-2.2701335 -3.7971137 -0.1139631 67 0 0 0 4.5227351
-1.8691338 -3.7019377 -0.30983263 61 0 0 0 4.5276818
-1.9557914 -3.7214468 -0.24004297 74 0 0 0 4.532629
-2.0373895 -3.7361577 -0.17442201 67 0 0 0 4.5375762
-2.1314549 -3.7564156 -0.11640429 67 0 0 0 4.5425229
-1.7420621 -3.6607587 -0.29990062 66 0 0 0 4.5474701
-1.822592 -3.6745074 -0.23331426 71 0 0 0 4.5524168
-1.9088341 -3.7010648 -0.17353278 80 0 0 0 4.557364
-2.0021734 -3.7243667 -0.12053627 66 0 0 0 4.5623112
-1.6179873 -3.6194632 -0.289873 76 0 0 0 4.5672579
-1.7020159 -3.6420977 -0.22816615 76 0 0 0 4.5722051
-2.9403965 -3.1988974 -0.064755835 9 0 0 0 4.5766382
-1.7863101 -3.6667399 -0.17245114 79 0 0 0 4.5771518
-1.8735214 -3.6842811 -0.12265794 84 0 0 0 4.582099
-1.5032399 -3.5858169 -0.28053963 77 0 0 0 4.5870461
-1.5888393 -3.6184146 -0.22477189 82 0 0 0 4.5919929
-1.6657075 -3.630338 -0.17131077 84 0 0 0 4.59694
-1.7520077 -3.6469245 -0.12554994 98 0 0 0 4.6018872
-1.3916287 -3.5540552 -0.27310452 81 0 0 0 4.6068339
-1.4717996 -3.5738578 -0.21952784 83 0 0 0 4.6117811
-1.5490619 -3.5927823 -0.17004625 87 0 0 0 4.6167278
-1.6367866 -3.616333 -0.12923311 93 0 0 0 4.621675
-1.2804561 -3.5092609 -0.26367262 90 0 0 0 4.6266222
-1.3610909 -3.537065 -0.21507235 93 0 0 0 4.6315689
-1.439746 -3.5629523 -0.16953889 93 0 0 0 4.6365161
-1.5191157 -3.5748236 -0.13200776 95 0 0 0 4.6414628
-1.1791713 -3.4851089 -0.25689942 89 0 0 0 4.64641
-1.2544925 -3.5031157 -0.21048209 103 0 0 0 4.6513572
-1.3290106 -3.5221674 -0.16909119 97 0 0 0 4.6563039
-1.4119618 -3.5459208 -0.13543211 102 0 0 0 4.6612511
-1.0774727 -3.4509618 -0.24915241 96 0 0 0 4.6661978
-1.1530347 -3.4719725 -0.20672533 94 0 0 0 4.671145
-1.2277621 -3.4940269 -0.16832517 95 0 0 0 4.6760921
-1.3055078 -3.5099826 -0.13784316 107 0 0 0 4.6810389
-0.98221284 -3.426579 -0.24318837 102 0 0 0 4.685986
-1.0558335 -3.4466717 -0.20382547 112 0 0 0 4.6909332
-1.1286196 -3.4678082 -0.1684895 105 0 0 0 4.6958799
-1.2076114 -3.4877276 -0.14096421 112 0 0 0 4.7008271
-0.88994956 -3.4020803 -0.2371292 95 0 0 0 4.7057738
-0.96266598 -3.4222162 -0.20079646 116 0 0 0 4.710721
-1.0324353 -3.4404745 -0.16856137 119 0 0 0 4.7156682
-1.1082958 -3.4545181 -0.14414501 116 0 0 0 4.7206149
-0.7877723 -3.3309157 -0.22744757 53 0 0 0 4.7255621
-0.86202747 -3.3610137 -0.19605452 71 0 0 0 4.7305088
-0.94024646 -3.4129865 -0.16850679 117 0 0 0 4.735456
-1.0165006 -3.4340308 -0.14807002 122 0 0 0 4.7404032
-0.7015723 -3.3071856 -0.22219509 49 0 0 0 4.7453499
-0.77043742 -3.3254871 -0.19299017 52 0 0 0 4.7502971
-0.83951163 -3.346791 -0.16677593 54 0 0 0 4.7552438
-0.92114234 -3.3996663 -0.15112603 107 0 0 0 4.760191
-0.61748505 -3.2863755 -0.21687096 57 0 0 0 4.7651381
-0.68429393 -3.3007615 -0.1907382 56 0 0 0 4.7700849
-0.75035143 -3.3191874 -0.16762479 56 0 0 0 4.775032
-0.82276773 -3.3403931 -0.15231149 55 0 0 0 4.7799792
-0.53424376 -3.2615294 -0.21152531 54 0 0 0 4.7849259
-0.60030127 -3.2799554 -0.18841197 54 0 0 0 4.7898731
-0.66645306 -3.2983859 -0.16829731 62 0 0 0 4.7948198
-0.73566133 -3.311717 -0.15609817 61 0 0 0 4.799767
-0.45222425 -3.241642 -0.20713359 61 0 0 0 4.8047142
-0.51930517 -3.2590334 -0.18599083 56 0 0 0 4.8096609
-0.58225584 -3.270587 -0.16798812 59 0 0 0 4.8146081
-0.14623553 -3.1862619 -0.19182329 102 0 0 0 4.817729
-0.65163487 -3.2859216 -0.15878242 60 0 0 0 4.8195548
-0.20974351 -3.205821 -0.18179493 96 0 0 0 4.8226762
-0.3761794 -3.2455471 -0.20451927 89 0 0 0 4.824502
-0.27104914 -3.2184653 -0.17384709 93 0 0 0 4.8276229
-0.43922481 -3.235076 -0.184545 56 0 0 0 4.8294492
-0.33674723 -3.2339673 -0.17476161 108 0 0 0 4.8325701
-0.50249922 -3.25263 -0.16952503 62 0 0 0 4.8343959
-0.07113491 -3.0890391 -0.18332297 150 0 0 0 4.8375168
-0.56986707 -3.2660456 -0.1623866 66 0 0 0 4.8393431
-0.13465746 -3.1816702 -0.18019055 104 0 0 0 4.842464
-0.29942176 -3.232461 -0.19995055 102 0 0 0 4.8442898
-0.19563197 -3.2093461 -0.17523277 108 0 0 0 4.8474112
-0.36580709 -3.252898 -0.18482864 109 0 0 0 4.849237
-0.26008821 -3.2168956 -0.17819923 101 0 0 0 4.8523579
-0.42248198 -3.2286747 -0.17007759 61 0 0 0 4.8541842
0.0010853156 -3.1128147 -0.18255766 150 0 0 0 4.857305
-0.48898345 -3.2431326 -0.1659666 57 0 0 0 4.8591309
-0.061281953 -3.1254239 -0.17657778 150 0 0 0 4.8622522
-0.22220561 -3.2073829 -0.19541302 100 0 0 0 4.864078
-0.12118722 -3.1741674 -0.17562486 99 0 0 0 4.8671989
-0.28650334 -3.2239027 -0.18236369 102 0 0 0 4.8690252
-0.18426841 -3.1947896 -0.18261756 110 0 0 0 4.8721461
-0.34919664 -3.2474997 -0.17335653 104 0 0 0 4.8739719
0.073057808 -3.1185617 -0.17980929 96 0 0 0 4.8770928
-0.41017407 -3.2221403 -0.16947778 53 0 0 0 4.8789191
0.012142106 -3.1422455 -0.17786099 112 0 0 0 4.88204
-0.046123739 -3.0729549 -0.17313102 150 0 0 0 4.8869872
-0.11060606 -3.1776013 -0.18595962 114 0 0 0 4.8919339
0.14409603 -3.0972497 -0.17607006 104 0 0 0 4.8968811
0.083614416 -3.1079462 -0.17615567 91 0 0 0 4.9018278
0.024386575 -3.1357112 -0.17925724 105 0 0 0 4.906775
-0.034217484 -2.9673467 -0.17866425 150 0 0 0 4.9117222
0.21243119 -3.0428069 -0.1712933 150 0 0 0 4.9166689
0.15440537 -3.0906351 -0.17540376 106 0 0 0 4.9216161
0.09648893 -3.1094468 -0.17956038 104 0 0 0 4.9265628
0.036070079 -3.1331928 -0.19363625 110 0 0 0 4.93151
0.2710714 -2.9059179 -0.16132973 150 0 0 0 4.9364572
0.21524785 -2.9468315 -0.16752072 150 0 0 0 4.9414039
0.1603795 -2.9627631 -0.17377844 150 0 0 0 4.9463511
0.10279861 -2.9646022 -0.18797576 150 0 0 0 4.9512982
0.32852042 -2.8230336 -0.15525089 150 0 0 0 4.9562449
0.27449796 -2.8430004 -0.16152933 150 0 0 0 4.9611921
0.22013974 -2.8439465 -0.16982622 94 0 0 0 4.9661388
0.16386993 -2.8368323 -0.18507853 54 0 0 0 4.971086
0.38783261 -2.7682452 -0.1511897 112 0 0 0 4.9760332
0.33320016 -2.777184 -0.15846583 103 0 0 0 4.9809799
0.28271052 -2.805306 -0.16984604 81 0 0 0 4.9859271
0.22877006 -2.8132999 -0.188151 59 0 0 0 4.9908738
0.45057914 -2.7536197 -0.1481773 124 0 0 0 4.995821
0.39577624 -2.7645617 -0.15844685 108 0 0 0 5.0007682
0.34409797 -2.7706249 -0.17082272 68 0 0 0 5.0057149
0.29295805 -2.8067575 -0.19317652 20 0 0 0 5.0106621
0.51240987 -2.7359591 -0.14614047 127 0 0 0 5.0156088
0.4568128 -2.739871 -0.15839657 67 0 0 0 5.020556
0.40973508 -2.7801435 -0.1738684 25 0 0 0 5.0255032
0.36285305 -2.8324614 -0.20033428 6 0 0 0 5.0304499
0.57246506 -2.7132232 -0.1430542 76 0 0 0 5.0353971
0.5227797 -2.7423906 -0.15946101 23 0 0 0 5.0403442
0.47918335 -2.7938125 -0.17802738 10 0 0 0 5.0452909
0.42884791 -2.8309903 -0.20540774 10 0 0 0 5.0502381
0.6359179 -2.7046328 -0.1420542 35 0 0 0 5.0551848
0.58951634 -2.7509437 -0.16054009 12 0 0 0 5.060132
0.54933208 -2.8145154 -0.18319786 9 0 0 0 5.0650792
0.49680221 -2.8305941 -0.21054043 10 0 0 0 5.0700259
0.70028639 -2.6990759 -0.14007732 17 0 0 0 5.0749731
0.65836513 -2.7565744 -0.16168901 14 0 0 0 5.0799198
0.61307323 -2.7959361 -0.18522264 11 0 0 0 5.084867
0.56553316 -2.8352334 -0.21668991 10 0 0 0 5.0898142
0.76900673 -2.7096992 -0.1392131 13 0 0 0 5.0947609
0.72294515 -2.7430272 -0.16273144 15 0 0 0 5.0997081
0.67511511 -2.7702832 -0.18620333 12 0 0 0 5.1046548
0.62442648 -2.7864459 -0.21860635 6 0 0 0 5.109602
0.82556885 -2.6728194 -0.13703591 46 0 0 0 5.1145492
0.78744191 -2.7324755 -0.16276571 15 0 0 0 5.1194959
0.73720169 -2.7426324 -0.18818818 11 0 0 0 5.1244431
0.69161081 -2.7800136 -0.22372167 9 0 0 0 5.1293898
0.88120133 -2.6349003 -0.13382998 79 0 0 0 5.1343369
0.83593053 -2.6712692 -0.16037048 45 0 0 0 5.1392841
1.4064006 -2.548847 -0.12540655 18 0 0 0 5.1440239
0.80160451 -2.7320845 -0.19122048 12 0 0 0 5.1442308
1.3603375 -2.5701201 -0.16978134 19 0 0 0 5.1489711
0.75551087 -2.7603908 -0.22860001 7 0 0 0 5.149178
1.3124633 -2.5814235 -0.2142867 17 0 0 0 5.1539178
0.9431234 -2.6191702 -0.13263427 105 0 0 0 5.1541252
1.2376243 -2.5366657 -0.26103395 30 0 0 0 5.158865
0.89344102 -2.6393659 -0.16006191 107 0 0 0 5.1590719
1.4826952 -2.5486367 -0.12561493 17 0 0 0 5.1638122
0.86094224 -2.7032626 -0.19296426 15 0 0 0 5.1640191
1.4298027 -2.5587533 -0.171966 17 0 0 0 5.1687589
0.81468284 -2.7296233 -0.2314954 6 0 0 0 5.1689658
1.3847103 -2.5741713 -0.21855336 14 0 0 0 5.1737061
1.0038769 -2.6034594 -0.13055296 110 0 0 0 5.173913
1.2975791 -2.5099335 -0.265946 74 0 0 0 5.1786528
0.95425314 -2.6196628 -0.16099012 105 0 0 0 5.1788602
1.5533286 -2.5353038 -0.1248367 15 0 0 0 5.1835999
0.90677929 -2.6319454 -0.19150056 91 0 0 0 5.1838069
1.4994133 -2.5443861 -0.17315848 17 0 0 0 5.1885471
0.88021249 -2.714114 -0.23656714 11 0 0 0 5.1887541
1.4439189 -2.5424004 -0.22144766 11 0 0 0 5.1934938
1.0638286 -2.5817158 -0.12945549 100 0 0 0 5.1937008
1.3623058 -2.488389 -0.27199939 54 0 0 0 5.198441
1.0141737 -2.5979207 -0.16089234 103 0 0 0 5.198648
1.6259216 -2.5230458 -0.12411742 13 0 0 0 5.2033882
0.96845162 -2.6142814 -0.19445311 101 0 0 0 5.2035952
1.5719126 -2.5321329 -0.17543793 14 0 0 0 5.2083349
0.92059606 -2.6275802 -0.23595576 101 0 0 0 5.2085419
1.4817642 -2.4707744 -0.21973088 24 0 0 0 5.2132821
1.1174219 -2.5447123 -0.12618041 75 0 0 0 5.2134891
1.4298766 -2.4709554 -0.27813491 66 0 0 0 5.2182288
1.0787144 -2.5853636 -0.16192514 69 0 0 0 5.2184358
1.6929021 -2.5005653 -0.12323716 13 0 0 0 5.223176
1.0310465 -2.5986533 -0.19743079 100 0 0 0 5.2233829
1.6237566 -2.4860609 -0.17512031 11 0 0 0 5.2281232
0.98235148 -2.6069193 -0.23991542 88 0 0 0 5.2283301
1.5278192 -2.4174829 -0.22124438 32 0 0 0 5.2330699
1.1847231 -2.5392621 -0.12628758 58 0 0 0 5.2332768
1.4964864 -2.4524832 -0.28424117 79 0 0 0 5.2380171
1.1332124 -2.5484023 -0.1616793 83 0 0 0 5.238224
1.347474 -1.8958931 -0.093323492 19 0 0 0 5.2429638
1.0937934 -2.5790274 -0.20041856 47 0 0 0 5.2431712
1.6623331 -2.4214666 -0.1734145 6 0 0 0 5.247911
1.0495421 -2.5994799 -0.24602549 28 0 0 0 5.2481179
1.5445197 -2.3240314 -0.2178977 23 0 0 0 5.2528582
1.2772105 -2.5808077 -0.1281116 20 0 0 0 5.2530651
1.5219169 -2.3653722 -0.28215861 25 0 0 0 5.2578049
1.2032576 -2.5480649 -0.16386504 26 0 0 0 5.2580118
1.3488845 -1.8098654 -0.089488268 18 0 0 0 5.2627521
1.149259 -2.5421054 -0.20120296 68 0 0 0 5.262959
1.3338664 -1.8514447 -0.134977 41 0 0 0 5.2676988
1.105837 -2.564599 -0.24983439 59 0 0 0 5.2679062
1.2555785 -1.7995286 -0.17262486 81 0 0 0 5.272646
1.340113 -2.5611722 -0.1261 19 0 0 0 5.2728529
1.1868941 -1.7539967 -0.21556604 43 0 0 0 5.2775931
1.2893 -2.5733581 -0.16751225 18 0 0 0 5.2778001
1.3757533 -1.7628417 -0.088391386 30 0 0 0 5.2825398
1.2405227 -2.5846207 -0.20898966 15 0 0 0 5.2827468
1.3095571 -1.7324103 -0.12938672 44 0 0 0 5.287487
1.1639006 -2.5357895 -0.25368887 42 0 0 0 5.287694
1.259725 -1.7196128 -0.16986687 43 0 0 0 5.2924342
1.2052304 -1.6946397 -0.21422164 58 0 0 0 5.2973809
1.45612 -1.7819043 -0.088867389 4 0 0 0 5.3023281
1.3335049 -1.6832739 -0.12820169 61 0 0 0 5.3072748
1.2770997 -1.659218 -0.16849351 58 0 0 0 5.312222
1.2215751 -1.6342086 -0.21381687 103 0 0 0 5.3171692
2.0466321 -2.3918746 -0.12040849 8 0 0 0 5.3221159
1.3803655 -1.662033 -0.12869114 54 0 0 0 5.3270631
1.2762055 -1.5811087 -0.16457456 48 0 0 0 5.3320098
1.2141007 -1.5458388 -0.20870745 78 0 0 0 5.336957
2.1244905 -2.3718083 -0.12086064 8 0 0 0 5.3419042
1.4080483 -1.6190453 -0.12861341 4 0 0 0 5.3468509
1.3267008 -1.5670195 -0.16816826 55 0 0 0 5.3517981
1.2492548 -1.5151508 -0.21084647 72 0 0 0 5.3567448
2.1707499 -2.3155084 -0.11937851 7 0 0 0 5.361692
2.074007 -2.2779787 -0.18544312 58 0 0 0 5.3666391
1.4106919 -1.5902406 -0.17575341 54 0 0 0 5.3715858
1.3081894 -1.5133998 -0.21768656 75 0 0 0 5.376533
2.2246192 -2.2695055 -0.11811816 24 0 0 0 5.3814802
2.1518784 -2.2559154 -0.18789852 75 0 0 0 5.3864269
1.4421859 -1.5514032 -0.17678848 91 0 0 0 5.3913741
1.3701962 -1.5097638 -0.22462483 56 0 0 0 5.3963208
2.2832916 -2.2286887 -0.11699945 21 0 0 0 5.401268
2.1575553 -2.1620426 -0.18520445 89 0 0 0 5.4062152
2.1917007 -2.2516162 -0.26517236 84 0 0 0 5.4111619
1.4685955 -1.5445539 -0.23764382 39 0 0 0 5.4161091
2.34496 -2.1879849 -0.11597351 34 0 0 0 5.4210558
2.3038218 -2.2056401 -0.1936979 103 0 0 0 5.426003
2.1955698 -2.1526706 -0.26242915 0 0 0 0 5.4309502
2.3399146 -2.0866976 -0.11295464 57 0 0 0 5.4408441
2.3432462 -2.1440771 -0.19300866 48 0 0 0 5.4457908
2.354368 -2.2037654 -0.27730438 101 0 0 0 5.450738
2.4392881 -2.0794549 -0.11405513 76 0 0 0 5.4606318
2.3836379 -2.0825529 -0.19334958 70 0 0 0 5.465579
2.3514273 -2.100554 -0.27335355 36 0 0 0 5.4705262
2.1264961 -1.9380499 -0.33260506 27 0 0 0 5.4754729
2.5931575 -2.111316 -0.11779748 65 0 0 0 5.4804201
2.5469668 -2.1237969 -0.20337614 68 0 0 0 5.4853668
2.4314671 -2.0715723 -0.27888477 25 0 0 0 5.490314
2.1617165 -1.8793373 -0.33478209 31 0 0 0 5.4952612
2.680268 -2.0845902 -0.11854209 78 0 0 0 5.5002079
2.6398633 -2.1003017 -0.20729806 44 0 0 0 5.5051551
2.469981 -2.0059755 -0.28017268 7 0 0 0 5.5101018
2.1718581 -1.7986463 -0.33320758 16 0 0 0 5.515049
2.7791741 -2.0633159 -0.11964566 90 0 0 0 5.5199962
2.6707141 -2.0274012 -0.20635559 150 0 0 0 5.5249429
2.4656653 -1.9117202 -0.27716529 31 0 0 0 5.5298901
2.1944206 -1.7324407 -0.33299923 16 0 0 0 5.5348368
2.8362703 -2.0104275 -0.11949116 69 0 0 0 5.539784
2.5828347 -1.8709135 -0.197832 20 0 0 0 5.5447311
2.431277 -1.795297 -0.27025154 22 0 0 0 5.5496778
2.2130699 -1.6630867 -0.33367378 19 0 0 0 5.554625
2.8895917 -1.9523883 -0.1182255 41 0 0 0 5.5595722
2.7906229 -1.9258558 -0.2102208 81 0 0 0 5.5645189
2.4529603 -1.7250562 -0.27102074 31 0 0 0 5.5694661
2.2432933 -1.6041826 -0.3356939 55 0 0 0 5.5744128
2.850152 -1.8347783 -0.11415546 48 0 0 0 5.57936
2.8887079 -1.8965528 -0.21531039 93 0 0 0 5.5843072
2.5379219 -1.6972625 -0.27770138 14 0 0 0 5.5892539
2.3532395 -1.5983719 -0.34912458 12 0 0 0 5.5942011
2.9316847 -1.7968283 -0.1147392 47 0 0 0 5.5991478
2.924443 -1.8258404 -0.21551535 12 0 0 0 5.604095
2.5509427 -1.6196809 -0.27620962 18 0 0 0 5.6090422
3.0830696 -1.9876057 -0.45432523 8 0 0 0 5.6139889
3.03021 -1.7632021 -0.1165676 60 0 0 0 5.9717579
2.9476249 -1.7483259 -0.21506786 26 0 0 0 5.9767051
2.5776553 -1.5533526 -0.27689168 27 0 0 0 5.9816518
3.2089477 -1.9620348 -0.46998236 7 0 0 0 5.986599
3.2882767 -1.8170012 -0.12349144 28 0 0 0 5.9915462
2.873796 -1.6163994 -0.20695248 74 0 0 0 5.9964929
2.6207106 -1.4979343 -0.28030011 44 0 0 0 6.00144
3.3942933 -1.9660906 -0.49372798 3 0 0 0 6.0063872
2.5583425 -1.3409595 -0.094500855 90 0 0 0 6.0113339
2.5313311 -1.3491701 -0.18068808 92 0 0 0 6.0162811
2.5943975 -1.4038434 -0.27560762 151 0 0 0 6.0212278
2.9471285 -1.6157306 -0.42631459 7 0 0 0 6.026175
2.6680832 -1.3230869 -0.096923262 150 0 0 0 6.0311222
2.5409713 -1.2804682 -0.18007661 111 0 0 0 6.0360689
2.5346398 -1.2964708 -0.26789528 72 0 0 0 6.0410161
2.6631675 -1.3766927 -0.38381892 6 0 0 0 6.0459628
2.5548689 -1.1976867 -0.091579042 113 0 0 0 6.05091
2.5613329 -1.2191778 -0.17978697 103 0 0 0 6.0558572
2.6226747 -1.2657818 -0.27566475 85 0 0 0 6.0608039
2.6446166 -1.2889003 -0.37935811 49 0 0 0 6.0657511
2.5791802 -1.1385446 -0.090408191 106 0 0 0 6.0706978
2.5924985 -1.1623021 -0.18082649 96 0 0 0 6.075645
2.6294689 -1.1929685 -0.27497038 85 0 0 0 6.0805922
2.6485596 -1.2129738 -0.37757921 70 0 0 0 6.0855389
2.6339312 -1.0935678 -0.091161609 32 0 0 0 6.090486
2.6435876 -1.1347083 -0.37552691 6 0 0 0 6.1053271
2.6946745 -1.0488178 -0.092100136 5 0 0 0 6.1102738
2.675545 -1.0553418 -0.18453792 17 0 0 0 6.115221
2.683157 -1.0688837 -0.27779543 17 0 0 0 6.1201682
2.6736124 -0.9719466 -0.090546563 1 0 0 0 6.1300621
2.6052783 -0.95958644 -0.17848389 65 0 0 0 6.1350088
2.6257925 -0.9766165 -0.27113622 55 0 0 0 6.139956
2.6471469 -0.98970211 -0.37382531 19 0 0 0 6.1449032
2.6266935 -0.89109403 -0.088196635 22 0 0 0 6.1498499
2.6156926 -0.89591956 -0.17888853 68 0 0 0 6.1547971
2.8549531 -0.98732543 -0.29422593 0 0 0 0 6.1597438
2.6321397 -0.9130553 -0.37045866 25 0 0 0 6.164691
2.8393273 -0.90139067 -0.19280937 5 0 0 0 6.1745849
2.6625338 -0.85088837 -0.2734369 47 0 0 0 6.1795321
2.6042538 -0.83391696 -0.36569586 54 0 0 0 6.1844792
2.818531 -0.818268 -0.093229286 136 0 0 0 6.1894259
2.8093805 -0.82217854 -0.18998267 58 0 0 0 6.1943731
2.7036219 -0.79439217 -0.2767829 43 0 0 0 6.1993198
2.6659663 -0.78421688 -0.37367365 47 0 0 0 6.204267
5.0817337 -1.3532795 -0.16662373 64 0 0 0 6.2092142
5.6635709 -1.5159327 -0.38351843 48 0 0 0 6.2141609
2.8069503 -0.75427544 -0.28703696 16 0 0 0 6.2191081
2.7475922 -0.73527545 -0.38426828 41 0 0 0 6.2240548
5.1100864 -1.2392378 -0.16664609 121 0 0 0 6.229002
5.4549141 -1.327847 -0.3682937 71 0 0 0 6.2339492
5.4955311 -1.339895 -0.56162077 54 0 0 0 6.2388959
4.9679236 -1.2042284 -0.69452596 4 0 0 0 6.2438431
4.284308 -0.93875152 -0.13945927 139 0 0 0 6.2487898
4.3906798 -0.96319324 -0.29578933 42 0 0 0 6.253737
4.5078588 -0.98706156 -0.45945844 42 0 0 0 6.2586842
4.7738948 -1.0366818 -0.66672301 6 0 0 0 6.2636309
4.287045 -0.84075695 -0.13866729 50 0 0 0 6.2685781
4.2388148 -0.83131367 -0.28525174 64 0 0 0 6.2735252
4.5445833 -0.88635963 -0.46372485 70 0 0 0 6.2784719
7.9640965 0.044826962 -0.26195651 2 0 0 0 6.287097
4.0452819 -0.70148736 -0.13035746 10 0 0 0 6.2883658
6.8067179 0.077994183 -0.46423343 5 0 0 0 6.2920442
4.1165419 -0.70956475 -0.27661833 50 0 0 0 6.293313
5.8253322 0.10468759 -0.60092479 5 0 0 0 6.2969909
4.1074142 -0.70258623 -0.41840875 24 0 0 0 6.2982602
5.0799665 0.13153657 -0.71391958 4 0 0 0 6.3019381
5.0671191 -0.84865981 -0.70705652 2 0 0 0 6.3032069
7.0336275 0.19716297 -0.23330228 1 0 0 0 6.3068848
4.0795698 -0.61469793 -0.13152826 109 0 0 0 6.3081541
6.5115566 0.22632615 -0.44526571 0 0 0 0 6.311832
4.1231279 -0.61472172 -0.27694216 90 0 0 0 6.3131008
5.83144 0.24158347 -0.60328811 6 0 0 0 6.3167791
4.0178299 -0.59007877 -0.40977561 21 0 0 0 6.318048
5.0956168 0.25705662 -0.71756607 4 0 0 0 6.3217258
4.612679 -0.66018236 -0.64320356 0 0 0 0 6.3229952
3.9029319 -0.4989112 -0.12520513 33 0 0 0 6.3279419
6.3549294 0.36639589 -0.43658441 0 0 0 0 6.3316202
3.8821182 -0.48847276 -0.260636 48 0 0 0 6.3328891
5.839581 0.37940314 -0.60571569 5 0 0 0 6.3365669
3.9459283 -0.48524895 -0.40268025 50 0 0 0 6.3378358
5.0821662 0.37768123 -0.71730191 5 0 0 0 6.3415141
5.1003313 -0.60268724 -0.71140009 2 0 0 0 6.342783
3.9859395 -0.41897124 -0.128876 70 0 0 0 6.3477302
6.2601643 0.50411856 -0.43181884 1 0 0 0 6.351408
3.9661763 -0.40557566 -0.26634476 63 0 0 0 6.3526769
5.8517604 0.5190689 -0.60927141 13 0 0 0 6.3563552
3.9813032 -0.39450309 -0.40589151 39 0 0 0 6.3576241
5.095747 0.50227624 -0.72188306 4 0 0 0 6.3613019
4.9052815 -0.46112865 -0.68453139 29 0 0 0 6.3625708
6.3115158 0.59885514 -0.21442047 1 0 0 0 6.3662491
3.9843049 -0.32982242 -0.12893716 60 0 0 0 6.3675179
6.6094618 0.6820395 -0.4588784 9 0 0 0 6.3711958
3.9974408 -0.31767634 -0.2694242 66 0 0 0 6.3724651
5.8167477 0.65152085 -0.60835296 14 0 0 0 6.376143
4.0555058 -0.30523574 -0.41430479 32 0 0 0 6.3774118
5.0843363 0.62482232 -0.7226854 5 0 0 0 6.3810902
4.937542 -0.34524652 -0.68967921 18 0 0 0 6.382359
7.4781294 0.87799335 -0.25693899 40 0 0 0 6.3860369
4.8578401 -0.29378265 -0.15702599 118 0 0 0 6.3873062
6.8099699 0.86160362 -0.4753255 7 0 0 0 6.3909841
4.8851943 -0.27625355 -0.32997555 150 0 0 0 6.3922529
5.6232753 0.76297641 -0.59049028 14 0 0 0 6.3959308
4.9225812 -0.2571049 -0.50423861 83 0 0 0 6.3972001
5.1060176 0.75211322 -0.72752118 6 0 0 0 6.400878
4.9638395 -0.22913589 -0.69364184 17 0 0 0 6.4021468
8.1229591 1.1388479 -0.2822589 5 0 0 0 6.4058251
4.887814 -0.18781362 -0.15908684 113 0 0 0 6.407094
6.825932 1.0221469 -0.47902396 7 0 0 0 6.4107718
4.9152136 -0.16828717 -0.33304101 105 0 0 0 6.4120412
5.5148911 0.88120413 -0.58127731 13 0 0 0 6.415719
4.9846969 -0.14435518 -0.51130623 37 0 0 0 6.4169879
5.1046429 0.87727648 -0.73063904 17 0 0 0 6.4206662
5.0350471 -0.11073581 -0.70500094 4 0 0 0 6.4219351
7.6558752 1.2466131 -0.26891452 41 0 0 0 6.4256129
8.024497 -0.13124403 -0.26226628 2 0 0 0 6.4268818
5.5909824 0.96791536 -0.39564985 24 0 0 0 6.4305601
6.7830043 -0.075925894 -0.46001384 4 0 0 0 6.431829
5.4936824 1.0101242 -0.58278412 13 0 0 0 6.4355068
5.8132505 -0.032700453 -0.59712642 4 0 0 0 6.4367762
5.0109625 0.9859435 -0.71986949 18 0 0 0 6.440454
5.0644579 0.0092581017 -0.71006525 5 0 0 0 6.4417229
5.3842721 1.0012939 -0.19218341 67 0 0 0 6.4454012
5.1813335 1.0214946 -0.36901203 9 0 0 0 6.4503479
5.1476903 1.073329 -0.54912776 10 0 0 0 6.4552951
5.0076251 1.1121811 -0.72292864 35 0 0 0 6.4602418
5.0482135 1.0550541 -0.18183306 60 0 0 0 6.465189
4.998569 1.1044986 -0.3584488 51 0 0 0 6.4701362
5.0548 1.1789552 -0.54138005 24 0 0 0 6.4750829
4.9791451 1.2323713 -0.7221992 18 0 0 0 6.4800301
7.6455202 1.7774868 -0.28026682 39 0 0 0 6.4849768
5.0715728 1.2418534 -0.3668884 8 0 0 0 6.489924
5.8584423 1.5097071 -0.63174409 5 0 0 0 6.4948711
5.0029812 1.3655796 -0.72911114 18 0 0 0 6.4998178
8.0348806 2.0560122 -0.29969093 1 0 0 0 6.504765
5.8811064 1.6649804 -0.63864768 3 0 0 0 6.5146589
5.0229335 1.5019369 -0.7359072 21 0 0 0 6.5196061
6.9979997 1.9581316 -0.26542446 38 0 0 0 6.5245528
5.8846345 1.8159759 -0.64395219 3 0 0 0 6.5344472
5.1035762 1.6620022 -0.75161892 4 0 0 0 6.5393939
6.9496918 2.113095 -0.26812515 123 0 0 0 6.5443411
6.9145613 2.2068396 -0.51528752 22 0 0 0 6.5492878
5.8953409 1.9717035 -0.64948565 2 0 0 0 6.554235
5.1146488 1.8016977 -0.75814444 4 0 0 0 6.5591822
6.8932405 2.2643621 -0.27056894 111 0 0 0 6.5641289
6.9130316 2.3830492 -0.52046746 7 0 0 0 6.5690761
5.8586287 2.1142192 -0.65053153 2 0 0 0 6.5740228
5.1249094 1.9464276 -0.76465213 3 0 0 0 6.57897
7.3193336 2.5905347 -0.29319596 138 0 0 0 6.5839171
6.9784212 2.5857456 -0.53075719 6 0 0 0 6.5888638
5.8928137 2.2850637 -0.65981472 3 0 0 0 6.593811
5.125061 2.0875385 -0.76984131 3 0 0 0 6.5987582
7.2775078 2.7592614 -0.29711676 19 0 0 0 6.6037049
6.8675961 2.7250626 -0.52850121 2 0 0 0 6.6086521
5.88661 2.4434314 -0.6648289 3 0 0 0 6.6135988
5.1274714 2.2355695 -0.77511048 2 0 0 0 6.618546
5.9095407 2.3906567 -0.24624273 46 0 0 0 6.6234932
6.0350199 2.5554695 -0.46946287 2 0 0 0 6.6284399
5.8539767 2.5897896 -0.66800791 3 0 0 0 6.6333871
5.0953364 2.3668993 -0.77628571 2 0 0 0 6.6383338
5.7577863 2.4814672 -0.24565788 2 0 0 0 6.643281
6.8366017 3.0805342 -0.53900272 3 0 0 0 6.6482282
5.7311897 2.699542 -0.66034305 9 0 0 0 6.6531749
3.4652214 1.7114391 -0.53182089 10 0 0 0 6.6581221
5.7492781 2.6319146 -0.25058982 27 0 0 0 6.6630688
6.8609557 3.282778 -0.54802251 2 0 0 0 6.668016
3.4364886 1.7178892 -0.39986601 49 0 0 0 6.6729631
3.3907988 1.7773224 -0.52559882 63 0 0 0 6.6779099
5.8569412 2.8410192 -0.26119882 26 0 0 0 6.682857
3.2916088 1.669673 -0.26624304 51 0 0 0 6.6878042
3.3731029 1.7863523 -0.39599004 83 0 0 0 6.6927509
3.3255525 1.8478621 -0.51966774 65 0 0 0 6.6976981
8.1008062 4.1573095 -0.37044957 1 0 0 0 6.7026448
3.2462656 1.7424474 -0.26693371 47 0 0 0 6.707592
3.3035424 1.851042 -0.39291885 94 0 0 0 6.7125392
3.2571211 1.9135176 -0.51363176 68 0 0 0 6.7174859
3.5260966 1.9113293 -0.16476028 40 0 0 0 6.7224331
3.2467842 1.8395047 -0.27107814 26 0 0 0 6.7273798
3.2441194 1.9193513 -0.39016685 100 0 0 0 6.732327
3.4625156 1.9787852 -0.16587949 49 0 0 0 6.7422209
3.2351964 1.9330183 -0.27384296 90 0 0 0 6.7471681
2.7300963 1.7016943 -0.33193547 1 0 0 0 6.7521148
2.5950971 1.6965425 -0.41779914 6 0 0 0 6.757062
3.3353848 2.0056732 -0.16391598 42 0 0 0 6.828228
2.7663817 1.7386705 -0.23800349 5 0 0 0 6.8331752
2.6598225 1.7474469 -0.32776952 6 0 0 0 6.8381219
2.5533626 1.7572253 -0.41553938 5 0 0 0 6.8430691
2.6509848 1.7540469 -0.23245047 12 0 0 0 6.852963
2.5761271 1.7796464 -0.32121909 6 0 0 0 6.8579102
2.5076511 1.8170084 -0.41220313 4 0 0 0 6.8628569
2.6573164 1.7650788 -0.13760598 4 0 0 0 6.8678041
2.5650859 1.7833188 -0.22882956 10 0 0 0 6.8727512
2.4625881 1.7879565 -0.31171271 3 0 0 0 6.8776979
2.483392 1.8919836 -0.41355336 44 0 0 0 6.8826451
2.4963381 1.7411332 -0.13359205 0 0 0 0 6.8875918
2.4790738 1.8095918 -0.22520161 5 0 0 0 6.892539
2.4536245 1.8723571 -0.31554988 57 0 0 0 6.8974862
2.5228777 2.0195758 -0.4249512 65 0 0 0 6.9024329
2.5046539 1.8328888 -0.13797277 4 0 0 0 6.9073801
2.446372 1.872876 -0.22627454 63 0 0 0 6.9123268
2.4292884 1.9453332 -0.31689522 61 0 0 0 6.917274
2.5738568 2.162739 -0.4397274 50 0 0 0 6.9222212
2.4996834 1.9171391 -0.14193264 23 0 0 0 6.9271679
2.428185 1.9506211 -0.22881714 56 0 0 0 6.9321151
2.4111767 2.0250769 -0.3194432 53 0 0 0 6.9370618
2.3780129 2.0971334 -0.41156873 24 0 0 0 6.942009
3.1810749 2.5549095 -0.18687773 40 0 0 0 6.9469562
2.8397627 2.3893776 -0.27415484 1 0 0 0 6.9519029
2.6106882 2.2987101 -0.35199687 1 0 0 0 6.9568501
1.184196 1.0957811 -0.20820069 3 0 0 0 6.9617972
2.8811343 2.4231243 -0.17442004 0 0 0 0 6.9667439
2.7428722 2.4190617 -0.27019691 3 0 0 0 6.9716911
2.7232544 2.5145962 -0.37377965 9 0 0 0 6.9766378
1.1262562 1.0929809 -0.20040178 4 0 0 0 6.981585
2.7819719 2.4488802 -0.17438835 1 0 0 0 6.9865322
2.9869356 2.7580776 -0.30121487 45 0 0 0 6.9914789
1.1595731 1.1218587 -0.16144733 1 0 0 0 6.9964261
1.0899563 1.1103698 -0.197302 8 0 0 0 7.0013728
2.6837637 2.4726002 -0.17338359 1 0 0 0 7.00632
2.9120135 2.8159473 -0.30097702 19 0 0 0 7.0112672
1.1315393 1.1479379 -0.16061598 7 0 0 0 7.0162139
1.0764383 1.1509103 -0.19794007 7 0 0 0 7.0211611
2.9192302 2.8159654 -0.19613732 150 0 0 0 7.0261078
2.1317651 2.1599689 -0.22493295 20 0 0 0 7.031055
1.1065836 1.1769003 -0.16088444 0 0 0 0 7.0360022
1.0743021 1.2040235 -0.20194882 2 0 0 0 7.0409489
2.1251061 2.2542818 -0.23085858 132 0 0 0 7.0508428
2.1393924 2.3856134 -0.3175309 36 0 0 0 7.0557899
1.9593936 2.3051591 -0.37489608 31 0 0 0 7.0607371
2.66289 2.8126199 -0.19220892 6 0 0 0 7.0656838
2.3362701 2.59554 -0.25986424 51 0 0 0 7.070631
2.0175381 2.3582044 -0.30672333 31 0 0 0 7.0755782
1.8770394 2.3182902 -0.36636624 30 0 0 0 7.0805249
2.5134804 2.7772217 -0.18854247 6 0 0 0 7.0854721
2.0884922 2.4327836 -0.23897633 32 0 0 0 7.0904188
1.9257195 2.360678 -0.2998873 32 0 0 0 7.095366
1.8039809 2.3400743 -0.35913667 65 0 0 0 7.1003132
2.3565104 2.7260976 -0.18362115 6 0 0 0 7.1052599
1.9757283 2.4110246 -0.23246022 33 0 0 0 7.1102071
1.8662717 2.4019539 -0.29710743 33 0 0 0 7.1151538
1.6385014 2.2322781 -0.33386454 91 0 0 0 7.120101
2.0433159 2.4767222 -0.16559643 38 0 0 0 7.1250482
1.8899289 2.4172633 -0.22981797 25 0 0 0 7.1299949
1.6619307 2.2455802 -0.27156836 56 0 0 0 7.1349421
1.5586938 2.2333014 -0.32539815 64 0 0 0 7.1398888
1.94809 2.4733026 -0.16465078 31 0 0 0 7.1448359
1.8324977 2.4614568 -0.23010661 26 0 0 0 7.1497831
1.5819927 2.2455997 -0.26609811 83 0 0 0 7.1547298
1.4798405 2.2322893 -0.31595847 44 0 0 0 7.159677
1.859007 2.473654 -0.16390069 27 0 0 0 7.1646242
1.6043742 2.2609322 -0.20777462 71 0 0 0 7.1695709
1.5093088 2.2523508 -0.26086178 76 0 0 0 7.1745181
1.4557351 2.3132493 -0.31933022 31 0 0 0 7.1794648
1.8435469 2.5742972 -0.17056689 11 0 0 0 7.184412
1.2553192 2.389241 -0.15720125 5 0 0 0 7.1862059
1.5865297 2.3496604 -0.21235031 60 0 0 0 7.1893592
1.1505846 2.3530338 -0.19794533 4 0 0 0 7.191153
1.473572 2.3157375 -0.26284924 49 0 0 0 7.1943059
1.0597137 2.337328 -0.236145 2 0 0 0 7.1961002
1.4265531 2.3914001 -0.3215414 16 0 0 0 7.1992531
0.96017522 2.2989476 -0.26804197 0 0 0 0 7.2010469
1.7015051 2.4935861 -0.16506824 43 0 0 0 7.2041998
1.1667974 2.3495431 -0.15441291 4 0 0 0 7.2059941
1.5509109 2.4170432 -0.21534748 30 0 0 0 7.209147
1.0684922 2.3231061 -0.1933689 8 0 0 0 7.2109408
1.4400569 2.3850448 -0.26491413 26 0 0 0 7.2140942
0.97959918 2.3043311 -0.228624 4 0 0 0 7.215888
1.3709493 2.428524 -0.31887782 0 0 0 0 7.2190409
0.88426775 2.2697999 -0.25865573 0 0 0 0 7.2208352
1.6204875 2.4956329 -0.16457137 42 0 0 0 7.2239881
2.6512442 5.6667132 -0.37403598 76 0 0 0 7.2257819
1.491918 2.4462814 -0.21556894 5 0 0 0 7.2289348
0.99361664 2.2989106 -0.1890237 6 0 0 0 7.2307291
1.3907213 2.4309342 -0.26445732 0 0 0 0 7.233882
0.90236914 2.2682233 -0.22118796 6 0 0 0 7.2356758
1.2778914 2.3930259 -0.30595165 0 0 0 0 7.2388291
0.8133921 2.2414632 -0.24942619 3 0 0 0 7.240623
1.5308732 2.4809921 -0.16278593 4 0 0 0 7.2437758
2.4732299 5.6173654 -0.37147626 100 0 0 0 7.2455702
1.4159565 2.4481418 -0.21322793 0 0 0 0 7.248723
0.92396688 2.2815204 -0.18585052 3 0 0 0 7.2505169
1.3039893 2.4081941 -0.25674713 2 0 0 0 7.2536702
0.8337425 2.2497983 -0.21604434 9 0 0 0 7.2554641
1.1921011 2.3662546 -0.29526371 1 0 0 0 7.2586169
0.74681824 2.2219682 -0.24134322 6 0 0 0 7.2604108
1.4292612 2.4397821 -0.16059336 4 0 0 0 7.2635641
2.2936492 5.5520668 -0.36784622 48 0 0 0 7.265358
1.3270595 2.4234731 -0.20844999 2 0 0 0 7.2685108
2.0680857 5.4722619 -0.44283062 48 0 0 0 7.2703052
1.2234819 2.3922212 -0.25023964 2 0 0 0 7.273458
0.77025998 2.2351823 -0.21106516 4 0 0 0 7.2752519
1.1114243 2.3432903 -0.28573996 0 0 0 0 7.2784052
0.68547672 2.2102757 -0.23543423 7 0 0 0 7.2801991
1.3358581 2.4032686 -0.15766065 5 0 0 0 7.2833519
2.1213672 5.4954953 -0.36545581 52 0 0 0 7.2851462
1.2378565 2.3898115 -0.2026498 3 0 0 0 7.2882991
1.9128004 5.4380798 -0.43599468 49 0 0 0 7.2900929
1.1341095 2.351568 -0.24142316 2 0 0 0 7.2932458
1.7155925 5.3852568 -0.50088716 39 0 0 0 7.2950401
1.0305163 2.3133318 -0.27519917 0 0 0 0 7.298193
0.61944604 2.1777523 -0.22634962 3 0 0 0 7.2999868
1.963675 5.4553833 -0.36454034 57 0 0 0 7.304934
1.7582965 5.3988605 -0.43017748 45 0 0 0 7.3098812
1.5639707 5.3379383 -0.48914492 58 0 0 0 7.3148279
1.3725555 5.293942 -0.53922307 69 0 0 0 7.3197751
1.8076748 5.4062028 -0.36266467 56 0 0 0 7.3247218
1.6065582 5.3525338 -0.4234359 48 0 0 0 7.329669
1.4176868 5.3004222 -0.47858325 94 0 0 0 7.3346162
1.2292726 5.2523222 -0.52374637 70 0 0 0 7.3395629
1.657387 5.3768167 -0.36199588 54 0 0 0 7.3445101
1.4626421 5.3289251 -0.41797024 86 0 0 0 7.3494568
1.275436 5.2637539 -0.46814829 93 0 0 0 7.354404
1.0865331 5.1976738 -0.50726819 66 0 0 0 7.3593512
1.5096097 5.3343258 -0.36138642 81 0 0 0 7.3642979
1.3200504 5.2872524 -0.41252008 85 0 0 0 7.3692451
1.1360325 5.2229738 -0.45779619 91 0 0 0 7.3741922
0.95343286 5.1616702 -0.49311602 79 0 0 0 7.3791389
1.3648974 5.2927217 -0.35987347 84 0 0 0 7.3840861
1.1782641 5.2395458 -0.4060868 79 0 0 0 7.3890328
1.0018544 5.1889987 -0.44861656 89 0 0 0 7.39398
0.82452202 5.1315093 -0.48010299 77 0 0 0 7.3989272
1.2274458 5.2588468 -0.35959691 93 0 0 0 7.4038739
1.0441569 5.2115588 -0.40192088 79 0 0 0 7.4088211
0.86933118 5.1449556 -0.43847385 89 0 0 0 7.4137678
0.69704133 5.0852852 -0.46611109 60 0 0 0 7.418715
1.0939153 5.2228212 -0.35943896 90 0 0 0 7.4236622
0.91229188 5.1624737 -0.3967936 79 0 0 0 7.4286089
0.7419281 5.1057167 -0.43049774 85 0 0 0 7.4335561
0.60448277 5.3528991 -0.48066834 0 0 0 0 7.4385028
0.96031046 5.1847959 -0.35927722 89 0 0 0 7.44345
0.78172529 5.1213441 -0.39171931 77 0 0 0 7.4483972
0.63369799 5.2128348 -0.43333206 19 0 0 0 7.4533439
0.475802 5.3297272 -0.46867707 87 0 0 0 7.4582911
0.82732427 5.1357408 -0.35811913 61 0 0 0 7.4632378
0.65825629 5.1119614 -0.38991246 38 0 0 0 7.4681849
0.52250069 5.3500752 -0.43912235 95 0 0 0 7.4731321
0.3486332 5.2934885 -0.45671421 86 0 0 0 7.4780788
0.70105523 5.1074414 -0.35920018 14 0 0 0 7.483026
0.5654586 5.3765702 -0.40846109 61 0 0 0 7.4879732
0.38891038 5.3050623 -0.42995128 94 0 0 0 7.4929199
0.21999022 5.2713137 -0.44472831 91 0 0 0 7.4978671
0.59901553 5.3113561 -0.37637541 20 0 0 0 7.5028138
0.4302541 5.3175998 -0.40222168 81 0 0 0 7.507761
0.26299837 5.2797694 -0.42304718 94 0 0 0 7.5127082
0.095781051 5.2339602 -0.43285733 90 0 0 0 7.5176549
0.47660127 5.3359361 -0.38165703 92 0 0 0 7.5226021
0.30326459 5.2943354 -0.40029013 86 0 0 0 7.5275488
0.13966535 5.242372 -0.41520518 89 0 0 0 7.532496
-0.027403643 5.3116236 -0.43019304 57 0 0 0 7.5374432
0.34929553 5.3066707 -0.38270864 92 0 0 0 7.5423899
0.17877275 5.2559705 -0.39641336 88 0 0 0 7.5473371
0.015870294 5.2209969 -0.40937492 86 0 0 0 7.5522838
-0.14551158 5.1349678 -0.40830165 17 0 0 0 7.5572309
0.22187808 5.2744064 -0.38375378 90 0 0 0 7.5621781
0.055398893 5.2215619 -0.3935785 81 0 0 0 7.5671248
-0.1001175 4.9371977 -0.38338897 46 0 0 0 7.572072
-0.26418158 5.0843964 -0.39558449 23 0 0 0 7.5770192
0.099187031 5.2339602 -0.38393262 90 0 0 0 7.5819659
-0.069313593 5.3192711 -0.39990294 98 0 0 0 7.5869131
-0.23030891 5.2752385 -0.40490791 67 0 0 0 7.5918598
-0.38247877 5.0738268 -0.38694093 23 0 0 0 7.596807
-0.02436034 5.3126011 -0.39426678 61 0 0 0 7.6017542
-0.19202465 5.2758284 -0.39707771 37 0 0 0 7.6067009
-0.34946069 5.1866517 -0.39412245 41 0 0 0 7.6116481
-0.14471196 5.1399961 -0.3853209 15 0 0 0 7.621542
-0.30263698 5.0628505 -0.38036802 21 0 0 0 7.6264892
-0.26286203 5.086369 -0.3846229 23 0 0 0 7.6413298
-0.42379555 5.0633702 -0.38065916 16 0 0 0 7.646277
-0.39062437 5.1701221 -0.39584938 37 0 0 0 7.9223809
-0.98252952 5.0742106 -0.34961215 67 0 0 0 7.9570098
-0.32504654 1.7479899 -0.12670143 0 0 0 0 7.9718509
-1.1037725 5.06673 -0.34289992 95 0 0 0 7.9767981
-0.9128347 5.0945263 -0.38579252 39 0 0 0 7.986692
-0.36191455 1.7243493 -0.12454141 0 0 0 0 7.9916391
-1.2207485 5.0370817 -0.33328539 97 0 0 0 7.9965858
-0.3518931 1.7299618 -0.13085961 13 0 0 0 8.0064802
-1.1861503 5.0487227 -0.36137551 92 0 0 0 8.0114269
-1.3360177 5.0003605 -0.32471427 94 0 0 0 8.0163736
-0.33899722 1.7354568 -0.1412672 18 0 0 0 8.0213213
-0.39140898 1.717422 -0.13063648 5 0 0 0 8.026268
-1.3015786 5.0109963 -0.35680023 94 0 0 0 8.0312147
-1.4502133 4.9655995 -0.31618005 99 0 0 0 8.0361624
-0.37862462 1.719919 -0.14103635 36 0 0 0 8.0411091
-1.2692077 5.0157185 -0.38381174 81 0 0 0 8.0460558
-1.4159771 4.9732327 -0.35125709 94 0 0 0 8.0510035
-1.5617907 4.9197345 -0.30671024 150 0 0 0 8.0559502
-0.41735798 1.7023432 -0.14183067 40 0 0 0 8.0608969
-1.3856074 4.9820185 -0.38321611 91 0 0 0 8.0658436
-1.5341407 4.9426098 -0.34661123 103 0 0 0 8.0707912
-1.6796395 4.8951106 -0.29908231 143 0 0 0 8.075738
-0.45697829 1.6878022 -0.14260282 25 0 0 0 8.0806847
-1.5020066 4.9483175 -0.38262174 91 0 0 0 8.0856323
-1.5634042 4.6505437 -0.32428646 164 0 0 0 8.090579
-1.7929469 4.8573108 -0.29057443 108 0 0 0 8.0955257
-0.49563679 1.6722242 -0.14340322 12 0 0 0 8.1004734
-1.55795 4.7252727 -0.36758792 158 0 0 0 8.1054201
-1.6973104 4.6855354 -0.32526147 151 0 0 0 8.1103668
-1.1998153 3.0322678 -0.17694075 22 0 0 0 8.1153135
-0.53421408 1.6596422 -0.14521135 5 0 0 0 8.1202612
-1.1259594 3.1644261 -0.2474224 5 0 0 0 8.1252079
-1.2284608 3.1573067 -0.2182741 7 0 0 0 8.1301546
-1.2402267 2.9347196 -0.16756667 23 0 0 0 8.1351023
-0.57295328 1.6410667 -0.14500526 1 0 0 0 8.140049
-1.1991814 3.1341212 -0.24715053 46 0 0 0 8.1449957
-1.2286507 2.9522033 -0.20296608 33 0 0 0 8.1499434
-1.3129168 2.9154117 -0.16332616 7 0 0 0 8.1548901
-1.1672128 3.1058216 -0.28010303 51 0 0 0 8.1598368
-1.2263262 2.9890478 -0.23711117 30 0 0 0 8.1647844
-1.2985605 2.9277856 -0.19980355 23 0 0 0 8.1697311
-2.2158024 4.6319232 -0.25337067 15 0 0 0 8.1746778
-1.2404512 3.0775096 -0.28283593 34 0 0 0 8.1796246
-1.2974378 2.9616647 -0.2369093 29 0 0 0 8.1845722
-2.1876719 4.6327038 -0.3162663 14 0 0 0 8.1895189
-2.3684478 4.6716166 -0.25078627 69 0 0 0 8.1944656
-1.3110776 3.0370965 -0.28363052 27 0 0 0 8.1994133
-2.1361229 4.5826044 -0.3697964 17 0 0 0 8.20436
-2.3235946 4.6387491 -0.31514329 29 0 0 0 8.2093067
-2.3683441 4.4174719 -0.23141921 20 0 0 0 8.2142544
-2.177947 4.7350464 -0.4497903 79 0 0 0 8.2192011
-2.276969 4.5948229 -0.37353492 16 0 0 0 8.2241478
-2.4476168 4.6143298 -0.31333926 36 0 0 0 8.2290955
-2.6247625 4.635118 -0.23794088 124 0 0 0 8.2340422
-2.2902136 4.6811571 -0.45330316 80 0 0 0 8.2389889
-2.4414523 4.6479354 -0.38161686 72 0 0 0 8.2439356
-2.6010222 4.6360278 -0.31371012 105 0 0 0 8.2488832
-2.744128 4.5965295 -0.23025766 103 0 0 0 8.25383
-2.3781099 4.5783415 -0.45148543 87 0 0 0 8.2587767
-2.5751688 4.6358714 -0.38453963 107 0 0 0 8.2637243
-2.7280848 4.6097207 -0.31081301 110 0 0 0 8.268671
-2.7329144 4.3459687 -0.21223703 77 0 0 0 8.2736177
-2.5544145 4.642879 -0.46722966 122 0 0 0 8.2785654
-2.7045662 4.6046343 -0.38656688 105 0 0 0 8.2835121
-2.6184549 4.1984181 -0.28354934 49 0 0 0 8.2884588
-2.984184 4.5113883 -0.21584347 95 0 0 0 8.2934055
-2.6829712 4.6105986 -0.47328323 99 0 0 0 8.2983532
-2.6016424 4.1995912 -0.35710669 27 0 0 0 8.3032999
-2.9599943 4.5072455 -0.30362558 95 0 0 0 8.3082466
-3.1075368 4.4739418 -0.20904477 94 0 0 0 8.3131943
-2.5906377 4.2149625 -0.44151288 17 0 0 0 8.318141
-2.7695298 4.2418175 -0.36507419 89 0 0 0 8.3230877
-3.0912669 4.4760852 -0.3015976 95 0 0 0 8.3280354
-3.2120464 4.4027777 -0.19977047 91 0 0 0 8.3329821
-3.4647458 3.7588432 -0.14911298 78 0 0 0 8.333766
-2.7462993 4.2387123 -0.4528276 81 0 0 0 8.3379288
-2.9014313 4.2246766 -0.3680495 142 0 0 0 8.3428764
-3.2150006 4.4316354 -0.29878062 93 0 0 0 8.3478231
-3.4610198 3.7594087 -0.25729045 85 0 0 0 8.3486071
-3.5979209 3.727757 -0.14402957 55 0 0 0 8.3535538
-2.9624324 4.3407326 -0.47442311 76 0 0 0 8.3577166
-3.2036793 4.4359612 -0.39218673 84 0 0 0 8.3626642
-3.4543364 3.753876 -0.35954615 75 0 0 0 8.3634481
-3.6639593 3.7979362 -0.26119077 52 0 0 0 8.3683949
-3.7834177 3.7446404 -0.14042647 23 0 0 0 8.3733416
-3.1830142 4.4299088 -0.49486607 70 0 0 0 8.3775053
-3.4392941 3.7399981 -0.47304919 73 0 0 0 8.3782892
-3.7426045 3.8795893 -0.37898594 58 0 0 0 8.3832359
-3.7967019 3.7548127 -0.26010701 60 0 0 0 8.3881826
-3.964335 3.7493453 -0.13594641 46 0 0 0 8.3931303
-3.727016 3.861661 -0.5025053 49 0 0 0 8.398077
-3.8650072 3.8210621 -0.38119662 36 0 0 0 8.4030237
-3.8868268 3.6700876 -0.25525844 72 0 0 0 8.4079714
-4.089417 3.6929383 -0.13007653 61 0 0 0 8.4129181
-3.8689766 3.8208547 -0.51115042 41 0 0 0 8.4178648
-3.9914415 3.7616825 -0.38328472 27 0 0 0 8.4228125
-3.9964623 3.6010897 -0.25284159 74 0 0 0 8.4277592
-4.2271128 3.6470056 -0.12383955 66 0 0 0 8.4327059
-4.0092363 3.7719777 -0.51983696 44 0 0 0 8.4376526
-4.529808 4.0717354 -0.42440626 103 0 0 0 8.4426003
-4.1323848 3.5530767 -0.25165793 74 0 0 0 8.447547
-4.3719049 3.5993314 -0.11838611 73 0 0 0 8.4524937
-4.5230598 4.0540605 -0.57567286 84 0 0 0 8.4574413
-4.700861 4.0270057 -0.43016568 104 0 0 0 8.462388
-4.2966976 3.5241227 -0.25264144 65 0 0 0 8.4673347
-4.5186629 3.5517311 -0.11187405 71 0 0 0 8.4722824
-4.7070808 4.0167966 -0.58905315 89 0 0 0 8.4772291
-4.8671856 3.9740958 -0.43505839 105 0 0 0 8.4821758
-4.4991727 3.5195966 -0.2545028 46 0 0 0 8.4871225
-4.6763577 3.5075326 -0.1070369 69 0 0 0 8.4920702
-4.8824949 3.9672079 -0.60067815 91 0 0 0 8.4970169
-5.0015383 3.8899846 -0.43687749 70 0 0 0 8.5019636
-4.7050085 3.5061839 -0.25725159 39 0 0 0 8.5069113
-5.006022 3.5787823 -0.10414487 86 0 0 0 8.511858
-4.9829617 3.8528166 -0.60348386 52 0 0 0 8.5168047
-5.0120206 3.7092407 -0.42831612 76 0 0 0 8.5217524
-4.9706721 3.5280051 -0.26223713 83 0 0 0 8.5266991
-4.9445033 3.3673527 -0.093725786 86 0 0 0 8.5316458
-4.9650884 3.6520133 -0.59275365 59 0 0 0 8.5365934
-4.8716383 3.4298668 -0.40818915 73 0 0 0 8.5415401
-4.9209905 3.3210189 -0.25146437 52 0 0 0 8.5464869
-4.8021541 3.353811 -0.56528008 42 0 0 0 8.5563812
-8.8094301 5.6542115 -0.43486872 1 0 0 0 8.5662746
-8.6977911 5.3028297 -0.41578212 3 0 0 0 8.5860634
-8.6526346 5.0657411 -0.12168229 6 0 0 0 8.5910101
-8.5995264 4.9699535 -0.39831617 4 0 0 0 8.6058512
-8.5616369 4.7551417 -0.1070293 7 0 0 0 8.6107979
-8.5026197 4.655138 -0.38183501 4 0 0 0 8.625639
-8.479167 4.4588656 -0.094138332 5 0 0 0 8.6305857
-8.4289274 4.3631959 -0.36668229 3 0 0 0 8.6454268
-8.3903303 4.1723599 -0.081454284 6 0 0 0 8.6503744
-8.3322592 4.0704026 -0.3522253 5 0 0 0 8.6652145
-8.3365479 3.9131703 -0.069745928 10 0 0 0 8.6701622
-8.2528925 3.7972624 -0.33827144 4 0 0 0 8.6850033
-8.2165861 3.6305127 -0.059011422 6 0 0 0 8.68995
-7.9690685 3.4435182 -0.31739902 6 0 0 0 8.7047911
-7.9639921 3.3059216 -0.047237851 9 0 0 0 8.7097378
-7.9017353 3.1988394 -0.3061204 7 0 0 0 8.7245789
-7.8994207 3.0693457 -0.037888147 11 0 0 0 8.7295256
-7.8489256 2.9687052 -0.29642263 6 0 0 0 8.7443666
-8.0261726 2.9119008 -0.029851673 12 0 0 0 8.7493143
-3.7216554 -0.91161484 -0.09126354 1 0 0 0 9.1661243
-6.699667 -1.6318735 0.073833279 17 0 0 0 9.1710711
-6.9302979 -0.87889779 0.067679048 17 0 0 0 9.1845922
-3.702785 -0.99838758 -0.089726664 2 0 0 0 9.1859121
-6.6470094 -1.7789531 0.07442078 19 0 0 0 9.1908588
-3.6638126 -1.082237 -0.22185731 0 0 0 0 9.2007532
-6.8827925 -1.0307891 0.069428831 17 0 0 0 9.20438
-3.6880064 -1.0860146 -0.090065658 2 0 0 0 9.2056999
-6.6044121 -1.9276614 0.075315103 18 0 0 0 9.2106466
-3.6521463 -1.1737487 -0.22109592 5 0 0 0 9.220541
-6.841352 -1.1844568 0.071364857 17 0 0 0 9.2241678
-3.6620681 -1.1710467 -0.088744581 6 0 0 0 9.2254877
-3.675832 -1.163202 0.04271486 1 0 0 0 9.2304354
-3.6192145 -1.2590389 -0.21998546 4 0 0 0 9.2403288
-6.7746067 -1.3300531 0.072525077 18 0 0 0 9.2439556
-3.632127 -1.2552284 -0.088545881 1 0 0 0 9.2452765
-6.5152478 -2.2252257 0.075984754 18 0 0 0 9.2502232
-3.7606928 -0.83022481 -0.092296742 0 0 0 0 9.2587967
-3.5852461 -1.3433663 -0.21890739 1 0 0 0 9.2601166
-6.7411475 -1.4824266 0.073700689 17 0 0 0 9.2637444
-3.6072159 -1.3402245 -0.088193797 1 0 0 0 9.2650642
-6.4676814 -2.3741183 0.075729974 20 0 0 0 9.2700109
-3.536778 -1.4345899 -0.35931656 0 0 0 0 9.2749577
-3.5624416 -1.431286 -0.21848713 1 0 0 0 9.2799053
-3.5762434 -1.4244409 -0.087025203 1 0 0 0 9.284852
-6.4363461 -2.5284176 0.074973144 16 0 0 0 9.2897987
-3.5334892 -1.5348022 -0.36028972 0 0 0 0 9.2947464
-3.5447409 -1.522019 -0.21790844 0 0 0 0 9.2996931
-3.5513673 -1.5104356 -0.086670138 0 0 0 0 9.3046398
-6.3918099 -2.6781979 0.074811913 15 0 0 0 9.3095865
-3.5098007 -1.6063837 -0.21785933 0 0 0 0 9.3194809
-3.546896 -1.6056883 -0.08768636 0 0 0 0 9.3244276
-6.3372092 -2.8263481 0.074344911 16 0 0 0 9.3293753
-6.2988763 -2.9809041 0.073378228 16 0 0 0 9.3491631
-6.2463369 -3.1299801 0.071975216 14 0 0 0 9.3689508
-6.2091837 -3.2894948 0.07105206 18 0 0 0 9.3887386
-6.1567812 -3.4415689 0.06865795 5 0 0 0 9.4085274
-5.8251786 -4.5938334 0.05210036 1 0 0 0 9.5470428
-3.0299554 -3.0112848 -0.22355233 7 0 0 0 9.6163006
-3.138824 -3.0500031 -0.10116855 8 0 0 0 9.6212482
-3.0501845 -3.2594306 -0.37398612 1 0 0 0 10.007672
-2.9335268 -3.2033088 -0.22551921 30 0 0 0 10.032407
-2.8094299 -3.901449 -0.24432026 3 0 0 0 10.131347
-2.5922368 -3.911727 -0.36787871 58 0 0 0 10.146188
-2.6911404 -3.9287992 -0.23983772 66 0 0 0 10.151135
-2.7808921 -3.9352198 -0.12009021 2 0 0 0 10.156082
-2.4287741 -3.8616514 -0.35385472 55 0 0 0 10.165976
-2.5280347 -3.882731 -0.23280074 61 0 0 0 10.170923
-2.6265426 -3.9048569 -0.1187712 76 0 0 0 10.17587
-2.7341905 -3.926661 -0.0094708642 77 0 0 0 10.180817
-2.2787235 -3.8210938 -0.34141433 63 0 0 0 10.185764
-2.3729205 -3.8363683 -0.22552301 59 0 0 0 10.190711
-2.4622598 -3.8498375 -0.1167832 72 0 0 0 10.195658
-2.5681267 -3.8727231 -0.01353772 74 0 0 0 10.200605
-2.1304154 -3.7734656 -0.32893041 61 0 0 0 10.205552
-2.2238367 -3.7907829 -0.21806191 61 0 0 0 10.210499
-2.3177538 -3.8151076 -0.11517235 69 0 0 0 10.215446
-2.4165227 -3.8312619 -0.017151766 72 0 0 0 10.220393
-1.9913404 -3.7305057 -0.3181625 59 0 0 0 10.22534
-2.0819154 -3.7479408 -0.21238169 69 0 0 0 10.230287
-2.1738453 -3.7693465 -0.11355796 70 0 0 0 10.235234
-2.2719119 -3.7895422 -0.020555176 81 0 0 0 10.240181
-1.8605496 -3.6952462 -0.30713403 59 0 0 0 10.245128
-0.61220306 -3.2833607 -0.21104477 55 0 0 0 10.247555
-1.9545206 -3.718576 -0.20724605 70 0 0 0 10.250075
-0.6830731 -3.294641 -0.15688437 63 0 0 0 10.252502
-2.0404313 -3.7362106 -0.1126101 82 0 0 0 10.255022
-0.75224805 -3.3109975 -0.10676941 57 0 0 0 10.257449
-2.1344326 -3.7505643 -0.024740027 73 0 0 0 10.259969
-0.82565796 -3.327219 -0.064531632 58 0 0 0 10.262396
-1.7346375 -3.6558061 -0.29696456 70 0 0 0 10.264916
-0.52893823 -3.2563748 -0.20557663 51 0 0 0 10.267343
-1.823588 -3.6753278 -0.2012345 75 0 0 0 10.269863
-0.59897256 -3.269695 -0.15443994 59 0 0 0 10.27229
-1.9119022 -3.6998918 -0.11151916 82 0 0 0 10.27481
-0.66745782 -3.2920885 -0.10733853 59 0 0 0 10.277237
-2.0009198 -3.711437 -0.027804459 85 0 0 0 10.279757
-0.73974615 -3.3033535 -0.067142643 57 0 0 0 10.282184
-1.611789 -3.6172552 -0.28770122 80 0 0 0 10.284704
-0.44678232 -3.2323492 -0.20007014 55 0 0 0 10.287131
-1.7009693 -3.639781 -0.19596209 72 0 0 0 10.289651
-0.51794207 -3.2466369 -0.15190001 59 0 0 0 10.292078
-1.7863637 -3.6624639 -0.1113394 87 0 0 0 10.294598
-0.5855549 -3.270071 -0.10782481 62 0 0 0 10.297025
-1.8713232 -3.6691649 -0.031755231 84 0 0 0 10.299545
-0.6557526 -3.276417 -0.070700206 60 0 0 0 10.301972
-1.497188 -3.5854056 -0.27818012 75 0 0 0 10.304492
-0.37327313 -3.2500441 -0.19824575 99 0 0 0 10.306919
-1.5846301 -3.6110103 -0.19149113 88 0 0 0 10.309439
-0.43805686 -3.2275383 -0.14931922 63 0 0 0 10.311866
-1.6646817 -3.6218889 -0.11004698 96 0 0 0 10.314386
-0.50450492 -3.2440186 -0.10829052 65 0 0 0 10.316813
-1.7542982 -3.6424415 -0.035306063 92 0 0 0 10.319333
-0.57426858 -3.263397 -0.074161738 65 0 0 0 10.32176
-1.3865032 -3.5504117 -0.26954558 80 0 0 0 10.32428
-0.29404122 -3.2239084 -0.19265312 99 0 0 0 10.326707
-1.4665684 -3.5632861 -0.18609731 77 0 0 0 10.329227
-0.36335307 -3.2382772 -0.14954096 105 0 0 0 10.331654
-1.5481341 -3.5841286 -0.10959604 93 0 0 0 10.334174
-0.4257386 -3.2248886 -0.1096775 64 0 0 0 10.336601
-1.6379801 -3.6076856 -0.038846057 92 0 0 0 10.339121
-0.49319917 -3.2343502 -0.077633075 67 0 0 0 10.341548
-1.2745279 -3.5074584 -0.26095989 86 0 0 0 10.344068
-0.21716607 -3.2066936 -0.18797675 100 0 0 0 10.346495
-1.3603584 -3.5371461 -0.18231753 98 0 0 0 10.349015
-0.28550249 -3.2201028 -0.1468963 107 0 0 0 10.351442
-1.4367641 -3.5511811 -0.10898205 94 0 0 0 10.353962
-0.35113791 -3.2376266 -0.11089317 118 0 0 0 10.356389
-1.5235506 -3.5698569 -0.042332739 95 0 0 0 10.358909
-0.41703862 -3.2301393 -0.080920957 80 0 0 0 10.361336
-1.1743677 -3.4850903 -0.25399095 92 0 0 0 10.363856
-0.14210635 -3.1844084 -0.18325256 106 0 0 0 10.366283
-1.2537835 -3.5010114 -0.1785619 102 0 0 0 10.368803
-0.20946071 -3.1958601 -0.14520593 101 0 0 0 10.37123
-1.3292804 -3.5150876 -0.10825516 108 0 0 0 10.37375
-0.27433312 -3.2174222 -0.11222138 113 0 0 0 10.376177
-1.4142686 -3.5368395 -0.04465688 103 0 0 0 10.378697
-0.34094447 -3.2269282 -0.085205063 114 0 0 0 10.381124
-1.0726312 -3.4477661 -0.2460891 103 0 0 0 10.383644
-0.067066573 -3.1361017 -0.17756397 150 0 0 0 10.386071
-1.1513507 -3.4687264 -0.17467572 111 0 0 0 10.388591
-0.13456416 -3.1755774 -0.14347477 110 0 0 0 10.391018
-1.2282219 -3.4897676 -0.10831995 105 0 0 0 10.393538
-0.19717005 -3.1882219 -0.11257199 117 0 0 0 10.395965
-1.3079705 -3.5017152 -0.048894558 103 0 0 0 10.398485
-0.26538122 -3.2116864 -0.088489346 113 0 0 0 10.400912
-0.97643083 -3.4242501 -0.23900124 102 0 0 0 10.403432
0.0060210093 -3.1387641 -0.1747442 106 0 0 0 10.405859
-1.0551306 -3.4422171 -0.17059441 117 0 0 0 10.408379
-0.060630262 -3.1542578 -0.14171554 115 0 0 0 10.410806
-1.1289425 -3.4583774 -0.10833919 109 0 0 0 10.413326
-0.12354494 -3.1729028 -0.11379647 123 0 0 0 10.415753
-1.2067833 -3.4704027 -0.051972374 109 0 0 0 10.418273
-0.18827167 -3.1814904 -0.091840558 120 0 0 0 10.4207
-0.88179046 -3.3886676 -0.23188309 84 0 0 0 10.42322
0.077157237 -3.1143315 -0.16990341 98 0 0 0 10.425647
-0.9599033 -3.4146721 -0.16748431 122 0 0 0 10.428167
0.012194991 -3.1358986 -0.1399181 123 0 0 0 10.430594
-1.0304135 -3.4209518 -0.10734318 121 0 0 0 10.433114
-0.050670017 -3.1515489 -0.11400597 98 0 0 0 10.435541
-1.1098109 -3.4449389 -0.054914709 127 0 0 0 10.438061
