# .PCD v0.7 - Point Cloud Data file format
VERSION 0.7
FIELDS x y z intensity normal_x normal_y normal_z curvature
SIZE 4 4 4 4 4 4 4 4
TYPE F F F F F F F F
COUNT 1 1 1 1 1 1 1 1
WIDTH 924
HEIGHT 1
VIEWPOINT 0 0 0 1 0 0 0
POINTS 924
DATA ascii
-11.63751 -9.3280563 -6.6737237 19 0 0 0 90.869507
-7.5541492 -4.8505216 -4.4081788 101 0 0 0 90.869507
-16.267683 -13.027564 -8.1242161 23 0 0 0 90.869507
-14.627527 -7.4916954 -5.037919 59 0 0 0 90.869507
-9.336257 -9.3101063 -6.990809 23 0 0 0 90.869507
-24.219849 -15.71804 -4.7008286 1923 0 0 0 90.869507
-5.6735826 -4.5641823 -4.1621337 112 0 0 0 90.869507
-8.2227669 -6.6040335 -5.3601904 81 0 0 0 90.869507
-8.9133587 -4.510828 -4.1780891 70 0 0 0 90.869507
-5.8502946 -5.8002868 -4.9038887 129 0 0 0 90.969597
-18.179272 -11.611943 -5.7213693 34 0 0 0 90.969597
-15.031722 -7.6404505 -3.3860009 76 0 0 0 90.969597
-10.008822 -6.357676 -5.1120954 31 0 0 0 90.969597
-8.1818476 -6.4890141 -5.3060589 90 0 0 0 90.969597
-14.642808 -7.3864713 -5.0261903 28 0 0 0 90.969597
-11.489712 -9.0943851 -6.5547714 21 0 0 0 90.969597
-14.934437 -7.568953 -4.2341399 71 0 0 0 90.969597
-18.383642 -11.721464 -6.9562883 9 0 0 0 90.969597
-5.6583152 -4.4950242 -4.12958 39 0 0 0 90.969597
-4.5227036 -4.5174823 -4.2567348 174 0 0 0 90.969597
-11.365792 -5.7029634 -4.5928984 29 0 0 0 90.969597
-20.048824 -15.840396 -8.5301542 20 0 0 0 90.969597
-9.2848339 -9.1459093 -6.9083834 28 0 0 0 90.969597
-7.4742928 -4.7347488 -4.3431048 80 0 0 0 90.969597
-3.0135124 -3.0711741 -3.5516703 27 0 0 0 90.969597
-16.127958 -12.754023 -8.012888 8 0 0 0 90.969597
-24.3461 -15.588356 -4.7046504 42 0 0 0 90.969597
-8.8191156 -4.3953643 -4.119792 40 0 0 0 90.969597
-3.6600115 -3.6907775 -3.8554437 84 0 0 0 90.969597
-11.207994 -8.7601357 -6.3607163 20 0 0 0 91.068413
-4.5027046 -4.4427037 -4.2110262 161 0 0 0 91.068413
-8.7651224 -4.3015299 -4.0809894 47 0 0 0 91.068413
-14.643653 -7.2745376 -5.0097566 36 0 0 0 91.068413
-8.0844603 -6.3314037 -5.2159181 99 0 0 0 91.068413
-17.273184 -16.626673 -9.7795534 13 0 0 0 91.068413
-15.161768 -9.5365896 -5.7056088 15 0 0 0 91.068413
-15.079412 -7.5485787 -3.3850899 80 0 0 0 91.068413
-5.8272238 -5.7069759 -4.8538384 155 0 0 0 91.068413
-18.172068 -11.450903 -5.6951103 39 0 0 0 91.068413
-9.2020073 -8.9537811 -6.803864 24 0 0 0 91.068413
-5.6826057 -4.4577398 -4.1265659 24 0 0 0 91.068413
-19.995903 -15.600194 -8.4644089 25 0 0 0 91.068413
-11.287134 -5.5770659 -4.5458136 37 0 0 0 91.068413
-9.8731003 -6.1867771 -5.0215392 45 0 0 0 91.068413
-15.859982 -12.384701 -7.839232 17 0 0 0 91.068413
-14.952247 -7.463006 -4.2248731 44 0 0 0 91.068413
-3.0119214 -3.0321538 -3.5269725 14 0 0 0 91.068413
-3.598304 -3.5844438 -3.7655852 44 0 0 0 91.068413
-7.3461971 -4.5906944 -4.2505026 46 0 0 0 91.068413
-8.6572351 -4.1828537 -4.0172925 61 0 0 0 91.166206
-13.299287 -8.2363834 -5.8449202 17 0 0 0 91.166206
-9.2011538 -8.8436804 -6.7615194 26 0 0 0 91.166206
-3.5839136 -3.5266244 -3.7267895 18 0 0 0 91.166206
-17.076914 -8.3935738 -4.8152647 18 0 0 0 91.166206
-9.734869 -6.0172973 -4.9306226 43 0 0 0 91.166206
-11.082857 -8.5533323 -6.2578883 22 0 0 0 91.166206
-17.12192 -16.279818 -9.6345205 18 0 0 0 91.166206
-18.044592 -11.216428 -5.6314673 22 0 0 0 91.166206
-4.4873023 -4.3735428 -4.1703591 191 0 0 0 91.166206
-5.7600737 -5.5724702 -4.7677503 117 0 0 0 91.166206
-8.0333166 -6.2122397 -5.1568222 97 0 0 0 91.166206
-15.78422 -12.17036 -7.7626815 15 0 0 0 91.166206
-14.635948 -7.1590905 -4.9906859 23 0 0 0 91.166206
-11.076426 -5.3885984 -4.445663 35 0 0 0 91.166206
-20.030914 -15.430661 -8.4368734 14 0 0 0 91.166206
-14.906419 -9.2487812 -5.5858274 47 0 0 0 91.166206
-7.3691154 -4.5424223 -4.2468052 48 0 0 0 91.166206
-8.6014452 -4.0910091 -3.9785228 58 0 0 0 91.266563
-14.660945 -7.0601926 -4.98313 25 0 0 0 91.266563
-17.0996 -8.2748346 -4.8058615 32 0 0 0 91.266563
-9.6740046 -5.8979745 -4.8800001 37 0 0 0 91.266563
-4.4472947 -4.2817478 -4.1073565 106 0 0 0 91.266563
-10.999118 -8.3815546 -6.1797161 22 0 0 0 91.266563
-7.8713565 -6.0102496 -5.0270553 76 0 0 0 91.266563
-17.97752 -11.022338 -5.5874519 24 0 0 0 91.266563
-17.028433 -15.993093 -9.5240145 17 0 0 0 91.266563
-5.714427 -5.4609051 -4.7007318 131 0 0 0 91.266563
-9.221693 -8.7551899 -6.7356491 17 0 0 0 91.266563
-7.3197656 -4.4502897 -4.2013412 15 0 0 0 91.266563
-19.974791 -15.193 -8.3714972 20 0 0 0 91.266563
-14.858448 -9.0932159 -5.5452185 34 0 0 0 91.266563
-10.97905 -5.2581596 -4.3921213 30 0 0 0 91.266563
-15.739758 -11.982802 -7.7025571 16 0 0 0 91.266563
-7.7924991 -5.8747468 -4.952054 83 0 0 0 91.363586
-14.678367 -6.9579778 -4.9732409 33 0 0 0 91.363586
-16.981586 -15.754046 -9.4412575 22 0 0 0 91.363586
-8.4560223 -7.9306936 -6.1356654 16 0 0 0 91.363586
-10.718185 -5.0525398 -4.2732158 32 0 0 0 91.363586
-14.822165 -8.9464569 -5.509541 48 0 0 0 91.363586
-12.674541 -7.6358657 -5.5240197 19 0 0 0 91.363586
-19.703438 -14.796627 -8.2168674 19 0 0 0 91.363586
-17.113592 -8.1523781 -4.7942672 28 0 0 0 91.363586
-17.90543 -10.82749 -5.5424609 13 0 0 0 91.363586
-10.901287 -8.2017994 -6.094614 27 0 0 0 91.363586
-4.4574552 -4.2391524 -4.0918431 96 0 0 0 91.363586
-8.5673695 -4.0105548 -3.9502869 74 0 0 0 91.363586
-9.6489725 -5.8018332 -4.8481498 35 0 0 0 91.363586
-15.723353 -11.818615 -7.6570725 15 0 0 0 91.363586
-5.7062883 -5.3865585 -4.6656713 118 0 0 0 91.363586
-9.4811373 -5.6220155 -4.7445483 64 0 0 0 91.464706
-15.660654 -11.621802 -7.5897055 13 0 0 0 91.464706
-16.903782 -15.489944 -9.3425779 23 0 0 0 91.464706
-14.795275 -8.8068275 -5.4778328 48 0 0 0 91.464706
-19.620676 -14.547025 -8.1426773 25 0 0 0 91.464706
-4.4696789 -4.198873 -4.0785565 71 0 0 0 91.464706
-5.6152692 -5.235992 -4.5631552 133 0 0 0 91.464706
-10.806054 -8.0268307 -6.0119834 27 0 0 0 91.464706
-7.760828 -5.7765741 -4.908061 95 0 0 0 91.464706
-14.461324 -6.746695 -4.8836803 17 0 0 0 91.464706
-16.779995 -7.8912411 -3.7214158 16 0 0 0 91.464706
-12.591923 -7.4811931 -5.4663172 25 0 0 0 91.464706
-17.458784 -8.2790766 -0.018574145 16 0 0 0 91.464706
-8.454834 -3.8948014 -3.8858654 59 0 0 0 91.464706
-8.3442698 -7.7302976 -6.0181336 56 0 0 0 91.464706
-10.547246 -4.8930588 -4.1913176 43 0 0 0 91.464706
-17.800093 -10.615143 -5.4876738 42 0 0 0 91.464706
-15.032759 -7.0477638 -4.1926241 22 0 0 0 91.464706
-21.232861 -19.145716 -10.019842 16 0 0 0 91.560188
-5.6090417 -5.1662436 -4.5312181 131 0 0 0 91.560188
-17.141636 -7.9091144 -4.7718501 16 0 0 0 91.560188
-10.645821 -7.8069534 -5.8941226 27 0 0 0 91.560188
-7.6034193 -5.5873122 -4.7847924 87 0 0 0 91.560188
-17.799417 -10.467187 -5.4659591 26 0 0 0 91.560188
-10.425168 -4.758893 -4.1296682 36 0 0 0 91.560188
-14.75326 -8.6596584 -5.4409876 40 0 0 0 91.560188
-4.440793 -4.1208138 -4.027885 39 0 0 0 91.560188
-16.72249 -7.7391963 -3.6966023 33 0 0 0 91.560188
-9.3708239 -5.4791884 -4.6708961 55 0 0 0 91.560188
-17.495731 -8.1653042 -0.017328257 24 0 0 0 91.560188
-8.367198 -3.7923698 -3.8335443 50 0 0 0 91.560188
-17.383698 -8.1072369 -0.96390402 22 0 0 0 91.560188
-8.3723288 -7.6613574 -6.003231 62 0 0 0 91.560188
-19.575365 -14.328098 -8.085103 10 0 0 0 91.560188
-12.398048 -7.2634554 -5.3607807 26 0 0 0 91.560188
-16.839138 -15.241645 -9.2527113 22 0 0 0 91.560188
-7.5707989 -5.4921789 -4.7417455 96 0 0 0 91.663361
-17.562843 -8.0655746 -0.016142836 18 0 0 0 91.663361
-5.6021695 -5.0967851 -4.4992642 149 0 0 0 91.663361
-17.708166 -10.267789 -5.4166346 24 0 0 0 91.663361
-8.3358278 -3.716707 -3.8076749 54 0 0 0 91.663361
-10.420966 -4.6799688 -4.115591 24 0 0 0 91.663361
-19.524269 -14.107525 -8.0259018 24 0 0 0 91.663361
-17.337934 -7.9565678 -0.95720738 19 0 0 0 91.663361
-8.3160305 -7.5166812 -5.9280829 66 0 0 0 91.663361
-43.066879 -19.678034 -7.1415029 7 0 0 0 91.663361
-10.464827 -7.575995 -5.766006 26 0 0 0 91.663361
-4.4172363 -4.048882 -3.9827881 13 0 0 0 91.663361
-16.783129 -15.004623 -9.1688681 25 0 0 0 91.663361
-13.887911 -6.2727065 -4.6595864 18 0 0 0 91.663361
-21.23852 -18.915756 -9.9649906 23 0 0 0 91.663361
-15.130942 -6.8685956 -4.1939898 48 0 0 0 91.663361
-16.682489 -7.5966959 -3.6759458 34 0 0 0 91.663361
-12.255465 -7.0792985 -5.2784858 19 0 0 0 91.663361
-14.676208 -8.4937944 -5.3916044 38 0 0 0 91.663361
-9.3639936 -5.3984199 -4.6498432 48 0 0 0 91.663361
-5.5837994 -5.0178537 -4.4585948 158 0 0 0 91.759361
-17.675522 -10.104425 -5.3859448 41 0 0 0 91.759361
-11.973626 -6.8188562 -5.1367717 31 0 0 0 91.759361
-16.694126 -7.4786248 -3.6670728 29 0 0 0 91.759361
-8.2905254 -7.4017463 -5.8760424 73 0 0 0 91.759361
-7.5481434 -5.4054117 -4.705575 83 0 0 0 91.759361
-17.630293 -7.9657512 -0.015008894 11 0 0 0 91.759361
-8.1039171 -3.5537834 -3.6896577 94 0 0 0 91.759361
-17.330109 -7.8244534 -0.952811 24 0 0 0 91.759361
-16.692904 -14.74066 -9.067708 28 0 0 0 91.759361
-10.133445 -4.4762516 -3.9889727 59 0 0 0 91.759361
-10.223503 -7.3061786 -5.6059713 29 0 0 0 91.759361
-9.148407 -5.199615 -4.5248384 57 0 0 0 91.759361
-14.669195 -8.3976107 -3.5851493 10 0 0 0 91.759361
-14.641501 -8.3542051 -5.3584666 54 0 0 0 91.759361
-46.401234 -26.630291 -6.0288763 5 0 0 0 91.759361
-15.183651 -6.780478 -4.1959357 57 0 0 0 91.759361
-21.166336 -18.619766 -9.8747425 11 0 0 0 91.759361
-19.441847 -13.867176 -7.9547315 20 0 0 0 91.759361
-16.635891 -7.3302574 -3.6428938 31 0 0 0 91.860222
-10.006679 -4.3470635 -3.9270475 42 0 0 0 91.860222
-17.640699 -9.9413843 -5.3549881 30 0 0 0 91.860222
-13.373369 -5.8436866 -4.4587088 17 0 0 0 91.860222
-17.361473 -7.7105746 -0.95069194 22 0 0 0 91.860222
-15.276657 -6.7099147 -4.2092257 56 0 0 0 91.860222
-17.486032 -7.7493825 -1.8997307 15 0 0 0 91.860222
-11.709455 -6.5736041 -5.0038896 21 0 0 0 91.860222
-8.0589361 -3.4752886 -3.6583884 73 0 0 0 91.860222
-5.5608196 -4.9359369 -4.4148331 135 0 0 0 91.860222
-7.4272904 -5.2503047 -4.6083455 125 0 0 0 91.860222
-8.1314907 -7.1707377 -5.7299356 51 0 0 0 91.860222
-20.991611 -18.238792 -9.7380199 20 0 0 0 91.860222
-11.79856 -10.337894 -7.3157096 20 0 0 0 91.860222
-46.615265 -26.373894 -6.0320125 7 0 0 0 91.860222
-14.617254 -8.2219086 -5.3295946 43 0 0 0 91.860222
-19.358761 -13.629478 -7.8841901 20 0 0 0 91.860222
-14.640629 -8.262351 -3.564326 145 0 0 0 91.860222
-9.0891571 -5.092452 -4.4787354 52 0 0 0 91.860222
-10.189434 -7.187839 -5.5616345 30 0 0 0 91.860222
-16.673319 -14.542251 -9.0063057 19 0 0 0 91.860222
-15.380925 -6.6434588 -4.2257495 57 0 0 0 91.956482
-17.49509 -7.6252017 -1.8943431 23 0 0 0 91.956482
-9.9806566 -4.263185 -3.9055262 37 0 0 0 91.956482
-17.638317 -9.7979155 -5.3343883 32 0 0 0 91.956482
-14.565274 -8.0754375 -5.2910051 47 0 0 0 91.956482
-7.9827619 -3.3845119 -3.6131465 69 0 0 0 91.956482
-14.733133 -8.195735 -3.5735323 154 0 0 0 91.956482
-20.835186 -17.879688 -9.611701 9 0 0 0 91.956482
-11.521858 -9.9712925 -7.103507 19 0 0 0 91.956482
-46.802715 -26.101841 -6.0319862 7 0 0 0 91.956482
-10.071949 -7.0128655 -5.4722261 37 0 0 0 91.956482
-17.393919 -7.5974107 -0.94871432 27 0 0 0 91.956482
-5.4834938 -4.8075981 -4.3283877 163 0 0 0 91.956482
-7.3398547 -5.1213145 -4.5330291 60 0 0 0 91.956482
-8.0251732 -6.9900289 -5.6229219 74 0 0 0 91.956482
-8.9751358 -4.9564867 -4.4059806 41 0 0 0 91.956482
-16.597906 -14.298117 -8.915822 22 0 0 0 91.956482
-11.608966 -6.4238539 -4.9425125 30 0 0 0 91.956482
-16.611526 -7.1980901 -3.6265073 37 0 0 0 91.956482
-17.624674 -9.649291 -5.3106852 22 0 0 0 92.057602
-7.9457374 -3.3114839 -3.5861828 64 0 0 0 92.057602
-16.455256 -14.000308 -8.7905016 13 0 0 0 92.057602
-7.309042 -5.0334811 -4.4937048 45 0 0 0 92.057602
-9.9098473 -6.8101768 -5.3594537 38 0 0 0 92.057602
-9.8638878 -4.1419268 -3.8484349 45 0 0 0 92.057602
-11.464807 -9.799592 -7.0293841 20 0 0 0 92.057602
-15.471575 -6.5702977 -4.2385492 47 0 0 0 92.057602
-18.579281 -12.730548 -6.2651167 7 0 0 0 92.057602
-11.441339 -6.2397337 -4.8529959 31 0 0 0 92.057602
-12.867147 -5.435329 -4.263618 26 0 0 0 92.057602
-14.811654 -8.1207762 -3.57936 408 0 0 0 92.057602
-46.953762 -25.809334 -6.0273957 6 0 0 0 92.057602
-14.563861 -7.9582405 -5.2713232 52 0 0 0 92.057602
-8.9105396 -4.8497519 -4.358325 60 0 0 0 92.057602
-16.58617 -7.0665026 -3.6101153 35 0 0 0 92.057602
-20.64707 -17.499426 -9.4724464 18 0 0 0 92.057602
-17.461416 -7.4995117 -0.9487446 22 0 0 0 92.057602
-17.492317 -7.4964952 -1.8877363 13 0 0 0 92.057602
-7.902216 -6.7982483 -5.5055733 65 0 0 0 92.057602
-5.4813285 -4.7465873 -4.3026648 154 0 0 0 92.057602
-8.8344574 -4.7383518 -4.3055229 55 0 0 0 92.155396
-16.586033 -6.9464822 -3.5995142 32 0 0 0 92.155396
-9.751214 -4.0244098 -3.7934299 47 0 0 0 92.155396
-7.8390651 -3.2107134 -3.5277534 70 0 0 0 92.155396
-16.328695 -13.720849 -8.6754837 13 0 0 0 92.155396
-9.8784943 -6.6998172 -5.318893 35 0 0 0 92.155396
-7.8357315 -6.6579208 -5.4291739 65 0 0 0 92.155396
-14.853675 -8.0256367 -3.5764093 549 0 0 0 92.155396
-5.4720945 -4.6802073 -4.2718158 127 0 0 0 92.155396
-11.220763 -6.0304246 -4.7417202 31 0 0 0 92.155396
-11.324416 -9.5600662 -6.9051967 16 0 0 0 92.155396
-15.569947 -6.4996333 -4.2535877 59 0 0 0 92.155396
-17.491367 -7.3692727 -1.8814664 15 0 0 0 92.155396
-12.716923 -5.280139 -4.2015014 22 0 0 0 92.155396
-14.574966 -7.8485861 -5.2565551 47 0 0 0 92.155396
-17.679592 -9.5388269 -5.3081322 17 0 0 0 92.155396
-18.540138 -12.537224 -6.2239952 26 0 0 0 92.155396
-17.57436 -7.420506 -0.95138907 22 0 0 0 92.155396
-20.667044 -17.299522 -9.4304733 16 0 0 0 92.155396
-7.2442837 -4.923697 -4.4339113 17 0 0 0 92.155396
-9.7680721 -6.5378542 -5.236125 35 0 0 0 92.253441
-14.689569 -7.8093781 -4.3873982 38 0 0 0 92.253441
-8.7354422 -4.6164923 -4.241991 57 0 0 0 92.253441
-11.146119 -5.9024873 -4.6934433 42 0 0 0 92.253441
-16.61042 -6.837182 -3.5944831 29 0 0 0 92.253441
-17.665777 -7.3315854 -0.95284474 23 0 0 0 92.253441
-9.61831 -3.9006538 -3.7309258 51 0 0 0 92.253441
-17.522905 -7.2364297 -2.8281794 13 0 0 0 92.253441
-15.146712 -10.117728 -6.05024 19 0 0 0 92.253441
-20.471527 -16.923346 -9.2910318 16 0 0 0 92.253441
-11.077871 -9.2362766 -6.7177792 17 0 0 0 92.253441
-15.67879 -6.4324265 -4.2715883 48 0 0 0 92.253441
-18.513739 -12.354483 -6.1877522 26 0 0 0 92.253441
-5.4661808 -4.6174369 -4.2440619 109 0 0 0 92.253441
-14.540685 -7.7154341 -5.2256393 28 0 0 0 92.253441
-16.135199 -13.390284 -8.5264482 9 0 0 0 92.253441
-7.7123532 -6.4721637 -5.3142524 75 0 0 0 92.253441
-14.905439 -7.9358029 -3.5759811 524 0 0 0 92.253441
-12.444074 -5.0775018 -4.0990567 36 0 0 0 92.253441
-7.7502527 -3.1189523 -3.4778945 74 0 0 0 92.253441
-17.52812 -7.2583404 -1.8794374 10 0 0 0 92.253441
-17.78635 -7.2538953 -0.95595706 24 0 0 0 92.351746
-15.071052 -9.9340191 -5.9938536 36 0 0 0 92.351746
-18.333773 -12.072454 -6.1005936 29 0 0 0 92.351746
-20.378878 -16.637314 -9.2000551 17 0 0 0 92.351746
-9.7085524 -6.4121761 -5.1816669 48 0 0 0 92.351746
-23.771681 -15.645164 -4.9750395 1481 0 0 0 92.351746
-9.4807606 -3.777287 -3.6670799 48 0 0 0 92.351746
-17.542416 -7.1187449 -2.8230295 18 0 0 0 92.351746
-14.724611 -7.7124987 -4.3825054 17 0 0 0 92.351746
-10.97528 -9.0372562 -6.6200032 20 0 0 0 92.351746
-14.529789 -7.5957975 -5.2035828 29 0 0 0 92.351746
-7.7372303 -6.4125767 -5.3032312 52 0 0 0 92.351746
-13.089665 -8.6365166 -6.0833344 16 0 0 0 92.351746
-10.965754 -5.7211242 -4.6008787 31 0 0 0 92.351746
-7.666604 -3.0307748 -3.4307742 90 0 0 0 92.351746
-5.3971066 -4.5027666 -4.1674519 44 0 0 0 92.351746
-14.956659 -7.8456373 -3.5755596 488 0 0 0 92.351746
-12.201143 -4.8912225 -4.0072613 27 0 0 0 92.351746
-17.530994 -7.1337276 -1.8737991 16 0 0 0 92.351746
-15.764023 -6.3547044 -4.2831755 36 0 0 0 92.351746
-16.09936 -13.194593 -8.4626007 6 0 0 0 92.351746
-8.658041 -4.5078897 -4.1896276 46 0 0 0 92.351746
-16.650446 -6.7344632 -3.5930338 29 0 0 0 92.351746
-8.6122828 -4.4171619 -4.1532016 35 0 0 0 92.451073
-15.052538 -9.7898788 -5.9609613 41 0 0 0 92.451073
-10.886116 -8.8524065 -6.5315938 22 0 0 0 92.451073
-9.3980579 -3.6776953 -3.6251314 62 0 0 0 92.451073
-18.027138 -7.2233109 -0.96577299 8 0 0 0 92.451073
-10.826039 -5.5640254 -4.5262785 34 0 0 0 92.451073
-5.4102669 -4.4577751 -4.1556611 25 0 0 0 92.451073
-20.259239 -16.333527 -9.0981731 22 0 0 0 92.451073
-7.5689654 -6.1953573 -5.1596909 89 0 0 0 92.451073
-18.3069 -11.894356 -6.0654826 22 0 0 0 92.451073
-11.986624 -4.7200298 -3.9255157 37 0 0 0 92.451073
-23.907207 -15.524837 -4.9815173 948 0 0 0 92.451073
-16.130089 -13.055162 -8.4347134 7 0 0 0 92.451073
-14.548451 -7.4922886 -5.1925101 30 0 0 0 92.451073
-17.416813 -8.9871159 -5.1737142 41 0 0 0 92.451073
-17.534508 -6.9904704 -2.8135536 15 0 0 0 92.451073
-16.731726 -6.6481709 -3.6007106 19 0 0 0 92.451073
-15.002989 -7.7528992 -3.5740941 502 0 0 0 92.451073
-17.569031 -7.0237656 -1.8720907 16 0 0 0 92.451073
-15.827268 -6.2676115 -4.2888432 30 0 0 0 92.451073
-7.5667038 -2.9377313 -3.3766754 89 0 0 0 92.451073
-9.5530806 -6.2257338 -5.0764084 26 0 0 0 92.451073
-17.545017 -6.8701363 -2.8072429 10 0 0 0 92.548355
-14.558742 -7.3849549 -5.1787171 37 0 0 0 92.548355
-12.587097 -8.085144 -5.7989373 16 0 0 0 92.548355
-9.2811565 -3.5664341 -3.5702214 49 0 0 0 92.548355
-16.892004 -6.5921516 -3.6256492 15 0 0 0 92.548355
-7.4788589 -2.8509531 -3.3284276 77 0 0 0 92.548355
-10.692322 -5.4126573 -4.4548807 38 0 0 0 92.548355
-15.044381 -7.6576681 -3.5716021 400 0 0 0 92.548355
-17.686937 -6.9452615 -1.8791418 5 0 0 0 92.548355
-20.198639 -16.081177 -9.0241995 13 0 0 0 92.548355
-18.284201 -11.720675 -6.0322995 26 0 0 0 92.548355
-15.868356 -6.1715455 -4.2886095 20 0 0 0 92.548355
-15.008869 -9.6309738 -5.9185891 47 0 0 0 92.548355
-8.5239725 -4.3060603 -4.0965004 54 0 0 0 92.548355
-11.864932 -4.5882173 -3.8750234 22 0 0 0 92.548355
-24.29093 -15.562806 -5.04006 83 0 0 0 92.548355
-10.714581 -8.6043777 -6.3948398 34 0 0 0 92.548355
-7.4656172 -6.0347843 -5.0622463 87 0 0 0 92.548355
-9.4348135 -6.0665889 -4.9920907 49 0 0 0 92.548355
-17.403851 -8.8456326 -5.1522074 35 0 0 0 92.548355
-16.92318 -6.4849367 -3.6226299 18 0 0 0 92.647934
-14.980642 -9.4836302 -5.882885 48 0 0 0 92.647934
-7.4514956 -2.7883251 -3.3077726 82 0 0 0 92.647934
-17.714499 -6.8308311 -1.876447 3 0 0 0 92.647934
-15.051079 -7.5451317 -3.5609467 74 0 0 0 92.647934
-10.661048 -8.4543972 -6.3302627 28 0 0 0 92.647934
-14.4379 -7.2126479 -5.1183124 12 0 0 0 92.647934
-9.4351273 -5.9853449 -4.971705 46 0 0 0 92.647934
-9.171154 -3.4597371 -3.5184035 71 0 0 0 92.647934
-20.020716 -15.739833 -8.898881 27 0 0 0 92.647934
-8.3984814 -4.178226 -4.0223055 45 0 0 0 92.647934
-12.526606 -7.9382005 -5.7470407 20 0 0 0 92.647934
-16.875645 -8.4472437 -4.9777298 20 0 0 0 92.647934
-11.667924 -4.4299002 -3.8001173 43 0 0 0 92.647934
-17.520563 -6.7368011 -2.795409 18 0 0 0 92.647934
-10.619987 -5.294477 -4.4098639 31 0 0 0 92.647934
-18.165638 -11.488026 -5.9678802 24 0 0 0 92.647934
-7.322618 -5.8454428 -4.9389801 83 0 0 0 92.647934
-15.100798 -7.4544454 -3.5607817 49 0 0 0 92.744446
-7.2385988 -5.7061348 -4.8571 82 0 0 0 92.744446
-17.801798 -6.7392354 -1.8803008 13 0 0 0 92.744446
-14.926227 -9.3214178 -5.8373942 47 0 0 0 92.744446
-9.2777977 -5.8061032 -4.868187 40 0 0 0 92.744446
-11.498071 -4.2848573 -3.7346733 43 0 0 0 92.744446
-10.561141 -8.2702303 -6.2389932 25 0 0 0 92.744446
-16.947353 -8.353508 -4.9825187 16 0 0 0 92.744446
-10.443233 -5.1266265 -4.3216538 54 0 0 0 92.744446
-8.3129301 -4.0722723 -3.9680378 61 0 0 0 92.744446
-17.541384 -6.6214948 -2.791075 6 0 0 0 92.744446
-18.115173 -11.3011 -5.9266806 30 0 0 0 92.744446
-19.995888 -15.52274 -8.8432217 16 0 0 0 92.744446
-7.3786697 -2.7095952 -3.2669373 97 0 0 0 92.744446
-17.116041 -6.4387059 -3.6547039 10 0 0 0 92.744446
-9.049613 -3.3505986 -3.4625154 58 0 0 0 92.744446
-6.0862303 -2.1730409 -3.0688314 11 0 0 0 92.846596
-7.2395611 -5.6352868 -4.8334651 93 0 0 0 92.846596
-17.195877 -6.3485756 -3.6623821 6 0 0 0 92.846596
-17.873722 -6.6412759 -1.8825288 12 0 0 0 92.846596
-14.908341 -9.1836214 -5.8067904 40 0 0 0 92.846596
-14.858934 -7.2109776 -4.3489285 32 0 0 0 92.846596
-10.302751 -4.9794903 -4.2492695 40 0 0 0 92.846596
-16.81922 -8.1748953 -3.9575274 49 0 0 0 92.846596
-7.2990899 -2.6296809 -3.2233877 100 0 0 0 92.846596
-11.324186 -4.1410871 -3.6683598 36 0 0 0 92.846596
-19.993116 -15.324933 -8.7981348 11 0 0 0 92.846596
-18.011425 -11.083445 -5.868506 40 0 0 0 92.846596
-9.2443886 -5.7066393 -4.8310318 39 0 0 0 92.846596
-12.26683 -7.5643578 -5.581491 22 0 0 0 92.846596
-10.349741 -8.0029106 -6.0828118 22 0 0 0 92.846596
-8.2404404 -3.9743118 -3.9205365 64 0 0 0 92.846596
-17.56423 -6.5072198 -2.7871752 13 0 0 0 92.846596
-8.925312 -3.2424459 -3.4059534 79 0 0 0 92.846596
-5.9984326 -2.1002858 -3.0168099 19 0 0 0 92.939774
-10.176909 -4.8418989 -4.1836205 55 0 0 0 92.939774
-11.965458 -7.2776542 -5.4217038 21 0 0 0 92.939774
-7.2422571 -2.5591342 -3.1903553 99 0 0 0 92.939774
-14.894176 -9.0493307 -5.778162 39 0 0 0 92.939774
-8.1463337 -3.8675375 -3.8631337 59 0 0 0 92.939774
-17.491274 -8.4008532 -0.24406676 11 0 0 0 92.939774
-17.302887 -6.2677236 -3.676048 10 0 0 0 92.939774
-8.7832003 -3.1299303 -3.3429461 76 0 0 0 92.939774
-16.834875 -8.0551586 -3.9482996 50 0 0 0 92.939774
-10.256392 -7.8307471 -5.997993 21 0 0 0 92.939774
-17.964954 -10.903448 -5.8298135 29 0 0 0 92.939774
-7.2168074 -5.5468788 -4.7943745 81 0 0 0 92.939774
-9.128273 -5.5579796 -4.7509274 65 0 0 0 92.939774
-17.342422 -8.3281393 -1.1821015 12 0 0 0 92.939774
-17.625355 -6.4071093 -2.7895975 14 0 0 0 92.939774
-14.882192 -7.109787 -4.3418136 53 0 0 0 92.939774
-11.175949 -4.0092912 -3.6109302 45 0 0 0 92.939774
-15.592605 -11.801931 -6.8184967 20 0 0 0 92.939774
-8.7385187 -3.0537517 -3.317843 62 0 0 0 93.042946
-17.923571 -10.728415 -5.7932272 38 0 0 0 93.042946
-9.0349312 -5.4255352 -4.6835055 43 0 0 0 93.042946
-17.357224 -8.2044249 -1.178419 14 0 0 0 93.042946
-8.0853081 -3.7780125 -3.8220298 65 0 0 0 93.042946
-11.700975 -7.0189085 -5.2801037 25 0 0 0 93.042946
-10.125156 -7.632812 -5.8919439 27 0 0 0 93.042946
-14.843131 -8.8941345 -5.7355514 49 0 0 0 93.042946
-5.97471 -2.0509708 -2.997788 8 0 0 0 93.042946
-17.392933 -6.1798944 -3.6861081 11 0 0 0 93.042946
-17.712927 -6.3161321 -2.7963073 11 0 0 0 93.042946
-15.615948 -11.669606 -6.7956729 30 0 0 0 93.042946
-7.1665511 -2.4830508 -3.1491637 85 0 0 0 93.042946
-14.928386 -7.0197024 -4.3415971 72 0 0 0 93.042946
-10.002289 -4.683814 -4.0982933 47 0 0 0 93.042946
-10.950801 -3.8528111 -3.52879 46 0 0 0 93.042946
-16.815197 -7.9192953 -3.9308784 30 0 0 0 93.042946
-7.1228867 -5.4056473 -4.708302 59 0 0 0 93.042946
-17.44766 -8.2483492 -0.24139148 41 0 0 0 93.042946
-10.86508 -3.7479005 -3.4925947 31 0 0 0 93.135612
-7.1067553 -2.4136176 -3.1153824 100 0 0 0 93.135612
-7.059299 -5.2895579 -4.6434207 60 0 0 0 93.135612
-14.984548 -6.9341774 -4.3445225 83 0 0 0 93.135612
-8.6932249 -2.9782257 -3.2927766 70 0 0 0 93.135612
-7.9743009 -3.6667416 -3.7575088 75 0 0 0 93.135612
-9.9366426 -4.5789895 -4.0586891 46 0 0 0 93.135612
-8.9143877 -5.2790847 -4.6026354 41 0 0 0 93.135612
-14.834007 -8.7654533 -5.7098165 43 0 0 0 93.135612
-17.371153 -8.0808525 -1.174812 22 0 0 0 93.135612
-17.893974 -10.562114 -5.7610474 28 0 0 0 93.135612
-11.498705 -6.8020682 -5.1680508 27 0 0 0 93.135612
-13.077168 -6.0390501 -4.5586801 15 0 0 0 93.135612
-17.498016 -8.1410084 -0.24030553 42 0 0 0 93.135612
-17.673569 -13.038309 -7.6601458 25 0 0 0 93.135612
-10.02238 -7.4594502 -5.8037944 18 0 0 0 93.135612
-16.786491 -7.7802668 -3.9116535 38 0 0 0 93.135612
-17.813906 -10.368027 -5.7129259 28 0 0 0 93.2416
-45.875763 -26.663761 -6.6199083 6 0 0 0 93.2416
-17.680401 -12.876622 -7.6269045 17 0 0 0 93.2416
-12.855771 -5.8414111 -4.4671321 23 0 0 0 93.2416
-17.597727 -8.0562372 -0.23993994 27 0 0 0 93.2416
-9.8069906 -4.4465489 -3.9930758 50 0 0 0 93.2416
-11.433444 -6.6691875 -5.1188602 25 0 0 0 93.2416
-9.9244337 -7.2924943 -5.7194242 27 0 0 0 93.2416
-8.8625183 -5.1752791 -4.558177 51 0 0 0 93.2416
-16.730028 -7.6297269 -3.8861096 36 0 0 0 93.2416
-10.696105 -3.6163163 -3.4296238 43 0 0 0 93.2416
-7.8864775 -3.567966 -3.7045054 103 0 0 0 93.2416
-17.455778 -5.9619989 -3.6815476 7 0 0 0 93.2416
-17.917553 -6.1422677 -2.8146992 11 0 0 0 93.2416
-6.9902973 -5.1713319 -4.575695 27 0 0 0 93.2416
-15.044627 -6.8502483 -4.3486738 77 0 0 0 93.2416
-8.5137005 -2.8584526 -3.2164888 68 0 0 0 93.2416
-7.0402589 -2.3429878 -3.0788732 100 0 0 0 93.2416
-17.385138 -7.9578228 -1.1712079 24 0 0 0 93.2416
-14.773879 -8.6081247 -5.664701 24 0 0 0 93.2416
-5.9363852 -1.956834 -2.9649892 10 0 0 0 93.2416
-17.732107 -10.175289 -5.6649513 36 0 0 0 93.3312
-8.4071236 -2.7653835 -3.1685925 102 0 0 0 93.3312
-17.390972 -7.8316622 -1.167206 25 0 0 0 93.3312
-16.702671 -7.493773 -3.8677771 43 0 0 0 93.3312
-13.781703 -4.5947943 -3.6461678 21 0 0 0 93.3312
-14.731275 -8.4626951 -5.6269889 18 0 0 0 93.3312
-18.869923 -13.522553 -6.8128204 22 0 0 0 93.3312
-15.116574 -6.7713552 -4.3565054 84 0 0 0 93.3312
-15.462078 -11.117162 -6.6334825 15 0 0 0 93.3312
-17.514517 -5.8623104 -3.6853604 11 0 0 0 93.3312
-12.60721 -5.6354146 -4.366868 23 0 0 0 93.3312
-11.1909 -6.4360991 -4.9905391 31 0 0 0 93.3312
-9.8790569 -7.1663089 -5.6665363 32 0 0 0 93.3312
-46.073387 -26.401493 -6.6218457 6 0 0 0 93.3312
-9.6914663 -4.3227129 -3.9338589 41 0 0 0 93.3312
-7.7734218 -3.4595556 -3.640033 96 0 0 0 93.3312
-10.485996 -3.4736881 -3.3537886 53 0 0 0 93.3312
-5.8575454 -1.8910835 -2.9186645 35 0 0 0 93.3312
-6.9792881 -2.2752459 -3.0451229 104 0 0 0 93.3312
-8.7835999 -5.0572562 -4.5002866 50 0 0 0 93.3312
-17.687012 -7.9660516 -0.23951502 20 0 0 0 93.3312
-8.6496115 -4.9098125 -4.4145222 58 0 0 0 93.439743
-9.5799437 -4.2027473 -3.8767142 42 0 0 0 93.439743
-14.650313 -8.297122 -5.5749426 24 0 0 0 93.439743
-13.644903 -4.4563413 -3.601331 19 0 0 0 93.439743
-15.240311 -6.7148585 -4.379395 51 0 0 0 93.439743
-46.43716 -26.232473 -6.6475997 7 0 0 0 93.439743
-7.6921196 -3.3670495 -3.5910378 76 0 0 0 93.439743
-11.042386 -6.2609439 -4.9054213 31 0 0 0 93.439743
-10.349092 -3.3580117 -3.3020413 61 0 0 0 93.439743
-5.8425379 -1.8468041 -2.9048779 78 0 0 0 93.439743
-8.3328295 -2.6844301 -3.1333034 89 0 0 0 93.439743
-14.685553 -8.2988405 -3.783016 10 0 0 0 93.439743
-12.352256 -5.430799 -4.2650509 31 0 0 0 93.439743
-6.9265337 -2.2111707 -3.0152338 123 0 0 0 93.439743
-18.84955 -13.333685 -6.7738881 27 0 0 0 93.439743
-17.739176 -10.035195 -5.6459131 23 0 0 0 93.439743
-15.391032 -10.923533 -6.5723233 27 0 0 0 93.439743
-16.691288 -7.3659635 -3.8533318 45 0 0 0 93.439743
-9.7500219 -6.981976 -5.5660987 29 0 0 0 93.439743
-17.363079 -7.6911621 -1.160848 18 0 0 0 93.439743
-18.836969 -13.152115 -6.7385631 24 0 0 0 93.527809
-12.117984 -5.2393241 -4.1712632 31 0 0 0 93.527809
-10.234836 -3.2516563 -3.2580104 62 0 0 0 93.527809
-17.504351 -7.6172376 -2.1050291 17 0 0 0 93.527809
-12.941865 -9.1034441 -6.4074969 16 0 0 0 93.527809
-6.8389444 -2.1370623 -2.9702578 130 0 0 0 93.527809
-17.675091 -5.6758556 -3.7024257 8 0 0 0 93.527809
-5.8211761 -1.8008863 -2.8880882 97 0 0 0 93.527809
-7.6512604 -3.2934222 -3.561583 72 0 0 0 93.527809
-17.346912 -7.5568991 -1.1555023 47 0 0 0 93.527809
-14.629889 -8.1493454 -3.7544374 118 0 0 0 93.527809
-8.5818167 -4.8020229 -4.3636365 47 0 0 0 93.527809
-9.5924397 -6.7806301 -5.4505296 31 0 0 0 93.527809
-14.512354 -8.1018448 -5.5018315 26 0 0 0 93.527809
-17.669453 -9.8531475 -5.6028404 28 0 0 0 93.527809
-15.30734 -10.723563 -6.5067129 45 0 0 0 93.527809
-9.440649 -4.0727792 -3.8087723 58 0 0 0 93.527809
-8.2381296 -2.5982392 -3.0905635 89 0 0 0 93.527809
-15.318676 -6.6374712 -4.3892941 53 0 0 0 93.527809
-13.374905 -4.277463 -3.5214071 26 0 0 0 93.527809
-16.684328 -7.2408953 -3.8402627 52 0 0 0 93.527809
-11.001922 -6.1491609 -4.8694706 51 0 0 0 93.527809
-17.61253 -9.6802588 -5.5642262 37 0 0 0 93.636353
-6.7930102 -2.0770957 -2.9438863 118 0 0 0 93.636353
-10.766279 -5.93118 -4.7469959 46 0 0 0 93.636353
-17.826656 -5.6041393 -3.7261448 13 0 0 0 93.636353
-18.777874 -12.940239 -6.6869473 20 0 0 0 93.636353
-16.677378 -7.1165919 -3.8273139 43 0 0 0 93.636353
-15.337469 -10.605031 -6.4902673 35 0 0 0 93.636353
-14.732832 -8.0886221 -3.7671008 203 0 0 0 93.636353
-17.388479 -7.4482622 -1.1540904 35 0 0 0 93.636353
-11.999311 -5.1009083 -4.1181912 35 0 0 0 93.636353
-8.1382008 -2.5119455 -3.0460954 86 0 0 0 93.636353
-13.251225 -4.1484604 -3.480814 28 0 0 0 93.636353
-15.361999 -6.5446267 -4.3890967 34 0 0 0 93.636353
-12.860091 -8.928607 -6.3381095 16 0 0 0 93.636353
-9.4840317 -6.6172709 -5.3641458 32 0 0 0 93.636353
-17.498831 -7.4873724 -2.097563 17 0 0 0 93.636353
-5.7624025 -1.7440773 -2.8526199 109 0 0 0 93.636353
-14.458172 -7.9557085 -5.4612384 27 0 0 0 93.636353
-7.5971179 -3.2150867 -3.5261321 105 0 0 0 93.636353
-8.5010471 -4.6886797 -4.3065639 55 0 0 0 93.636353
-9.4061556 -3.9896953 -3.7839632 66 0 0 0 93.636353
-10.093204 -3.1386108 -3.2054291 59 0 0 0 93.636353
-9.934103 -3.0223897 -3.1476293 57 0 0 0 93.725182
-9.3679876 -6.4513388 -5.2744875 42 0 0 0 93.725182
-18.655783 -12.688018 -6.6137419 31 0 0 0 93.725182
-9.2318392 -3.8491235 -3.7027287 72 0 0 0 93.725182
-14.446085 -7.8340135 -5.4372292 26 0 0 0 93.725182
-8.4256067 -4.5799556 -4.2528477 65 0 0 0 93.725182
-16.635241 -6.9782534 -3.8065531 37 0 0 0 93.725182
-15.410091 -6.4537163 -4.3905392 33 0 0 0 93.725182
-17.621889 -9.5451002 -5.5472651 23 0 0 0 93.725182
-5.7238727 -1.694183 -2.8276014 136 0 0 0 93.725182
-11.871472 -4.9608111 -4.06248 43 0 0 0 93.725182
-13.072708 -4.0046368 -3.4260433 38 0 0 0 93.725182
-15.236489 -10.397676 -6.4187508 51 0 0 0 93.725182
-7.477901 -3.110713 -3.460542 97 0 0 0 93.725182
-8.0708055 -2.4370222 -3.0143037 95 0 0 0 93.725182
-6.6997967 -2.0037248 -2.8969967 113 0 0 0 93.725182
-10.715877 -5.8180609 -4.7078185 40 0 0 0 93.725182
-17.473501 -7.3580108 -1.1558101 45 0 0 0 93.725182
-17.507933 -7.3644199 -2.0921147 20 0 0 0 93.725182
-12.764409 -8.7466917 -6.2628284 17 0 0 0 93.725182
-14.791812 -8.0032597 -3.7686055 401 0 0 0 93.725182
-17.608797 -7.2879744 -1.1608913 25 0 0 0 93.832703
-10.490325 -5.6126595 -4.5915966 49 0 0 0 93.832703
-16.61194 -6.8489194 -3.7903087 33 0 0 0 93.832703
-14.389555 -7.6895609 -5.3966851 17 0 0 0 93.832703
-12.544236 -8.4833708 -6.1270704 22 0 0 0 93.832703
-11.654255 -4.7863011 -3.9763269 37 0 0 0 93.832703
-6.6678576 -1.9497401 -2.8772452 119 0 0 0 93.832703
-15.134343 -10.192533 -6.3474679 68 0 0 0 93.832703
-7.3984656 -3.0246234 -3.414001 85 0 0 0 93.832703
-8.3547916 -4.4753819 -4.2019544 58 0 0 0 93.832703
-17.502422 -7.2359376 -2.0849118 18 0 0 0 93.832703
-8.0217323 -2.3686402 -2.9896543 78 0 0 0 93.832703
-9.7822075 -2.9107141 -3.0924559 75 0 0 0 93.832703
-12.808446 -3.8378358 -3.3488712 28 0 0 0 93.832703
-14.852035 -7.9184127 -3.7704566 571 0 0 0 93.832703
-9.1428061 -3.7463837 -3.6565561 74 0 0 0 93.832703
-15.445144 -6.357336 -4.3883147 25 0 0 0 93.832703
-9.3154688 -6.3313942 -5.2216382 43 0 0 0 93.832703
-5.6719708 -1.641084 -2.7960603 176 0 0 0 93.832703
-18.571148 -12.464547 -6.5545654 20 0 0 0 93.832703
-8.2668552 -4.3632998 -4.1429543 56 0 0 0 93.922562
-10.440685 -5.5040393 -4.5539126 34 0 0 0 93.922562
-17.478487 -7.1006985 -2.0757003 14 0 0 0 93.922562
-9.0311337 -3.6361084 -3.60168 57 0 0 0 93.922562
-18.494841 -12.249434 -6.499249 29 0 0 0 93.922562
-15.111199 -10.042778 -6.3103876 35 0 0 0 93.922562
-14.680868 -7.720922 -4.5818024 21 0 0 0 93.922562
-9.7036457 -2.8226531 -3.0611362 60 0 0 0 93.922562
-12.477513 -3.6553171 -3.2545807 35 0 0 0 93.922562
-7.353158 -2.9536293 -3.3838012 82 0 0 0 93.922562
-14.888441 -7.820868 -3.7664485 587 0 0 0 93.922562
-11.469785 -4.6285248 -3.9021249 44 0 0 0 93.922562
-15.524378 -6.2788696 -4.3990002 20 0 0 0 93.922562
-9.2369795 -6.1956534 -5.1549029 31 0 0 0 93.922562
-12.344399 -8.2384462 -6.0027838 18 0 0 0 93.922562
-7.8655558 -2.2701209 -2.9248061 109 0 0 0 93.922562
-5.663836 -1.6011947 -2.7866747 145 0 0 0 93.922562
-16.576786 -6.7157125 -3.7716665 36 0 0 0 93.922562
-17.738331 -7.2143121 -1.1656884 27 0 0 0 93.922562
-6.6195517 -1.8916336 -2.8505478 117 0 0 0 93.922562
-17.534895 -7.112031 -3.0297105 19 0 0 0 93.922562
-12.092531 -7.9637513 -5.8542995 23 0 0 0 94.028542
-15.082855 -9.8911457 -6.2715673 51 0 0 0 94.028542
-7.8034654 -2.2004588 -2.8957562 94 0 0 0 94.028542
-8.9524174 -3.5408032 -3.5604618 70 0 0 0 94.028542
-5.5981145 -1.5456191 -2.7486475 203 0 0 0 94.028542
-6.5539207 -1.8294927 -2.8164697 151 0 0 0 94.028542
-9.2032719 -6.09163 -5.1139607 38 0 0 0 94.028542
-17.837975 -7.1274667 -1.1683985 25 0 0 0 94.028542
-16.618776 -6.6143184 -3.770895 34 0 0 0 94.028542
-17.513556 -6.9899712 -2.0736637 22 0 0 0 94.028542
-12.279013 -3.5154781 -3.1956818 38 0 0 0 94.028542
-18.335314 -5.3136206 -1.8727466 49 0 0 0 94.028542
-9.6225386 -2.7351582 -3.0292106 64 0 0 0 94.028542
-17.516935 -6.9798479 -3.0179462 9 0 0 0 94.028542
-23.809544 -15.471539 -5.3440762 1556 0 0 0 94.028542
-18.404564 -12.027898 -6.43959 25 0 0 0 94.028542
-8.1956758 -4.2617517 -4.0929213 63 0 0 0 94.028542
-7.2842135 -2.8742287 -3.342855 89 0 0 0 94.028542
-14.941545 -7.7321553 -3.7667797 569 0 0 0 94.028542
-14.723916 -7.628634 -4.5794802 14 0 0 0 94.028542
-11.312165 -4.4844518 -3.8376265 53 0 0 0 94.028542
-10.231339 -5.3138342 -4.4464808 64 0 0 0 94.028542
-5.5797601 -1.5038202 -2.7345042 159 0 0 0 94.118652
-14.988892 -7.6404133 -3.7658799 569 0 0 0 94.118652
-7.740809 -2.1316264 -2.8667457 123 0 0 0 94.118652
-15.069839 -9.7509623 -6.2398138 54 0 0 0 94.118652
-8.8702431 -3.4455605 -3.518249 71 0 0 0 94.118652
-17.452961 -6.8305197 -2.9984367 17 0 0 0 94.118652
-9.4394073 -2.6205797 -2.9650359 60 0 0 0 94.118652
-17.551611 -6.8805366 -2.0721638 25 0 0 0 94.118652
-12.001618 -7.7988348 -5.7855635 28 0 0 0 94.118652
-18.364803 -5.2001586 -1.8715676 75 0 0 0 94.118652
-4.8290524 -1.2830867 -2.6778023 32 0 0 0 94.118652
-9.0965481 -5.9411864 -5.0328641 44 0 0 0 94.118652
-17.924202 -7.0345764 -1.1703176 8 0 0 0 94.118652
-23.92914 -15.341157 -5.3480611 194 0 0 0 94.118652
-16.772173 -6.5564556 -3.7958455 11 0 0 0 94.118652
-7.1991611 -2.7897902 -3.2948077 117 0 0 0 94.118652
-14.696006 -7.500185 -4.5552349 74 0 0 0 94.118652
-11.257955 -4.3832641 -3.8090632 34 0 0 0 94.118652
-8.1227379 -4.1607971 -4.0425434 62 0 0 0 94.118652
-10.097191 -5.1658325 -4.3729019 39 0 0 0 94.118652
-6.5197811 -1.7769541 -2.7963841 146 0 0 0 94.118652
-13.569652 -6.9336729 -5.0347433 16 0 0 0 94.118652
-18.357389 -11.836996 -6.3959293 38 0 0 0 94.118652
-12.097929 -3.3834264 -3.1417704 50 0 0 0 94.118652
-15.984678 -4.4907937 -3.3019116 16 0 0 0 94.118652
-15.040045 -7.5505862 -3.7660005 499 0 0 0 94.226173
-15.067623 -9.6189709 -6.2129216 57 0 0 0 94.226173
-4.7876558 -1.2407426 -2.6497891 92 0 0 0 94.226173
-11.940005 -3.260391 -3.0942297 45 0 0 0 94.226173
-7.6612663 -2.059263 -2.8315833 108 0 0 0 94.226173
-15.943787 -4.4286227 0.82577294 27 0 0 0 94.226173
-16.019817 -4.4474583 1.6509287 20 0 0 0 94.226173
-16.829624 -6.4601655 -3.7988331 21 0 0 0 94.226173
-18.422369 -5.0944886 -1.873319 92 0 0 0 94.226173
-10.992034 -4.2022805 -3.7084577 31 0 0 0 94.226173
-9.9308281 -5.0041962 -4.2858591 57 0 0 0 94.226173
-8.0594683 -4.0662684 -3.9974482 72 0 0 0 94.226173
-17.449558 -6.7059751 -2.9895852 26 0 0 0 94.226173
-6.4460564 -1.7144738 -2.7592254 122 0 0 0 94.226173
-9.0188007 -5.8119359 -4.9686627 58 0 0 0 94.226173
-17.613108 -6.7801785 -2.073482 30 0 0 0 94.226173
-11.802316 -7.5669293 -5.6650791 27 0 0 0 94.226173
-18.254354 -11.612683 -6.3332148 25 0 0 0 94.226173
-7.1416554 -2.7173011 -3.2598453 119 0 0 0 94.226173
-5.5227695 -1.4522148 -2.7012661 187 0 0 0 94.226173
-14.718731 -7.398345 -4.5470233 69 0 0 0 94.226173
-9.3105917 -2.5233934 -2.9184666 76 0 0 0 94.226173
-8.7548695 -3.3391299 -3.4630363 96 0 0 0 94.226173
-13.293517 -6.6901498 -4.914978 34 0 0 0 94.226173
-18.471632 -4.9862404 -1.8743517 79 0 0 0 94.316292
-14.745059 -7.2986202 -4.5402551 72 0 0 0 94.316292
-8.6367598 -3.2335637 -3.4071848 75 0 0 0 94.316292
-18.205296 -11.425213 -6.2901764 40 0 0 0 94.316292
-17.49976 -6.6022873 -2.9902711 19 0 0 0 94.316292
-7.0697665 -2.6404581 -3.2185769 91 0 0 0 94.316292
-13.143253 -6.5138445 -4.8430734 28 0 0 0 94.316292
-16.90847 -6.3716822 -3.8069105 13 0 0 0 94.316292
-16.028534 -4.3439131 1.649835 31 0 0 0 94.316292
-5.4897847 -1.4076282 -2.6801989 187 0 0 0 94.316292
-4.7663388 -1.204111 -2.6332912 173 0 0 0 94.316292
-9.8738728 -4.8998384 -4.2471724 42 0 0 0 94.316292
-6.3958917 -1.6592088 -2.7325685 129 0 0 0 94.316292
-17.754894 -6.7098994 -2.0845685 9 0 0 0 94.316292
-15.956208 -4.3266153 0.82579952 26 0 0 0 94.316292
-8.8640842 -5.6357346 -4.8626318 46 0 0 0 94.316292
-10.846505 -4.0705762 -3.6495602 41 0 0 0 94.316292
-11.54893 -7.3050604 -5.5198302 20 0 0 0 94.316292
-9.2252884 -2.4396186 -2.8860409 60 0 0 0 94.316292
-15.088292 -9.5024157 -6.1960702 42 0 0 0 94.316292
-18.539915 -4.9864631 -2.8428452 9 0 0 0 94.316292
-15.046049 -7.4383626 -3.7549679 95 0 0 0 94.316292
-11.711713 -3.1209135 -3.0285802 27 0 0 0 94.316292
-7.5874853 -1.9896089 -2.7988484 102 0 0 0 94.316292
-7.9209495 -3.9357009 -3.9152195 72 0 0 0 94.316292
-16.997881 -6.2865591 -3.8174264 20 0 0 0 94.42099
-9.1170969 -2.3512604 -2.8465598 87 0 0 0 94.42099
-5.4713206 -1.3672417 -2.6664946 155 0 0 0 94.42099
-15.094227 -7.3472781 -3.7546833 39 0 0 0 94.42099
-14.785448 -7.2060475 -4.5379853 75 0 0 0 94.42099
-4.7413454 -1.1669621 -2.614871 186 0 0 0 94.42099
-18.507757 -4.8742757 -1.8740463 34 0 0 0 94.42099
-8.5695524 -3.1486537 -3.3720024 76 0 0 0 94.42099
-17.520657 -6.4876122 -2.9859409 17 0 0 0 94.42099
-18.079597 -11.19238 -6.2210522 33 0 0 0 94.42099
-12.741501 -6.2177768 -4.6785307 22 0 0 0 94.42099
-18.622906 -4.8864317 -2.8501062 59 0 0 0 94.42099
-9.841136 -4.8086619 -4.2193375 34 0 0 0 94.42099
-11.485919 -2.9853485 -2.9639094 62 0 0 0 94.42099
-7.8680439 -3.8495078 -3.8763001 60 0 0 0 94.42099
-16.041401 -4.2416663 1.649262 42 0 0 0 94.42099
-10.693524 -3.9385278 -3.5885191 55 0 0 0 94.42099
-7.5094986 -1.920019 -2.7647409 109 0 0 0 94.42099
-8.7543812 -5.4910235 -4.782402 47 0 0 0 94.42099
-7.0170264 -2.5718856 -3.1864259 94 0 0 0 94.42099
-15.016696 -9.3292456 -6.1414852 33 0 0 0 94.42099
-11.387876 -7.1059103 -5.4201913 25 0 0 0 94.42099
-6.335465 -1.602147 -2.7016394 141 0 0 0 94.42099
-15.943845 -4.2182021 0.8246665 54 0 0 0 94.42099
-9.0294867 -2.2696774 -2.8138697 77 0 0 0 94.512383
-11.256352 -6.9283881 -5.3357353 34 0 0 0 94.512383
-14.83757 -3.8212237 -0.73739731 21 0 0 0 94.512383
-14.829584 -7.1153178 -4.5371332 71 0 0 0 94.512383
-8.4320192 -3.039572 -3.3091753 77 0 0 0 94.512383
-17.574196 -6.3850646 -2.9874411 16 0 0 0 94.512383
-6.2879972 -1.5491898 -2.6765511 161 0 0 0 94.512383
-14.885571 -9.1217852 -6.0632339 31 0 0 0 94.512383
-15.905604 -4.1036358 0.82223117 71 0 0 0 94.512383
-10.541115 -3.8091402 -3.5281494 50 0 0 0 94.512383
-7.3935409 -1.8421079 -2.7166955 125 0 0 0 94.512383
-7.7946329 -3.7545869 -3.8276224 53 0 0 0 94.512383
-5.4166718 -1.3183556 -2.6350353 210 0 0 0 94.512383
-4.7032657 -1.1270688 -2.589288 205 0 0 0 94.512383
-18.009022 -10.996472 -6.1718454 27 0 0 0 94.512383
-12.570931 -6.0394073 -4.6006918 21 0 0 0 94.512383
-6.9550672 -2.5009339 -3.150342 118 0 0 0 94.512383
-16.077707 -4.1456757 1.6510576 43 0 0 0 94.512383
-17.962214 -6.537343 -2.0976675 7 0 0 0 94.512383
-9.6346369 -4.6348562 -4.1168265 66 0 0 0 94.512383
-11.291785 -2.8610053 -2.9078946 45 0 0 0 94.512383
-17.117212 -6.2115808 -3.8348801 11 0 0 0 94.512383
-8.7195148 -5.3949986 -4.7441559 43 0 0 0 94.512383
-13.922111 -5.0430317 -3.8798716 16 0 0 0 94.512383
-16.833385 -8.0662584 -4.1785855 50 0 0 0 94.512383
-14.783983 -8.9353514 -5.9978085 29 0 0 0 94.617599
-5.3791647 -1.2743737 -2.6122408 201 0 0 0 94.617599
-17.231659 -6.1337457 -3.8512332 7 0 0 0 94.617599
-7.3490815 -1.7832565 -2.6955643 141 0 0 0 94.617599
-7.7566462 -3.6779323 -3.7969043 56 0 0 0 94.617599
-8.8771582 -2.1735556 -2.7609262 79 0 0 0 94.617599
-6.8976979 -2.4326892 -3.116627 92 0 0 0 94.617599
-11.133266 -2.7482405 -2.8614511 54 0 0 0 94.617599
-9.4887123 -4.4932895 -4.0411472 49 0 0 0 94.617599
-10.413568 -3.6910214 -3.4765716 62 0 0 0 94.617599
-17.639233 -6.286417 -2.9909647 19 0 0 0 94.617599
-14.874043 -7.0247502 -4.5364904 54 0 0 0 94.617599
-45.512363 -27.197989 -7.2973294 7 0 0 0 94.617599
-8.3561659 -2.9544878 -3.2712216 91 0 0 0 94.617599
-11.027268 -6.6946507 -5.2056227 33 0 0 0 94.617599
-17.987688 -10.832557 -6.14008 32 0 0 0 94.617599
-12.414959 -5.8710914 -4.5288301 34 0 0 0 94.617599
-15.879157 -3.9928427 0.82044607 40 0 0 0 94.617599
-8.7008228 -5.3100133 -4.7151842 41 0 0 0 94.617599
-4.6785545 -1.0909036 -2.5713589 213 0 0 0 94.617599
-6.226676 -1.4936557 -2.6456425 153 0 0 0 94.617599
-16.847479 -7.9462857 -4.1687317 32 0 0 0 94.617599
-10.260662 -3.5661454 -3.4168575 73 0 0 0 94.708733
-5.3299022 -1.2282456 -2.5838332 215 0 0 0 94.708733
-17.636148 -8.1839046 -0.47054929 9 0 0 0 94.708733
-10.974727 -2.6377447 -2.8153067 57 0 0 0 94.708733
-7.6394219 -3.5652075 -3.7274194 59 0 0 0 94.708733
-7.2822156 -1.7198077 -2.666286 121 0 0 0 94.708733
-15.895603 -3.8932605 0.82076049 72 0 0 0 94.708733
-4.6766863 -1.0603291 -2.5663714 237 0 0 0 94.708733
-13.463875 -4.6910038 -3.7327633 21 0 0 0 94.708733
-8.5820169 -5.165668 -4.6321049 38 0 0 0 94.708733
-8.8058119 -2.0989161 -2.7338431 100 0 0 0 94.708733
-8.2769232 -2.8695095 -3.2322624 67 0 0 0 94.708733
-14.719576 -8.7736635 -5.9483442 27 0 0 0 94.708733
-45.601162 -26.87249 -7.2820015 6 0 0 0 94.708733
-17.396578 -8.0725126 -1.3987612 15 0 0 0 94.708733
-10.833081 -6.4863009 -5.0933352 44 0 0 0 94.708733
-17.922108 -10.643824 -6.0937529 31 0 0 0 94.708733
-12.156734 -5.6580639 -4.4200959 33 0 0 0 94.708733
-14.928418 -6.9387569 -4.5391436 59 0 0 0 94.708733
-17.729797 -6.1963286 -2.9990351 9 0 0 0 94.708733
-6.1846528 -1.4435385 -2.623286 150 0 0 0 94.708733
-16.850988 -7.8219123 -4.1565466 32 0 0 0 94.708733
-6.8562264 -2.3709254 -3.0904894 104 0 0 0 94.708733
-9.3844843 -4.3737345 -3.984036 60 0 0 0 94.708733
-8.1579399 -2.7723675 -3.1778703 82 0 0 0 94.815231
-15.874511 -3.784786 0.81928563 60 0 0 0 94.815231
-14.99282 -6.8571916 -4.5449476 66 0 0 0 94.815231
-17.425941 -7.9564323 -1.396072 44 0 0 0 94.815231
-11.834259 -5.420011 -4.2886014 28 0 0 0 94.815231
-10.77158 -6.3601575 -5.0447197 41 0 0 0 94.815231
-5.2978635 -1.186739 -2.5640881 178 0 0 0 94.815231
-6.1233735 -1.389712 -2.5927842 179 0 0 0 94.815231
-7.2304268 -1.6608477 -2.6427901 140 0 0 0 94.815231
-14.718053 -8.6509094 -5.9248896 29 0 0 0 94.815231
-16.035643 -3.8198531 0.019526031 52 0 0 0 94.815231
-45.700569 -26.554398 -7.2684841 7 0 0 0 94.815231
-13.241 -4.5224686 -3.6616664 18 0 0 0 94.815231
-10.209437 -3.4783435 -3.3917305 73 0 0 0 94.815231
-17.900438 -10.482992 -6.0628748 27 0 0 0 94.815231
-7.5708833 -3.4769278 -3.6824291 64 0 0 0 94.815231
-9.3248987 -4.2766223 -3.946481 69 0 0 0 94.815231
-17.847944 -6.1149702 -3.0118334 10 0 0 0 94.815231
-17.580631 -8.0272455 -0.46646851 29 0 0 0 94.815231
-8.6025877 -1.99474 -2.6653905 107 0 0 0 94.815231
-4.6317549 -1.0203538 -2.5374446 257 0 0 0 94.815231
-8.4820356 -5.0350251 -4.5599985 51 0 0 0 94.815231
-10.782221 -2.5215709 -2.7605636 68 0 0 0 94.815231
-16.855389 -7.6986227 -4.1447339 40 0 0 0 94.815231
-6.7490659 -2.2876706 -3.034574 115 0 0 0 94.815231
-6.0715637 -1.3388653 -2.5665705 179 0 0 0 94.906883
-16.025686 -3.7135749 0.0202423 88 0 0 0 94.906883
-7.1378131 -1.5935369 -2.6043372 139 0 0 0 94.906883
-7.5065303 -3.3918529 -3.639941 52 0 0 0 94.906883
-13.007389 -4.3537602 -3.5880935 24 0 0 0 94.906883
-17.383875 -5.8297477 -3.8579912 23 0 0 0 94.906883
-17.816578 -8.0030613 -0.47083563 6 0 0 0 94.906883
-8.5354958 -1.9240884 -2.6400983 87 0 0 0 94.906883
-6.7038517 -2.2266421 -3.0072682 94 0 0 0 94.906883
-14.68125 -8.5085993 -5.8876772 26 0 0 0 94.906883
-8.4433327 -4.9423604 -4.5218148 56 0 0 0 94.906883
-10.618002 -2.4145224 -2.7134833 69 0 0 0 94.906883
-5.2567058 -1.1437317 -2.54003 186 0 0 0 94.906883
-18.62299 -4.2803054 -2.8241103 40 0 0 0 94.906883
-17.845045 -10.304094 -6.0211134 19 0 0 0 94.906883
-10.660084 -6.2065692 -4.9731984 48 0 0 0 94.906883
-17.439062 -7.8333621 -1.3922111 30 0 0 0 94.906883
-4.596806 -0.98316413 -2.5142806 263 0 0 0 94.906883
-16.792164 -7.5455794 -4.1164913 34 0 0 0 94.906883
-17.934866 -6.0220194 -3.0194328 10 0 0 0 94.906883
-9.2109423 -4.1562424 -3.8861437 66 0 0 0 94.906883
-8.0354023 -2.6758854 -3.1224766 72 0 0 0 94.906883
-9.959589 -3.3251815 -3.3001919 59 0 0 0 94.906883
-15.863386 -3.6792312 0.81828034 56 0 0 0 94.906883
-15.057647 -6.7754722 -4.5510983 52 0 0 0 94.906883
-11.735103 -5.2878118 -4.2396364 36 0 0 0 94.906883
-7.9876781 -2.6057296 -3.0968473 94 0 0 0 95.012863
-15.997478 -3.6035833 0.021003487 78 0 0 0 95.012863
-15.802854 -3.562933 0.81489795 80 0 0 0 95.012863
-16.748226 -7.4026861 -4.0932627 39 0 0 0 95.012863
-11.645186 -5.1616683 -4.1944299 49 0 0 0 95.012863
-4.5770488 -0.94968176 -2.4997253 233 0 0 0 95.012863
-10.5206 -6.0394087 -4.8892064 45 0 0 0 95.012863
-18.041016 -5.9347157 -3.030328 5 0 0 0 95.012863
-9.8576765 -3.2241223 -3.2587194 55 0 0 0 95.012863
-8.3308153 -4.8082986 -4.4442515 53 0 0 0 95.012863
-8.4333124 -1.8467643 -2.6039469 97 0 0 0 95.012863
-12.782321 -4.1914177 -3.517324 34 0 0 0 95.012863
-6.0292778 -1.29085 -2.5446119 178 0 0 0 95.012863
-5.2205114 -1.1024103 -2.5185668 223 0 0 0 95.012863
-13.453266 -2.9889631 -2.7278309 25 0 0 0 95.012863
-9.0916071 -4.0355525 -3.8239729 70 0 0 0 95.012863
-17.592848 -9.9788094 -4.8306684 23 0 0 0 95.012863
-5.8295631 -1.8893576 -2.9755127 8 0 0 0 95.012863
-14.53424 -8.3048401 -5.8065157 17 0 0 0 95.012863
-17.401167 -7.6882596 -1.3841853 29 0 0 0 95.012863
-7.0915051 -1.5376244 -2.5832489 119 0 0 0 95.012863
-10.462346 -2.3116887 -2.6688514 56 0 0 0 95.012863
-17.856514 -10.165205 -6.0024252 16 0 0 0 95.012863
-15.11147 -6.6885586 -4.5539718 34 0 0 0 95.012863
-6.6729836 -2.171102 -2.9866939 101 0 0 0 95.012863
-7.4480958 -3.3106842 -3.6007006 63 0 0 0 95.012863
-15.844911 -3.4702218 0.81655961 57 0 0 0 95.104515
-7.9126229 -2.5276878 -3.06075 88 0 0 0 95.104515
-17.443499 -9.7531757 -4.7715364 54 0 0 0 95.104515
-5.9478164 -1.2353013 -2.5060217 213 0 0 0 95.104515
-6.6075711 -2.1051333 -2.95068 112 0 0 0 95.104515
-10.280234 -2.2053459 -2.6176445 59 0 0 0 95.104515
-4.551024 -0.915245 -2.4818368 242 0 0 0 95.104515
-13.353585 -2.880935 -2.7030511 17 0 0 0 95.104515
-9.0181084 -3.9369617 -3.7818024 47 0 0 0 95.104515
-17.414274 -7.5665774 -1.3805053 34 0 0 0 95.104515
-5.6308689 -1.7868892 -2.8664327 38 0 0 0 95.104515
-10.424606 -5.8996944 -4.8264027 40 0 0 0 95.104515
-8.3323679 -1.7711523 -2.5684185 95 0 0 0 95.104515
-5.2113695 -1.0671859 -2.5105562 242 0 0 0 95.104515
-8.2847052 -4.7142811 -4.4031386 67 0 0 0 95.104515
-4.0300155 -0.79411703 -2.469317 43 0 0 0 95.104515
-15.160362 -6.599297 -4.5555811 40 0 0 0 95.104515
-15.971451 -3.4947414 0.021705542 74 0 0 0 95.104515
-7.3697 -3.2219312 -3.5521142 76 0 0 0 95.104515
-16.703156 -7.2606025 -4.0701299 52 0 0 0 95.104515
-12.510644 -4.0174994 -3.4340968 33 0 0 0 95.104515
-6.9950962 -1.4718438 -2.5437992 124 0 0 0 95.104515
-11.426285 -4.981082 -4.1028876 37 0 0 0 95.104515
-17.300474 -9.7088108 -5.7927785 24 0 0 0 95.104515
-9.6714106 -3.0976727 -3.1893871 69 0 0 0 95.104515
-16.797459 -9.2916803 -5.6025901 18 0 0 0 95.211266
-10.165548 -2.1155825 -2.5840936 67 0 0 0 95.211266
-17.496481 -7.4747953 -2.3270016 27 0 0 0 95.211266
-5.1507277 -1.0219182 -2.4774075 171 0 0 0 95.211266
-15.942739 -3.3859184 0.022436526 74 0 0 0 95.211266
-15.141418 -6.4809046 -4.536767 27 0 0 0 95.211266
-4.5118241 -0.87864959 -2.4567661 237 0 0 0 95.211266
-14.617292 -8.0564442 -3.9769409 124 0 0 0 95.211266
-16.016365 -3.4047532 0.82466221 40 0 0 0 95.211266
-5.6152778 -1.7441823 -2.8524442 49 0 0 0 95.211266
-8.24018 -1.6987952 -2.5358155 119 0 0 0 95.211266
-8.1824255 -4.5900326 -4.3323841 56 0 0 0 95.211266
-8.8932142 -3.8177631 -3.7182221 53 0 0 0 95.211266
-5.9056659 -1.1888466 -2.4844685 185 0 0 0 95.211266
-12.234556 -3.8462172 -3.3500943 52 0 0 0 95.211266
