# .PCD v0.7 - Point Cloud Data file format
VERSION 0.7
FIELDS x y z intensity normal_x normal_y normal_z curvature
SIZE 4 4 4 4 4 4 4 4
TYPE F F F F F F F F
COUNT 1 1 1 1 1 1 1 1
WIDTH 1137
HEIGHT 1
VIEWPOINT 0 0 0 1 0 0 0
POINTS 1137
DATA ascii
1.705 1.488 1.748 36 0 0 0 41.271145
2.6170001 1.1569999 1.9170001 36 0 0 0 41.271755
1.837 1.6059999 1.767 31 0 0 0 41.276089
1.937 0.99299997 1.806 41 0 0 0 41.276703
1.9809999 1.749 1.794 33 0 0 0 41.281036
2.1270001 1.049 1.8279999 40 0 0 0 41.281651
1.544 1.408 1.727 38 0 0 0 41.285984
2.3510001 1.126 1.875 36 0 0 0 41.286598
1.6670001 1.52 1.742 41 0 0 0 41.290928
2.582 1.215 1.914 37 0 0 0 41.291546
1.789 1.637 1.757 31 0 0 0 41.295876
1.903 1.025 1.794 37 0 0 0 41.296494
1.928 1.785 1.786 33 0 0 0 41.300823
2.0940001 1.09 1.821 38 0 0 0 41.301441
1.5089999 1.434 1.72 36 0 0 0 41.305771
2.3139999 1.173 1.868 35 0 0 0 41.306385
1.628 1.55 1.7359999 39 0 0 0 41.310719
2.5369999 1.267 1.903 37 0 0 0 41.311333
1.74 1.666 1.747 31 0 0 0 41.315662
1.8710001 1.816 1.775 33 0 0 0 41.320614
1.473 1.459 1.711 36 0 0 0 41.325562
1.586 1.577 1.727 36 0 0 0 41.330505
1.696 1.7 1.742 31 0 0 0 41.335453
1.8099999 1.842 1.761 33 0 0 0 41.340401
1.4349999 1.4809999 1.702 37 0 0 0 41.345348
1.543 1.602 1.7180001 40 0 0 0 41.350296
1.645 1.725 1.73 32 0 0 0 41.35524
1.751 1.869 1.749 32 0 0 0 41.360188
1.4 1.505 1.694 38 0 0 0 41.365135
1.499 1.626 1.7079999 44 0 0 0 41.370079
1.597 1.753 1.723 35 0 0 0 41.375027
1.691 1.893 1.7359999 32 0 0 0 41.379974
1.363 1.528 1.686 40 0 0 0 41.384926
1.452 1.6440001 1.693 43 0 0 0 41.389874
1.551 1.7819999 1.717 33 0 0 0 41.394817
1.633 1.918 1.725 31 0 0 0 41.399765
1.329 1.552 1.6799999 41 0 0 0 41.404713
1.414 1.673 1.691 46 0 0 0 41.409657
1.501 1.8049999 1.707 38 0 0 0 41.414604
1.066 1.6849999 1.626 44 0 0 0 41.419445
1.572 1.936 1.711 32 0 0 0 41.419552
1.104 1.802 1.628 38 0 0 0 41.424393
1.291 1.572 1.671 43 0 0 0 41.4245
1.135 1.9170001 1.628 37 0 0 0 41.429337
1.3710001 1.6950001 1.682 39 0 0 0 41.429447
1.1619999 2.049 1.635 34 0 0 0 41.434284
1.446 1.822 1.692 41 0 0 0 41.434391
1.031 1.706 1.623 43 0 0 0 41.439232
1.516 1.961 1.7029999 32 0 0 0 41.439339
1.057 1.813 1.6160001 39 0 0 0 41.444176
1.255 1.594 1.665 44 0 0 0 41.444286
1.087 1.936 1.623 40 0 0 0 41.449123
1.325 1.714 1.671 38 0 0 0 41.44923
1.102 2.056 1.622 37 0 0 0 41.454071
1.393 1.84 1.681 33 0 0 0 41.454182
0.99000001 1.719 1.612 46 0 0 0 41.459019
1.454 1.977 1.689 36 0 0 0 41.459129
1.015 1.83 1.6109999 41 0 0 0 41.463966
1.2180001 1.615 1.658 44 0 0 0 41.464077
1.033 1.941 1.608 34 0 0 0 41.46891
1.281 1.733 1.663 41 0 0 0 41.469025
1.041 2.0580001 1.607 33 0 0 0 41.473862
1.346 1.863 1.675 33 0 0 0 41.473969
0.95200002 1.734 1.605 44 0 0 0 41.478809
1.396 1.995 1.678 40 0 0 0 41.478916
0.96799999 1.84 1.6 44 0 0 0 41.483753
1.1799999 1.632 1.648 43 0 0 0 41.483864
0.98299998 1.952 1.6 34 0 0 0 41.488701
1.2359999 1.75 1.652 39 0 0 0 41.488808
0.98699999 2.072 1.602 37 0 0 0 41.493649
1.293 1.8789999 1.663 34 0 0 0 41.493755
0.91500002 1.751 1.601 42 0 0 0 41.498596
1.341 2.016 1.6720001 33 0 0 0 41.498703
0.92500001 1.854 1.5930001 44 0 0 0 41.503544
1.143 1.652 1.642 42 0 0 0 41.503651
0.93300003 1.962 1.592 40 0 0 0 41.508488
1.191 1.767 1.642 37 0 0 0 41.508598
0.92699999 2.0710001 1.587 43 0 0 0 41.513435
1.239 1.891 1.65 36 0 0 0 41.513542
0.87400001 1.761 1.59 42 0 0 0 41.518383
1.279 2.026 1.6569999 32 0 0 0 41.518494
0.88200003 1.869 1.589 42 0 0 0 41.523327
1.1059999 1.671 1.635 42 0 0 0 41.523441
0.88300002 1.974 1.585 40 0 0 0 41.528275
1.148 1.786 1.636 39 0 0 0 41.528385
0.87199998 2.0769999 1.579 42 0 0 0 41.533222
1.184 1.9 1.6339999 36 0 0 0 41.533333
0.83600003 1.775 1.585 55 0 0 0 41.538174
1.221 2.0380001 1.646 31 0 0 0 41.53828
0.83600003 1.875 1.5779999 39 0 0 0 41.543121
0.83200002 1.977 1.574 38 0 0 0 41.548065
0.81599998 2.0810001 1.5700001 46 0 0 0 41.553013
0.79500002 1.785 1.575 46 0 0 0 41.557961
0.79100001 1.885 1.571 46 0 0 0 41.562904
0.78100002 1.983 1.5650001 55 0 0 0 41.567852
0.75999999 2.082 1.5599999 36 0 0 0 41.5728
0.75599998 1.796 1.568 43 0 0 0 41.577747
0.74699998 1.8940001 1.564 42 0 0 0 41.582695
0.73100001 1.987 1.556 42 0 0 0 41.587639
0.70300001 2.0780001 1.548 37 0 0 0 41.592587
0.71700001 1.808 1.562 44 0 0 0 41.597534
0.70099998 1.9 1.554 40 0 0 0 41.602482
0.68099999 1.99 1.5470001 41 0 0 0 41.60743
0.648 2.0769999 1.538 37 0 0 0 41.612377
0.114 1.839 1.4349999 43 0 0 0 41.616623
0.676 1.814 1.552 42 0 0 0 41.617325
0.046 1.865 1.42 43 0 0 0 41.621567
0.65499997 1.901 1.5420001 38 0 0 0 41.622272
-0.02 1.885 1.404 38 0 0 0 41.626514
0.63300002 1.995 1.54 47 0 0 0 41.627216
-0.096000001 1.896 1.391 38 0 0 0 41.631462
0.59299999 2.069 1.525 37 0 0 0 41.632164
0.074000001 1.8380001 1.4299999 44 0 0 0 41.63641
0.63599998 1.822 1.544 42 0 0 0 41.637112
0.0049999999 1.857 1.4119999 38 0 0 0 41.641357
0.61000001 1.905 1.533 41 0 0 0 41.642056
-0.063000001 1.873 1.398 41 0 0 0 41.646305
0.58099997 1.9859999 1.524 50 0 0 0 41.647003
-0.14 1.8789999 1.3839999 39 0 0 0 41.651253
0.53899997 2.066 1.516 40 0 0 0 41.651951
0.035 1.829 1.419 44 0 0 0 41.6562
0.59500003 1.8279999 1.535 46 0 0 0 41.656898
-0.035 1.848 1.405 39 0 0 0 41.661144
0.565 1.9069999 1.524 42 0 0 0 41.661846
-0.105 1.858 1.3890001 41 0 0 0 41.666092
0.53200001 1.987 1.517 41 0 0 0 41.666794
-0.182 1.854 1.372 41 0 0 0 41.67104
0.486 2.0599999 1.506 41 0 0 0 41.671741
-0.0040000002 1.821 1.409 44 0 0 0 41.675983
0.55599999 1.837 1.53 47 0 0 0 41.676689
-0.075000003 1.83 1.391 41 0 0 0 41.680931
0.51999998 1.908 1.515 40 0 0 0 41.681633
-0.146 1.834 1.375 39 0 0 0 41.685879
0.48300001 1.982 1.505 43 0 0 0 41.686581
-0.22499999 1.8380001 1.368 43 0 0 0 41.690826
0.433 2.0539999 1.497 44 0 0 0 41.691528
-0.043000001 1.814 1.401 44 0 0 0 41.695778
0.51499999 1.839 1.5190001 49 0 0 0 41.696476
-0.115 1.8200001 1.3839999 42 0 0 0 41.700722
0.477 1.913 1.5089999 45 0 0 0 41.701424
-0.18700001 1.822 1.37 40 0 0 0 41.705669
0.435 1.98 1.497 44 0 0 0 41.706367
-0.26499999 1.817 1.36 41 0 0 0 41.710617
0.38100001 2.043 1.4859999 43 0 0 0 41.711315
-0.081 1.804 1.392 44 0 0 0 41.715561
0.47499999 1.844 1.513 49 0 0 0 41.716263
-0.154 1.809 1.378 41 0 0 0 41.720509
0.43399999 1.9170001 1.5039999 47 0 0 0 41.721207
-0.226 1.803 1.3609999 42 0 0 0 41.725456
0.38600001 1.974 1.487 39 0 0 0 41.726154
-0.30500001 1.795 1.352 41 0 0 0 41.730404
0.33000001 2.0369999 1.478 39 0 0 0 41.731106
-0.119 1.798 1.385 48 0 0 0 41.735352
0.435 1.85 1.506 51 0 0 0 41.736053
-0.193 1.7970001 1.37 46 0 0 0 41.740295
0.38800001 1.909 1.49 47 0 0 0 41.741001
-0.266 1.7920001 1.358 42 0 0 0 41.745243
0.33899999 1.97 1.479 42 0 0 0 41.745945
-0.34400001 1.775 1.346 42 0 0 0 41.750191
0.27900001 2.0239999 1.467 41 0 0 0 41.750893
-0.15800001 1.791 1.3789999 43 0 0 0 41.755135
0.391 1.836 1.484 38 0 0 0 41.75584
-0.23199999 1.784 1.363 44 0 0 0 41.760082
0.345 1.91 1.483 53 0 0 0 41.760784
-0.30599999 1.78 1.355 40 0 0 0 41.765034
0.294 1.97 1.475 43 0 0 0 41.765732
-0.38299999 1.755 1.341 42 0 0 0 41.769981
0.23 2.0139999 1.459 45 0 0 0 41.770679
-0.19599999 1.781 1.3710001 43 0 0 0 41.774929
0.352 1.8430001 1.4809999 38 0 0 0 41.775627
-0.271 1.774 1.359 43 0 0 0 41.779873
0.30199999 1.9119999 1.478 43 0 0 0 41.780575
-0.34400001 1.76 1.347 45 0 0 0 41.784821
0.245 1.949 1.456 34 0 0 0 41.785519
-0.421 1.73 1.3329999 43 0 0 0 41.789768
0.18099999 2.0050001 1.4529999 42 0 0 0 41.790466
-0.234 1.775 1.367 46 0 0 0 41.794712
0.31299999 1.848 1.476 39 0 0 0 41.795418
-0.30899999 1.762 1.354 42 0 0 0 41.79966
0.25799999 1.905 1.467 45 0 0 0 41.800362
-0.382 1.7410001 1.34 47 0 0 0 41.804607
0.2 1.946 1.45 38 0 0 0 41.805309
-0.458 1.71 1.329 39 0 0 0 41.809555
0.132 1.9910001 1.443 40 0 0 0 41.810257
-0.27200001 1.763 1.36 44 0 0 0 41.814503
0.273 1.847 1.467 45 0 0 0 41.815205
-0.34599999 1.743 1.345 42 0 0 0 41.819447
0.21600001 1.906 1.4630001 45 0 0 0 41.820152
-0.41800001 1.719 1.332 42 0 0 0 41.824394
0.154 1.937 1.443 36 0 0 0 41.825096
-0.493 1.681 1.319 42 0 0 0 41.829346
0.083999999 1.974 1.433 41 0 0 0 41.830044
-0.30899999 1.751 1.352 43 0 0 0 41.83429
0.233 1.851 1.4630001 49 0 0 0 41.834991
-0.384 1.732 1.342 45 0 0 0 41.839237
0.17200001 1.888 1.4450001 36 0 0 0 41.839935
-0.45500001 1.7 1.326 42 0 0 0 41.844185
0.109 1.921 1.4299999 36 0 0 0 41.844883
-0.528 1.655 1.312 44 0 0 0 41.849133
0.037 1.943 1.413 34 0 0 0 41.849831
-0.347 1.742 1.348 43 0 0 0 41.85408
0.193 1.847 1.4529999 54 0 0 0 41.854778
-0.41999999 1.712 1.332 46 0 0 0 41.859024
0.12899999 1.877 1.433 39 0 0 0 41.85973
-0.48899999 1.673 1.3150001 44 0 0 0 41.863972
0.064999998 1.9119999 1.423 40 0 0 0 41.864674
-0.56300002 1.6339999 1.309 43 0 0 0 41.868919
-0.0080000004 1.927 1.405 38 0 0 0 41.869621
-0.38299999 1.728 1.34 45 0 0 0 41.873863
0.153 1.8430001 1.444 45 0 0 0 41.874569
-0.45500001 1.692 1.324 40 0 0 0 41.878811
0.088 1.872 1.427 38 0 0 0 41.879513
-0.52399999 1.655 1.311 47 0 0 0 41.883759
0.022 1.899 1.413 41 0 0 0 41.88446
-0.59399998 1.603 1.298 47 0 0 0 41.888706
-0.052000001 1.911 1.397 38 0 0 0 41.889408
-0.419 1.712 1.331 44 0 0 0 41.893658
-0.49000001 1.675 1.318 44 0 0 0 41.898602
-0.55900002 1.6339999 1.306 50 0 0 0 41.903549
-0.62599999 1.576 1.291 45 0 0 0 41.908497
-0.45500001 1.697 1.324 47 0 0 0 41.913441
-0.52499998 1.6569999 1.311 42 0 0 0 41.918388
-0.59100002 1.609 1.298 48 0 0 0 41.923336
-0.65899998 1.552 1.2869999 47 0 0 0 41.928284
-0.49000001 1.681 1.317 47 0 0 0 41.933231
-0.55800003 1.632 1.301 49 0 0 0 41.938175
-0.625 1.589 1.294 51 0 0 0 41.943123
-0.69300002 1.5319999 1.2869999 52 0 0 0 41.948071
-0.52499998 1.664 1.309 48 0 0 0 41.953014
-0.59200001 1.613 1.295 44 0 0 0 41.957966
-0.65700001 1.5650001 1.2869999 50 0 0 0 41.962914
-0.72299999 1.503 1.281 58 0 0 0 41.967861
-0.56099999 1.649 1.304 47 0 0 0 41.972809
-0.62800002 1.598 1.294 44 0 0 0 41.977753
-0.69 1.544 1.284 50 0 0 0 41.9827
-0.75199997 1.477 1.277 46 0 0 0 41.987648
-0.59500003 1.631 1.2970001 47 0 0 0 41.992592
-0.65799999 1.572 1.283 48 0 0 0 41.99754
-0.72000003 1.517 1.277 64 0 0 0 42.002487
-0.78100002 1.449 1.271 44 0 0 0 42.007435
-0.62900001 1.612 1.29 51 0 0 0 42.012383
-0.69199997 1.5549999 1.281 51 0 0 0 42.017326
-0.75099999 1.493 1.272 63 0 0 0 42.022278
-0.80299997 1.411 1.257 55 0 0 0 42.027225
-0.66299999 1.595 1.285 52 0 0 0 42.032169
-0.72399998 1.5319999 1.275 47 0 0 0 42.037117
-0.78200001 1.471 1.2690001 52 0 0 0 42.042065
-0.83200002 1.386 1.256 52 0 0 0 42.047012
-0.69700003 1.577 1.28 52 0 0 0 42.05196
-0.75599998 1.511 1.271 55 0 0 0 42.056904
-0.81 1.443 1.263 48 0 0 0 42.061852
-0.86299998 1.364 1.258 55 0 0 0 42.066799
-0.72799999 1.553 1.271 50 0 0 0 42.071743
-0.78799999 1.4910001 1.268 68 0 0 0 42.076691
-0.83399999 1.41 1.252 56 0 0 0 42.081638
-0.88599998 1.3329999 1.251 46 0 0 0 42.08659
-0.76200002 1.535 1.267 50 0 0 0 42.772865
-0.81800002 1.4680001 1.263 57 0 0 0 42.777813
-0.86299998 1.385 1.249 48 0 0 0 42.782761
-0.912 1.3049999 1.248 51 0 0 0 42.787704
-0.79400003 1.5140001 1.261 51 0 0 0 42.792652
-0.847 1.442 1.257 47 0 0 0 42.7976
-0.89300001 1.363 1.249 51 0 0 0 42.802547
-0.935 1.275 1.243 51 0 0 0 42.807495
-0.82599998 1.493 1.257 52 0 0 0 42.812439
-0.87400001 1.414 1.249 43 0 0 0 42.817387
-0.921 1.339 1.247 48 0 0 0 42.822334
-0.958 1.245 1.239 46 0 0 0 42.827278
-0.85900003 1.474 1.2539999 58 0 0 0 42.83223
-0.903 1.3890001 1.244 47 0 0 0 42.837177
-0.94400001 1.307 1.238 49 0 0 0 42.842125
-0.98000002 1.214 1.234 54 0 0 0 42.847073
-0.889 1.45 1.248 65 0 0 0 42.852016
-0.93099999 1.365 1.24 47 0 0 0 42.856964
-0.96799999 1.279 1.233 51 0 0 0 42.861912
-1.001 1.184 1.23 54 0 0 0 42.866856
-0.91900003 1.426 1.242 53 0 0 0 42.871803
-0.954 1.3329999 1.2309999 54 0 0 0 42.876751
-0.99199998 1.251 1.229 52 0 0 0 42.881699
-1.021 1.153 1.225 52 0 0 0 42.886646
-0.94999999 1.403 1.239 52 0 0 0 42.89159
-0.98299998 1.3099999 1.229 55 0 0 0 42.896542
-1.016 1.222 1.226 50 0 0 0 42.901489
-1.043 1.125 1.224 51 0 0 0 42.906433
-0.97799999 1.377 1.233 46 0 0 0 42.911381
-1.0089999 1.284 1.225 49 0 0 0 42.916328
-1.039 1.194 1.222 55 0 0 0 42.921276
-1.061 1.0930001 1.2180001 52 0 0 0 42.926224
-1.002 1.346 1.222 49 0 0 0 42.931168
-1.034 1.255 1.22 51 0 0 0 42.936115
-1.062 1.166 1.219 51 0 0 0 42.941063
-1.08 1.063 1.216 52 0 0 0 42.946007
-1.031 1.322 1.2180001 54 0 0 0 42.950954
-1.058 1.227 1.215 52 0 0 0 42.955902
-1.081 1.1339999 1.2130001 50 0 0 0 42.960854
-1.098 1.0319999 1.212 50 0 0 0 42.965801
-1.053 1.288 1.207 56 0 0 0 42.970745
-1.084 1.202 1.214 48 0 0 0 42.975693
-1.103 1.1059999 1.211 54 0 0 0 42.98064
-1.1160001 1.002 1.21 49 0 0 0 42.985584
-1.081 1.263 1.205 57 0 0 0 42.990532
-1.104 1.169 1.205 50 0 0 0 42.99548
-1.123 1.076 1.207 51 0 0 0 43.000427
-1.131 0.97100002 1.206 48 0 0 0 43.005375
-1.11 1.239 1.2029999 57 0 0 0 43.010319
-1.128 1.141 1.2029999 54 0 0 0 43.015266
-1.141 1.045 1.2029999 48 0 0 0 43.020218
-1.148 0.94099998 1.205 42 0 0 0 43.025162
-1.136 1.211 1.199 55 0 0 0 43.030109
-1.151 1.113 1.2 47 0 0 0 43.035057
-1.1569999 1.012 1.197 51 0 0 0 43.040005
-1.164 0.91000003 1.2029999 47 0 0 0 43.044952
-1.1619999 1.184 1.196 55 0 0 0 43.049896
-1.174 1.085 1.198 48 0 0 0 43.054844
-1.178 0.98400003 1.196 47 0 0 0 43.059792
-1.177 0.87900001 1.199 45 0 0 0 43.064735
-1.1849999 1.154 1.191 56 0 0 0 43.069683
-1.377 0.87300003 1.161 38 0 0 0 43.070095
-1.191 1.051 1.191 47 0 0 0 43.074631
-1.3559999 0.773 1.171 33 0 0 0 43.075039
-1.197 0.95499998 1.1950001 46 0 0 0 43.079578
-1.3279999 0.67400002 1.177 33 0 0 0 43.079987
-1.487 -0.048999999 1.133 1 0 0 0 43.0812
-1.1900001 0.847 1.1950001 40 0 0 0 43.08453
-1.294 0.57300001 1.187 37 0 0 0 43.084934
-1.423 -0.098999999 1.169 56 0 0 0 43.086143
-1.21 1.125 1.188 52 0 0 0 43.089474
-1.3940001 0.83899999 1.158 35 0 0 0 43.089886
-1.332 -0.146 1.187 55 0 0 0 43.091091
-1.214 1.024 1.1900001 44 0 0 0 43.094421
-1.368 0.73900002 1.1670001 31 0 0 0 43.094833
-1.214 0.92400002 1.192 43 0 0 0 43.099369
-1.335 0.64099997 1.173 34 0 0 0 43.099777
-1.506 -0.083999999 1.151 8 0 0 0 43.100986
-1.205 0.81699997 1.1950001 36 0 0 0 43.104313
-1.304 0.54299998 1.188 35 0 0 0 43.104725
-1.4220001 -0.131 1.1720001 56 0 0 0 43.105934
-1.232 1.094 1.183 49 0 0 0 43.109261
-1.41 0.80500001 1.154 35 0 0 0 43.109673
-1.3279999 -0.17399999 1.189 56 0 0 0 43.110882
-1.237 0.99599999 1.1900001 46 0 0 0 43.114208
-1.3789999 0.70499998 1.163 31 0 0 0 43.114616
-1.228 0.89200002 1.188 38 0 0 0 43.119156
-1.35 0.61000001 1.174 36 0 0 0 43.119564
-1.499 -0.119 1.148 41 0 0 0 43.120777
-1.217 0.78600001 1.193 33 0 0 0 43.124104
-1.3099999 0.51099998 1.186 34 0 0 0 43.124512
-1.419 -0.163 1.173 58 0 0 0 43.125721
-1.257 1.066 1.182 48 0 0 0 43.129047
-1.429 0.77200001 1.153 35 0 0 0 43.129459
-1.321 -0.20200001 1.188 51 0 0 0 43.130669
-1.253 0.96200001 1.184 45 0 0 0 43.133995
-1.3940001 0.67299998 1.1619999 33 0 0 0 43.134407
-1.584 -0.11 1.126 7 0 0 0 43.135616
-1.244 0.861 1.186 37 0 0 0 43.138943
-1.355 0.57599998 1.169 35 0 0 0 43.139351
-1.502 -0.154 1.155 61 0 0 0 43.140564
-1.228 0.755 1.1900001 34 0 0 0 43.143887
-1.312 0.47799999 1.1799999 39 0 0 0 43.144299
-1.413 -0.19400001 1.174 55 0 0 0 43.145512
-1.277 1.034 1.177 46 0 0 0 43.148834
-1.442 0.736 1.149 30 0 0 0 43.149246
-1.3150001 -0.23100001 1.1900001 53 0 0 0 43.150455
-1.27 0.93099999 1.1799999 38 0 0 0 43.153786
-1.408 0.63999999 1.1619999 34 0 0 0 43.154194
-1.582 -0.148 1.128 25 0 0 0 43.155403
-1.257 0.829 1.182 37 0 0 0 43.158733
-1.367 0.54500002 1.17 35 0 0 0 43.159142
-1.5 -0.189 1.1569999 55 0 0 0 43.160351
-1.243 0.72600001 1.192 33 0 0 0 43.163681
-1.3200001 0.449 1.182 39 0 0 0 43.164089
-1.4069999 -0.226 1.175 55 0 0 0 43.165295
-1.301 1.005 1.176 45 0 0 0 43.168625
-1.456 0.70200002 1.146 32 0 0 0 43.169037
-1.309 -0.25799999 1.191 53 0 0 0 43.170242
-1.29 0.89999998 1.179 40 0 0 0 43.173573
-1.4170001 0.60600001 1.158 35 0 0 0 43.173985
-1.59 -0.18700001 1.138 56 0 0 0 43.175194
-1.274 0.79900002 1.182 34 0 0 0 43.17852
-1.377 0.51300001 1.17 38 0 0 0 43.178928
-1.499 -0.22400001 1.161 59 0 0 0 43.180141
-1.255 0.69599998 1.191 31 0 0 0 43.183464
-1.329 0.419 1.184 41 0 0 0 43.183876
-1.402 -0.257 1.177 57 0 0 0 43.185089
-1.321 0.972 1.1720001 41 0 0 0 43.188412
-1.472 0.66799998 1.145 31 0 0 0 43.188824
-1.302 -0.28600001 1.192 53 0 0 0 43.190033
-1.307 0.86900002 1.177 39 0 0 0 43.193359
-1.425 0.57099998 1.154 26 0 0 0 43.193768
-1.592 -0.226 1.1440001 74 0 0 0 43.194981
-1.284 0.76599997 1.177 35 0 0 0 43.198307
-1.383 0.48100001 1.168 36 0 0 0 43.198715
-1.492 -0.259 1.1619999 61 0 0 0 43.199928
-1.2690001 0.66600001 1.192 35 0 0 0 43.203255
-1.33 0.38699999 1.1799999 39 0 0 0 43.203663
-1.3940001 -0.28799999 1.177 58 0 0 0 43.204872
-1.3380001 0.93800002 1.166 42 0 0 0 43.208199
-1.4809999 0.63 1.1390001 32 0 0 0 43.208611
-1.299 -0.315 1.197 58 0 0 0 43.20982
-1.327 0.83999997 1.178 36 0 0 0 43.213146
-1.434 0.537 1.152 26 0 0 0 43.213558
-1.586 -0.264 1.1440001 70 0 0 0 43.214767
-1.302 0.73699999 1.179 37 0 0 0 43.218098
-1.392 0.449 1.168 41 0 0 0 43.218506
-1.485 -0.29300001 1.163 58 0 0 0 43.219715
-1.275 0.634 1.188 34 0 0 0 43.223042
-1.334 0.35699999 1.1799999 40 0 0 0 43.223454
-1.387 -0.31900001 1.179 56 0 0 0 43.224663
-1.359 0.90600002 1.164 42 0 0 0 43.227989
-1.501 0.59799999 1.143 17 0 0 0 43.228401
-1.29 -0.34200001 1.196 59 0 0 0 43.229607
-1.3380001 0.80400002 1.171 34 0 0 0 43.232937
-1.4450001 0.50300002 1.151 22 0 0 0 43.233345
-1.5779999 -0.30199999 1.145 71 0 0 0 43.234554
-1.3150001 0.70599997 1.178 34 0 0 0 43.237885
-1.401 0.417 1.169 43 0 0 0 43.238293
-1.48 -0.32800001 1.166 62 0 0 0 43.239506
-1.2869999 0.60399997 1.1900001 33 0 0 0 43.242832
-1.34 0.32699999 1.181 40 0 0 0 43.24324
-1.385 -0.35100001 1.1849999 53 0 0 0 43.24445
-1.5 0.55699998 1.132 8 0 0 0 43.248188
-1.278 -0.368 1.1950001 53 0 0 0 43.249397
-1.455 0.46900001 1.151 33 0 0 0 43.253136
-1.571 -0.34 1.148 68 0 0 0 43.254345
-1.4 0.38299999 1.163 43 0 0 0 43.25808
-1.474 -0.36199999 1.17 57 0 0 0 43.259293
-1.335 0.294 1.173 29 0 0 0 43.263027
-1.376 -0.382 1.186 53 0 0 0 43.26424
-1.502 0.51800001 1.123 2 0 0 0 43.267975
-1.278 -0.398 1.204 57 0 0 0 43.269184
-1.459 0.43399999 1.147 34 0 0 0 43.272919
-1.566 -0.37799999 1.151 66 0 0 0 43.274132
-1.404 0.34999999 1.161 35 0 0 0 43.277866
-1.464 -0.396 1.171 58 0 0 0 43.279079
-1.337 0.264 1.1720001 21 0 0 0 43.282818
-1.3660001 -0.412 1.187 51 0 0 0 43.284023
-1.5039999 0.47999999 1.1160001 2 0 0 0 43.287766
-1.27 -0.426 1.207 59 0 0 0 43.288971
-1.466 0.39899999 1.145 34 0 0 0 43.292713
-1.557 -0.41600001 1.154 60 0 0 0 43.293919
-1.409 0.31799999 1.161 5 0 0 0 43.297657
-1.454 -0.43000001 1.1720001 59 0 0 0 43.298866
-1.342 0.235 1.175 29 0 0 0 43.302605
-1.362 -0.44400001 1.194 53 0 0 0 43.303818
-1.522 0.44600001 1.1210001 2 0 0 0 43.307552
-1.258 -0.45100001 1.205 52 0 0 0 43.308762
-1.476 0.366 1.147 5 0 0 0 43.312496
-1.545 -0.45199999 1.154 61 0 0 0 43.313709
-1.405 0.28400001 1.154 1 0 0 0 43.317444
-1.446 -0.46399999 1.175 59 0 0 0 43.318657
-1.344 0.205 1.175 32 0 0 0 43.322392
-1.348 -0.47299999 1.192 51 0 0 0 43.323601
-1.25 -0.479 1.209 56 0 0 0 43.328548
-1.536 -0.49000001 1.1569999 64 0 0 0 43.333496
-1.392 0.249 1.14 2 0 0 0 43.337231
-1.434 -0.49700001 1.176 60 0 0 0 43.338444
-1.3430001 0.175 1.173 42 0 0 0 43.342178
-1.3380001 -0.50300002 1.194 49 0 0 0 43.343391
-1.243 -0.50700003 1.214 54 0 0 0 43.348335
-1.523 -0.52600002 1.158 61 0 0 0 43.353283
-1.39 0.21600001 1.135 2 0 0 0 43.357021
-1.429 -0.53299999 1.184 56 0 0 0 43.358231
-1.345 0.145 1.174 40 0 0 0 43.361969
-1.327 -0.53399998 1.197 54 0 0 0 43.363174
-1.232 -0.53299999 1.216 55 0 0 0 43.368122
-1.512 -0.56400001 1.1619999 58 0 0 0 43.373074
-1.386 0.184 1.13 2 0 0 0 43.376808
-1.415 -0.565 1.1849999 57 0 0 0 43.378021
-1.348 0.116 1.177 32 0 0 0 43.381756
-1.314 -0.56300002 1.198 54 0 0 0 43.382969
-1.22 -0.55900002 1.216 54 0 0 0 43.387913
-1.494 -0.59799999 1.161 62 0 0 0 43.39286
-1.4119999 0.155 1.15 1 0 0 0 43.396595
-1.401 -0.59799999 1.186 54 0 0 0 43.397808
-1.344 0.086000003 1.174 43 0 0 0 43.401543
-1.303 -0.59299999 1.201 55 0 0 0 43.402752
-1.21 -0.58600003 1.22 55 0 0 0 43.4077
-1.483 -0.63599998 1.166 57 0 0 0 43.412647
-1.387 0.121 1.1289999 2 0 0 0 43.416386
-1.386 -0.63 1.187 57 0 0 0 43.417595
-1.347 0.057 1.178 40 0 0 0 43.421333
-1.289 -0.62099999 1.202 58 0 0 0 43.422543
-1.201 -0.61299998 1.225 52 0 0 0 43.427486
-1.472 -0.67299998 1.1720001 51 0 0 0 43.432438
-1.413 0.090999998 1.15 5 0 0 0 43.436172
-1.375 -0.66399997 1.193 58 0 0 0 43.437386
-1.344 0.027000001 1.177 45 0 0 0 43.44112
-1.28 -0.65200001 1.209 55 0 0 0 43.442329
-1.189 -0.639 1.228 53 0 0 0 43.447277
-1.456 -0.70899999 1.175 55 0 0 0 43.452225
-1.425 0.059999999 1.16 11 0 0 0 43.455959
-1.3559999 -0.69400001 1.192 55 0 0 0 43.457172
-1.346 -0.001 1.181 55 0 0 0 43.460907
-1.268 -0.68199998 1.2130001 53 0 0 0 43.46212
-1.173 -0.66299999 1.227 54 0 0 0 43.467064
-1.4400001 -0.745 1.178 60 0 0 0 43.472012
-1.424 0.028000001 1.159 12 0 0 0 43.475746
-1.3430001 -0.727 1.197 57 0 0 0 43.476959
-1.3430001 -0.029999999 1.181 55 0 0 0 43.480698
-1.253 -0.70999998 1.215 51 0 0 0 43.481903
-1.16 -0.68800002 1.229 52 0 0 0 43.486851
-1.424 -0.77999997 1.183 58 0 0 0 43.491798
-1.421 -0.003 1.159 41 0 0 0 43.495537
-1.3279999 -0.759 1.201 59 0 0 0 43.49675
-1.34 -0.059 1.182 51 0 0 0 43.500484
-1.238 -0.73900002 1.2180001 52 0 0 0 43.501698
-1.146 -0.713 1.2309999 51 0 0 0 43.506641
-1.406 -0.815 1.186 66 0 0 0 43.511589
-1.423 -0.035 1.163 47 0 0 0 43.515324
-1.3150001 -0.792 1.2079999 58 0 0 0 43.516537
-1.339 -0.088 1.1849999 55 0 0 0 43.520271
-1.222 -0.76599997 1.22 49 0 0 0 43.521481
-1.1339999 -0.73900002 1.2359999 56 0 0 0 43.526428
-1.385 -0.84799999 1.188 64 0 0 0 43.531376
-1.426 -0.067000002 1.168 57 0 0 0 43.53511
-1.296 -0.82300001 1.21 55 0 0 0 43.536324
-1.334 -0.117 1.1849999 54 0 0 0 43.540058
-1.206 -0.79400003 1.224 55 0 0 0 43.541271
-1.119 -0.76300001 1.237 52 0 0 0 43.546215
-1.367 -0.88300002 1.194 70 0 0 0 43.634846
-1.276 -0.852 1.212 58 0 0 0 43.639793
-1.1900001 -0.82200003 1.228 52 0 0 0 43.644737
-1.105 -0.78899997 1.2410001 56 0 0 0 43.649685
-1.344 -0.91399997 1.1950001 62 0 0 0 43.654633
-1.258 -0.88300002 1.216 60 0 0 0 43.65958
-1.171 -0.84799999 1.229 51 0 0 0 43.664528
-1.086 -0.81 1.24 54 0 0 0 43.669472
-1.327 -0.95099998 1.2029999 60 0 0 0 43.674419
-1.24 -0.91399997 1.221 55 0 0 0 43.679367
-1.155 -0.87699997 1.234 54 0 0 0 43.684311
-1.0700001 -0.83399999 1.242 57 0 0 0 43.689259
-1.3049999 -0.98400003 1.2079999 57 0 0 0 43.694206
-1.222 -0.94499999 1.227 57 0 0 0 43.699158
-1.133 -0.89999998 1.233 51 0 0 0 43.704105
-1.056 -0.86000001 1.248 56 0 0 0 43.709049
-1.283 -1.016 1.212 55 0 0 0 43.713997
-1.2 -0.97299999 1.23 53 0 0 0 43.718945
-1.117 -0.92799997 1.239 53 0 0 0 43.723888
-1.041 -0.884 1.252 55 0 0 0 43.728836
-1.2589999 -1.048 1.216 56 0 0 0 43.733784
-1.177 -1.001 1.232 52 0 0 0 43.738731
-1.1 -0.95700002 1.2460001 60 0 0 0 43.743679
-1.023 -0.90600002 1.253 53 0 0 0 43.748623
-1.233 -1.0779999 1.22 59 0 0 0 43.753571
-1.153 -1.027 1.234 52 0 0 0 43.758518
-1.077 -0.97899997 1.2460001 54 0 0 0 43.763466
-1.0089999 -0.93300003 1.261 51 0 0 0 43.768414
-1.209 -1.109 1.225 55 0 0 0 43.773361
-1.132 -1.056 1.24 50 0 0 0 43.778309
-1.0549999 -1.002 1.247 56 0 0 0 43.783257
-0.99000001 -0.954 1.262 52 0 0 0 43.7882
-1.181 -1.138 1.228 56 0 0 0 43.793148
-1.108 -1.0829999 1.243 51 0 0 0 43.798096
-1.038 -1.031 1.255 57 0 0 0 43.80304
-0.97000003 -0.97600001 1.2640001 51 0 0 0 43.807987
-1.154 -1.166 1.232 60 0 0 0 43.812935
-1.084 -1.11 1.247 59 0 0 0 43.817883
-1.0140001 -1.054 1.257 55 0 0 0 43.82283
-0.95499998 -1.002 1.271 50 0 0 0 43.827778
-1.125 -1.193 1.235 66 0 0 0 43.832726
-1.061 -1.138 1.2539999 52 0 0 0 43.837673
-0.99400002 -1.08 1.263 51 0 0 0 43.842617
-0.935 -1.023 1.274 51 0 0 0 43.847565
-1.095 -1.219 1.238 59 0 0 0 43.852512
-1.0369999 -1.165 1.26 58 0 0 0 43.85746
-0.97100002 -1.102 1.265 55 0 0 0 43.862408
-0.91299999 -1.0420001 1.273 50 0 0 0 43.867352
-1.066 -1.2460001 1.243 62 0 0 0 43.872299
-1.0089999 -1.188 1.261 51 0 0 0 43.877247
-0.94999999 -1.127 1.271 61 0 0 0 43.882191
-0.898 -1.069 1.283 55 0 0 0 43.887138
-1.034 -1.27 1.245 59 0 0 0 43.89209
-0.98000002 -1.21 1.263 53 0 0 0 43.897038
-0.92699999 -1.151 1.277 59 0 0 0 43.901985
-0.87800002 -1.091 1.288 57 0 0 0 43.906929
-1.011 -1.304 1.258 51 0 0 0 43.911877
-0.95499998 -1.2359999 1.27 57 0 0 0 43.916824
-0.90499997 -1.176 1.283 55 0 0 0 43.921768
-0.85699999 -1.112 1.291 54 0 0 0 43.926716
-0.97899997 -1.3279999 1.262 57 0 0 0 43.931664
-0.92900002 -1.262 1.277 55 0 0 0 43.936611
-0.87900001 -1.197 1.286 54 0 0 0 43.941559
-0.833 -1.13 1.291 57 0 0 0 43.946503
-0.94999999 -1.3559999 1.271 57 0 0 0 43.95145
-0.90100002 -1.285 1.2819999 58 0 0 0 43.956402
-0.85699999 -1.221 1.293 54 0 0 0 43.961346
-0.81199998 -1.151 1.296 52 0 0 0 43.966293
-0.91600001 -1.376 1.273 54 0 0 0 43.971241
-0.87199998 -1.307 1.286 53 0 0 0 43.976189
-0.82999998 -1.2410001 1.295 55 0 0 0 43.981136
-0.78899997 -1.169 1.2970001 52 0 0 0 43.98608
-0.88499999 -1.402 1.281 46 0 0 0 43.991028
-0.84299999 -1.329 1.291 49 0 0 0 43.995975
-0.80400002 -1.262 1.3 52 0 0 0 44.000919
-0.76800001 -1.192 1.3049999 49 0 0 0 44.005867
-0.85299999 -1.426 1.288 53 0 0 0 44.010815
-0.81400001 -1.351 1.2970001 48 0 0 0 44.015762
-0.778 -1.2819999 1.3049999 57 0 0 0 44.020714
-0.74699998 -1.2130001 1.3099999 56 0 0 0 44.025658
-0.81699997 -1.444 1.291 49 0 0 0 44.030605
-0.78200001 -1.369 1.299 50 0 0 0 44.035553
-0.75199997 -1.303 1.3099999 54 0 0 0 44.040497
-0.72299999 -1.233 1.314 54 0 0 0 44.045444
-0.78500003 -1.467 1.299 47 0 0 0 44.050392
-0.75199997 -1.39 1.306 56 0 0 0 44.05534
-0.72399998 -1.322 1.314 51 0 0 0 44.060287
-0.69999999 -1.252 1.318 50 0 0 0 44.065231
-0.75099999 -1.489 1.307 46 0 0 0 44.070179
-0.71899998 -1.406 1.308 54 0 0 0 44.075127
-0.69999999 -1.347 1.325 55 0 0 0 44.08007
-0.67699999 -1.274 1.326 54 0 0 0 44.085018
-0.71499997 -1.5089999 1.313 51 0 0 0 44.08997
-0.69099998 -1.432 1.3200001 48 0 0 0 44.094917
-0.671 -1.364 1.329 55 0 0 0 44.099865
-0.653 -1.294 1.332 57 0 0 0 44.104809
-0.67900002 -1.527 1.319 47 0 0 0 44.656094
-0.65899998 -1.45 1.325 51 0 0 0 44.661041
-0.64399999 -1.385 1.336 49 0 0 0 44.665985
-0.62800002 -1.312 1.336 50 0 0 0 44.670933
-0.64300001 -1.544 1.325 47 0 0 0 44.67588
-0.62699997 -1.4680001 1.332 42 0 0 0 44.680824
-0.61299998 -1.4 1.3380001 49 0 0 0 44.685772
-0.60100001 -1.325 1.336 51 0 0 0 44.69072
-0.60699999 -1.563 1.3329999 44 0 0 0 44.695667
-0.59600002 -1.489 1.341 42 0 0 0 44.700615
-0.58399999 -1.416 1.3430001 45 0 0 0 44.705559
-0.57599998 -1.347 1.344 55 0 0 0 44.710506
-0.57099998 -1.58 1.341 47 0 0 0 44.715454
-0.56199998 -1.5039999 1.346 44 0 0 0 44.720402
-0.55400002 -1.432 1.348 50 0 0 0 44.725349
-0.551 -1.3660001 1.351 53 0 0 0 44.730297
-0.53399998 -1.598 1.35 54 0 0 0 44.735245
-0.52999997 -1.522 1.354 43 0 0 0 44.740192
-0.52399999 -1.45 1.355 50 0 0 0 44.745136
-0.523 -1.38 1.353 49 0 0 0 44.750084
-0.495 -1.607 1.353 51 0 0 0 44.755032
-0.49599999 -1.538 1.3609999 45 0 0 0 44.759975
-0.493 -1.4630001 1.358 50 0 0 0 44.764923
-0.49399999 -1.392 1.354 47 0 0 0 44.769871
-0.46000001 -1.632 1.369 50 0 0 0 44.774818
-0.461 -1.553 1.368 49 0 0 0 44.77977
-0.461 -1.477 1.362 51 0 0 0 44.784714
-0.46900001 -1.413 1.364 47 0 0 0 44.789661
-0.42199999 -1.646 1.378 45 0 0 0 44.794609
-0.426 -1.564 1.372 53 0 0 0 44.799553
-0.43200001 -1.497 1.374 48 0 0 0 44.804501
-0.44100001 -1.432 1.3710001 47 0 0 0 44.809448
-0.382 -1.655 1.383 46 0 0 0 44.814396
-0.391 -1.577 1.3789999 46 0 0 0 44.819344
-0.40000001 -1.51 1.378 47 0 0 0 44.824287
-0.412 -1.444 1.374 42 0 0 0 44.829235
-0.34299999 -1.664 1.3890001 46 0 0 0 44.834183
-0.35600001 -1.592 1.387 42 0 0 0 44.839127
-0.368 -1.525 1.386 48 0 0 0 44.844074
-0.38299999 -1.459 1.3789999 52 0 0 0 44.849026
-0.30399999 -1.676 1.398 46 0 0 0 44.853973
-0.31999999 -1.602 1.393 42 0 0 0 44.858921
-0.336 -1.54 1.3940001 56 0 0 0 44.863865
-0.35299999 -1.469 1.38 49 0 0 0 44.868813
-0.264 -1.684 1.404 45 0 0 0 44.87376
-0.28299999 -1.6109999 1.399 41 0 0 0 44.878704
-0.303 -1.551 1.398 51 0 0 0 44.883652
-0.32300001 -1.4809999 1.3839999 52 0 0 0 44.888599
-0.22400001 -1.696 1.416 45 0 0 0 44.893547
0.26199999 -1.707 1.5039999 45 0 0 0 44.894863
-0.248 -1.63 1.413 45 0 0 0 44.898495
0.205 -1.681 1.4960001 45 0 0 0 44.899811
-0.26899999 -1.5650001 1.4069999 47 0 0 0 44.903439
0.154 -1.655 1.487 46 0 0 0 44.904758
-0.294 -1.5 1.395 49 0 0 0 44.908386
0.1 -1.6289999 1.473 44 0 0 0 44.909702
-0.183 -1.698 1.419 46 0 0 0 44.913338
0.30199999 -1.699 1.5089999 45 0 0 0 44.914654
-0.211 -1.638 1.419 43 0 0 0 44.918282
0.244 -1.673 1.498 46 0 0 0 44.919601
-0.235 -1.573 1.411 45 0 0 0 44.923229
0.192 -1.661 1.498 47 0 0 0 44.924545
-0.26300001 -1.512 1.399 54 0 0 0 44.928177
0.13600001 -1.638 1.482 47 0 0 0 44.929493
-0.14300001 -1.707 1.4299999 46 0 0 0 44.933125
0.34099999 -1.691 1.516 47 0 0 0 44.934441
-0.17399999 -1.647 1.427 41 0 0 0 44.938072
0.28299999 -1.675 1.508 46 0 0 0 44.939388
-0.20200001 -1.584 1.4170001 44 0 0 0 44.943016
0.228 -1.658 1.501 48 0 0 0 44.944336
-0.233 -1.528 1.408 43 0 0 0 44.947964
0.171 -1.6390001 1.484 45 0 0 0 44.94928
-0.103 -1.715 1.4400001 48 0 0 0 44.952911
0.382 -1.686 1.525 46 0 0 0 44.954227
-0.13699999 -1.658 1.437 45 0 0 0 44.957855
0.32100001 -1.673 1.516 44 0 0 0 44.959175
-0.167 -1.594 1.424 44 0 0 0 44.962803
0.266 -1.661 1.5089999 46 0 0 0 44.964119
-0.20100001 -1.54 1.414 39 0 0 0 44.967751
0.208 -1.646 1.492 44 0 0 0 44.969067
-0.061999999 -1.717 1.446 43 0 0 0 44.972698
0.421 -1.677 1.5319999 41 0 0 0 44.974014
-0.098999999 -1.661 1.441 43 0 0 0 44.97765
0.359 -1.665 1.52 45 0 0 0 44.978966
-0.133 -1.6059999 1.433 43 0 0 0 44.982594
0.303 -1.659 1.5140001 45 0 0 0 44.983913
-0.17 -1.556 1.424 42 0 0 0 44.987541
0.245 -1.654 1.502 47 0 0 0 44.988857
-0.022 -1.721 1.454 48 0 0 0 44.992489
0.46000001 -1.665 1.5369999 41 0 0 0 44.993805
-0.061999999 -1.665 1.446 43 0 0 0 44.997433
0.39700001 -1.659 1.526 43 0 0 0 44.998753
-0.097999997 -1.619 1.443 42 0 0 0 45.00238
0.34 -1.656 1.5190001 47 0 0 0 45.003696
-0.13699999 -1.566 1.428 40 0 0 0 45.007328
0.28099999 -1.653 1.505 45 0 0 0 45.008644
0.017999999 -1.723 1.4630001 52 0 0 0 45.012276
0.50099999 -1.66 1.55 44 0 0 0 45.013592
-0.024 -1.675 1.457 45 0 0 0 45.017223
0.43700001 -1.6569999 1.5369999 40 0 0 0 45.018539
-0.063000001 -1.627 1.45 43 0 0 0 45.022167
0.377 -1.652 1.523 44 0 0 0 45.023487
-0.104 -1.577 1.434 42 0 0 0 45.027115
0.31799999 -1.654 1.51 50 0 0 0 45.028431
0.059 -1.722 1.469 51 0 0 0 45.032063
0.53899997 -1.649 1.558 41 0 0 0 45.033379
0.013 -1.676 1.462 43 0 0 0 45.037006
0.47400001 -1.647 1.541 41 0 0 0 45.038326
-0.027000001 -1.633 1.456 44 0 0 0 45.041958
0.41600001 -1.652 1.5319999 44 0 0 0 45.04327
-0.071000002 -1.585 1.439 41 0 0 0 45.046906
0.35499999 -1.653 1.515 46 0 0 0 45.048222
0.1 -1.722 1.477 47 0 0 0 45.051853
0.57700002 -1.6339999 1.563 41 0 0 0 45.053169
0.052000001 -1.681 1.471 47 0 0 0 45.056801
0.51300001 -1.641 1.55 42 0 0 0 45.058117
0.0080000004 -1.645 1.467 43 0 0 0 45.061745
0.45500001 -1.653 1.544 45 0 0 0 45.063065
-0.037999999 -1.596 1.446 46 0 0 0 45.066692
0.39399999 -1.66 1.526 44 0 0 0 45.068008
0.14 -1.7180001 1.482 50 0 0 0 45.07164
0.61500001 -1.619 1.569 41 0 0 0 45.072956
0.090000004 -1.684 1.479 43 0 0 0 45.076584
0.55299997 -1.638 1.562 39 0 0 0 45.077904
0.044 -1.645 1.469 42 0 0 0 45.081532
0.493 -1.646 1.5470001 44 0 0 0 45.082848
-0.0040000002 -1.61 1.457 44 0 0 0 45.086479
0.43200001 -1.659 1.5319999 42 0 0 0 45.087795
0.18099999 -1.716 1.49 46 0 0 0 45.091427
0.653 -1.607 1.5779999 41 0 0 0 45.092743
0.12899999 -1.682 1.483 44 0 0 0 45.096375
0.58999997 -1.626 1.567 40 0 0 0 45.097691
0.079999998 -1.648 1.474 43 0 0 0 45.101318
0.53200001 -1.6440001 1.557 43 0 0 0 45.102638
0.029999999 -1.62 1.465 48 0 0 0 45.10627
0.47099999 -1.6619999 1.5420001 44 0 0 0 45.107586
0.221 -1.71 1.495 44 0 0 0 45.111217
0.69199997 -1.595 1.589 40 0 0 0 45.112534
0.167 -1.682 1.49 47 0 0 0 45.116161
0.62699997 -1.6160001 1.574 38 0 0 0 45.117481
0.118 -1.658 1.487 46 0 0 0 45.121109
0.56999999 -1.6390001 1.5650001 43 0 0 0 45.122425
0.064999998 -1.623 1.467 45 0 0 0 45.126057
0.509 -1.659 1.5470001 43 0 0 0 45.127373
0.72799999 -1.5779999 1.594 37 0 0 0 45.13232
0.66500002 -1.604 1.58 43 0 0 0 45.137268
0.60799998 -1.632 1.572 42 0 0 0 45.142216
0.54799998 -1.655 1.552 42 0 0 0 45.14716
0.76999998 -1.573 1.614 39 0 0 0 45.152107
0.70300001 -1.595 1.59 36 0 0 0 45.157055
0.64700001 -1.625 1.579 41 0 0 0 45.161999
0.58899999 -1.658 1.564 39 0 0 0 45.166946
0.79900002 -1.54 1.6059999 43 0 0 0 45.171898
0.741 -1.5829999 1.599 37 0 0 0 45.176846
0.68699998 -1.6210001 1.591 41 0 0 0 45.181793
0.62900001 -1.655 1.573 38 0 0 0 45.186737
0.852 -1.5549999 1.648 19 0 0 0 45.191685
0.78799999 -1.589 1.626 51 0 0 0 45.196632
0.72500002 -1.612 1.598 40 0 0 0 45.201576
0.66900003 -1.653 1.582 39 0 0 0 45.206524
0.89200002 -1.541 1.663 19 0 0 0 45.211472
0.81599998 -1.557 1.615 33 0 0 0 45.216419
0.76499999 -1.605 1.608 40 0 0 0 45.221367
1.135 -1.33 1.687 52 0 0 0 45.224617
0.708 -1.6440001 1.586 38 0 0 0 45.226311
1.124 -1.444 1.711 21 0 0 0 45.229565
0.926 -1.52 1.669 19 0 0 0 45.231258
1.076 -1.5039999 1.679 52 0 0 0 45.234512
0.86799997 -1.5700001 1.652 32 0 0 0 45.23621
1.063 -1.617 1.698 22 0 0 0 45.239456
0.80800003 -1.602 1.624 46 0 0 0 45.241154
1.165 -1.304 1.694 45 0 0 0 45.244404
0.75300002 -1.649 1.604 46 0 0 0 45.246101
1.1569999 -1.421 1.717 21 0 0 0 45.249352
0.95999998 -1.498 1.675 19 0 0 0 45.251049
1.114 -1.487 1.688 51 0 0 0 45.254299
0.90399998 -1.553 1.658 28 0 0 0 45.255997
1.105 -1.603 1.707 22 0 0 0 45.259247
0.84500003 -1.589 1.6289999 45 0 0 0 45.260944
1.191 -1.274 1.696 43 0 0 0 45.264191
0.79799998 -1.652 1.6210001 50 0 0 0 45.265888
1.188 -1.3940001 1.721 25 0 0 0 45.269138
1 -1.484 1.691 22 0 0 0 45.270836
1.152 -1.469 1.697 42 0 0 0 45.27409
0.94199997 -1.5369999 1.6670001 23 0 0 0 45.275784
1.147 -1.587 1.714 23 0 0 0 45.279034
0.889 -1.587 1.648 55 0 0 0 45.280727
1.2180001 -1.245 1.7 46 0 0 0 45.283981
0.838 -1.641 1.627 88 0 0 0 45.285675
1.216 -1.365 1.721 39 0 0 0 45.288929
1.0319999 -1.459 1.696 26 0 0 0 45.290623
1.191 -1.451 1.707 42 0 0 0 45.293877
0.97899997 -1.52 1.676 20 0 0 0 45.29557
1.192 -1.575 1.727 23 0 0 0 45.298824
0.92799997 -1.574 1.656 53 0 0 0 45.300522
1.245 -1.217 1.706 45 0 0 0 45.303768
0.89499998 -1.663 1.666 22 0 0 0 45.305466
1.234 -1.325 1.7079999 53 0 0 0 45.308716
1.061 -1.429 1.696 31 0 0 0 45.310413
1.229 -1.433 1.717 34 0 0 0 45.313663
1.016 -1.502 1.6849999 19 0 0 0 45.315361
1.23 -1.553 1.7309999 23 0 0 0 45.318607
0.96600002 -1.558 1.6619999 53 0 0 0 45.320305
1.265 -1.183 1.704 51 0 0 0 45.323555
0.93699998 -1.653 1.674 23 0 0 0 45.325253
1.266 -1.3 1.715 58 0 0 0 45.328503
1.081 -1.3890001 1.6849999 45 0 0 0 45.3302
1.26 -1.405 1.7180001 32 0 0 0 45.33345
1.054 -1.487 1.697 19 0 0 0 45.335148
1.273 -1.536 1.74 24 0 0 0 45.338402
1.003 -1.541 1.668 53 0 0 0 45.340096
1.289 -1.152 1.7079999 50 0 0 0 45.343346
0.98000002 -1.642 1.682 22 0 0 0 45.345039
1.2869999 -1.2640001 1.709 46 0 0 0 45.348293
1.109 -1.36 1.687 56 0 0 0 45.349987
1.2920001 -1.378 1.719 44 0 0 0 45.353241
1.091 -1.469 1.7079999 20 0 0 0 45.354935
1.2869999 -1.485 1.7130001 48 0 0 0 45.358185
1.041 -1.525 1.676 56 0 0 0 45.359879
1.312 -1.1210001 1.711 50 0 0 0 45.363132
1.021 -1.63 1.6900001 22 0 0 0 45.364826
1.313 -1.234 1.71 46 0 0 0 45.36808
1.316 -1.3430001 1.712 45 0 0 0 45.373028
1.326 -1.4630001 1.7180001 47 0 0 0 45.377975
1.334 -1.09 1.714 46 0 0 0 45.382919
1.339 -1.204 1.712 45 0 0 0 45.387867
1.349 -1.318 1.7180001 44 0 0 0 45.392815
1.354 -1.429 1.711 39 0 0 0 45.397758
1.357 -1.059 1.719 44 0 0 0 45.402706
1.365 -1.174 1.715 46 0 0 0 45.407658
1.38 -1.29 1.722 42 0 0 0 45.412605
1.395 -1.408 1.721 44 0 0 0 45.417553
1.3789999 -1.028 1.724 44 0 0 0 45.422497
1.392 -1.145 1.721 40 0 0 0 45.427444
1.4119999 -1.262 1.726 44 0 0 0 45.432392
1.429 -1.38 1.724 40 0 0 0 45.437336
1.397 -0.99400002 1.725 44 0 0 0 45.442284
1.4170001 -1.114 1.724 41 0 0 0 45.447231
1.446 -1.2359999 1.735 42 0 0 0 45.452179
1.467 -1.354 1.73 39 0 0 0 45.457127
1.419 -0.963 1.732 45 0 0 0 45.46207
1.444 -1.085 1.73 41 0 0 0 45.467018
1.475 -1.205 1.738 40 0 0 0 45.47197
1.505 -1.3279999 1.738 40 0 0 0 45.476913
1.438 -0.93000001 1.734 45 0 0 0 45.481861
1.4680001 -1.053 1.734 46 0 0 0 45.486809
1.5039999 -1.175 1.7410001 40 0 0 0 45.491756
1.539 -1.298 1.7410001 37 0 0 0 45.496704
1.454 -0.89600003 1.7359999 46 0 0 0 45.501648
1.49 -1.02 1.7359999 42 0 0 0 45.506596
1.5369999 -1.147 1.751 42 0 0 0 45.511543
1.58 -1.274 1.753 38 0 0 0 45.516487
1.472 -0.86299998 1.74 46 0 0 0 45.521435
1.517 -0.99000001 1.744 41 0 0 0 45.526382
1.567 -1.1160001 1.757 38 0 0 0 45.53133
1.615 -1.243 1.7589999 40 0 0 0 45.536282
1.488 -0.82999998 1.743 46 0 0 0 45.541225
1.538 -0.95700002 1.747 41 0 0 0 45.546173
1.594 -1.0829999 1.76 39 0 0 0 45.551121
1.651 -1.212 1.766 40 0 0 0 45.556065
1.503 -0.796 1.7460001 45 0 0 0 45.561012
1.5599999 -0.92400002 1.752 47 0 0 0 45.56596
1.625 -1.053 1.7690001 42 0 0 0 45.570908
1.686 -1.181 1.773 40 0 0 0 45.575855
1.52 -0.76300001 1.751 46 0 0 0 45.580799
1.584 -0.89200002 1.7589999 44 0 0 0 45.585747
1.648 -1.016 1.77 41 0 0 0 45.590694
1.726 -1.152 1.785 40 0 0 0 45.595638
1.531 -0.727 1.751 44 0 0 0 45.60059
1.602 -0.85600001 1.76 44 0 0 0 45.605537
1.678 -0.98400003 1.779 44 0 0 0 45.610485
1.756 -1.1160001 1.789 37 0 0 0 45.615433
1.546 -0.69400001 1.756 43 0 0 0 45.620377
1.622 -0.82200003 1.765 46 0 0 0 45.625324
1.5930001 -0.55599999 1.768 46 0 0 0 45.629139
1.705 -0.94999999 1.785 41 0 0 0 45.630272
1.691 -0.67900002 1.779 47 0 0 0 45.634087
1.789 -1.082 1.796 45 0 0 0 45.635216
1.791 -0.79900002 1.795 45 0 0 0 45.63903
1.559 -0.65899998 1.758 44 0 0 0 45.640163
1.906 -0.92799997 1.814 44 0 0 0 45.643978
1.642 -0.78799999 1.771 44 0 0 0 45.645111
1.603 -0.52100003 1.77 46 0 0 0 45.64893
1.729 -0.91399997 1.788 42 0 0 0 45.650059
1.7029999 -0.64099997 1.779 47 0 0 0 45.653877
1.823 -1.046 1.803 55 0 0 0 45.655006
1.817 -0.76300001 1.804 49 0 0 0 45.658825
1.573 -0.62599999 1.763 44 0 0 0 45.65995
1.928 -0.88599998 1.8150001 43 0 0 0 45.663769
1.659 -0.75199997 1.773 41 0 0 0 45.664902
1.609 -0.48500001 1.7690001 50 0 0 0 45.668716
1.755 -0.87900001 1.795 47 0 0 0 45.669849
1.7180001 -0.60500002 1.783 44 0 0 0 45.673664
1.846 -1.005 1.802 46 0 0 0 45.674793
1.829 -0.72100002 1.8 44 0 0 0 45.678608
1.582 -0.58999997 1.7640001 42 0 0 0 45.679741
1.948 -0.84200001 1.814 42 0 0 0 45.683556
1.677 -0.71600002 1.777 46 0 0 0 45.684689
1.613 -0.449 1.767 56 0 0 0 45.688503
1.775 -0.83999997 1.7970001 48 0 0 0 45.689636
1.727 -0.56599998 1.781 45 0 0 0 45.693451
1.872 -0.96499997 1.804 50 0 0 0 45.694584
1.846 -0.68099999 1.802 43 0 0 0 45.698399
1.9809999 -0.80299997 1.826 42 0 0 0 45.703342
1.618 -0.414 1.768 55 0 0 0 45.70829
1.738 -0.528 1.783 45 0 0 0 45.713242
1.859 -0.639 1.801 44 0 0 0 45.718185
2.0009999 -0.759 1.826 40 0 0 0 45.723133
1.622 -0.37799999 1.767 52 0 0 0 45.728081
1.75 -0.49000001 1.785 48 0 0 0 45.733028
1.877 -0.59899998 1.8049999 47 0 0 0 45.737976
2.0220001 -0.71399999 1.829 42 0 0 0 45.74292
1.628 -0.34299999 1.7690001 52 0 0 0 45.747868
1.758 -0.45199999 1.786 46 0 0 0 45.752815
1.887 -0.55599999 1.803 44 0 0 0 45.757759
2.05 -0.67199999 1.839 42 0 0 0 45.762707
1.628 -0.308 1.765 53 0 0 0 45.767654
1.767 -0.41299999 1.7869999 48 0 0 0 45.772606
1.9069999 -0.51700002 1.811 44 0 0 0 45.777554
2.0669999 -0.62599999 1.84 44 0 0 0 45.782497
1.618 -0.27000001 1.751 38 0 0 0 45.787445
1.773 -0.375 1.7869999 49 0 0 0 45.792393
1.914 -0.47299999 1.807 45 0 0 0 45.797337
2.0769999 -0.57800001 1.835 44 0 0 0 45.802284
1.635 -0.23800001 1.768 57 0 0 0 45.807232
1.777 -0.336 1.785 47 0 0 0 45.81218
1.923 -0.43000001 1.806 47 0 0 0 45.817127
2.099 -0.53200001 1.8430001 44 0 0 0 45.822071
1.6210001 -0.20200001 1.751 40 0 0 0 45.827019
1.781 -0.29699999 1.784 50 0 0 0 45.831966
1.938 -0.389 1.813 47 0 0 0 45.83691
2.1129999 -0.48500001 1.844 42 0 0 0 45.841862
1.635 -0.168 1.765 54 0 0 0 45.846809
1.7869999 -0.25799999 1.784 51 0 0 0 45.851757
1.947 -0.34599999 1.814 49 0 0 0 45.856705
2.1270001 -0.43700001 1.846 42 0 0 0 45.861649
1.6390001 -0.134 1.7690001 60 0 0 0 45.866596
1.7920001 -0.219 1.786 50 0 0 0 45.871544
1.955 -0.30199999 1.814 45 0 0 0 45.876488
2.1389999 -0.389 1.848 43 0 0 0 45.881435
1.624 -0.098999999 1.753 43 0 0 0 45.886383
1.7920001 -0.18000001 1.784 48 0 0 0 45.891331
1.962 -0.259 1.8150001 46 0 0 0 45.896278
2.155 -0.34099999 1.854 46 0 0 0 45.901222
1.624 -0.064999998 1.7539999 44 0 0 0 45.906174
1.798 -0.142 1.788 52 0 0 0 45.911121
1.966 -0.215 1.8150001 44 0 0 0 45.916065
2.1619999 -0.29100001 1.852 52 0 0 0 45.921013
1.622 -0.032000002 1.7539999 43 0 0 0 45.925961
1.8 -0.103 1.788 52 0 0 0 45.930908
1.972 -0.17200001 1.816 46 0 0 0 45.935856
2.1730001 -0.242 1.8559999 49 0 0 0 45.9408
1.6210001 0.001 1.755 43 0 0 0 45.945747
1.799 -0.064000003 1.7869999 51 0 0 0 45.950695
1.978 -0.12800001 1.819 45 0 0 0 45.955639
2.177 -0.192 1.854 49 0 0 0 45.960587
1.613 0.035 1.749 47 0 0 0 45.965534
1.799 -0.025 1.7869999 52 0 0 0 45.970486
1.9809999 -0.083999999 1.821 44 0 0 0 45.975433
2.1830001 -0.142 1.8559999 47 0 0 0 45.980377
1.609 0.068000004 1.748 45 0 0 0 45.985325
1.796 0.012 1.785 51 0 0 0 45.990273
1.978 -0.039000001 1.817 47 0 0 0 45.995216
1.573 0.26300001 1.7410001 46 0 0 0 45.996246
2.1860001 -0.092 1.8559999 46 0 0 0 46.000164
1.7640001 0.241 1.775 53 0 0 0 46.001198
1.61 0.101 1.753 43 0 0 0 46.005112
1.961 0.223 1.814 49 0 0 0 46.006145
1.791 0.050999999 1.7819999 55 0 0 0 46.010059
2.178 0.20999999 1.855 49 0 0 0 46.011093
1.98 0.0040000002 1.818 51 0 0 0 46.015007
1.562 0.294 1.7359999 50 0 0 0 46.016041
2.187 -0.041000001 1.855 47 0 0 0 46.019951
1.757 0.278 1.775 51 0 0 0 46.020985
1.601 0.134 1.748 44 0 0 0 46.024899
1.954 0.266 1.813 50 0 0 0 46.025932
1.789 0.089000002 1.783 55 0 0 0 46.029846
2.165 0.25999999 1.848 49 0 0 0 46.03088
1.978 0.048 1.817 46 0 0 0 46.034794
1.554 0.32499999 1.735 47 0 0 0 46.035824
2.1889999 0.0080000004 1.8559999 46 0 0 0 46.039742
1.747 0.315 1.772 48 0 0 0 46.040771
1.594 0.16599999 1.745 48 0 0 0 46.044689
1.9450001 0.31 1.811 52 0 0 0 46.045719
1.783 0.127 1.78 49 0 0 0 46.049637
2.1559999 0.30899999 1.847 53 0 0 0 46.050667
1.975 0.092 1.817 46 0 0 0 46.054585
1.546 0.35699999 1.735 48 0 0 0 46.055614
2.187 0.059 1.855 47 0 0 0 46.059528
1.7359999 0.352 1.768 53 0 0 0 46.060558
1.587 0.199 1.744 44 0 0 0 46.064476
1.936 0.35299999 1.809 49 0 0 0 46.06551
1.777 0.16500001 1.778 49 0 0 0 46.069424
2.1459999 0.359 1.845 49 0 0 0 46.070457
1.973 0.13600001 1.817 46 0 0 0 46.074368
1.5369999 0.38800001 1.734 49 0 0 0 46.075401
2.1849999 0.109 1.855 46 0 0 0 46.079315
1.727 0.389 1.768 52 0 0 0 46.080349
1.582 0.23100001 1.744 44 0 0 0 46.084263
1.926 0.39500001 1.808 55 0 0 0 46.085297
1.773 0.204 1.779 50 0 0 0 46.089211
2.131 0.40799999 1.84 47 0 0 0 46.090244
1.97 0.18000001 1.818 47 0 0 0 46.094158
1.528 0.419 1.733 46 0 0 0 46.095192
2.181 0.16 1.853 48 0 0 0 46.099106
1.716 0.42500001 1.765 48 0 0 0 46.100136
1.915 0.43799999 1.807 51 0 0 0 46.105083
2.1170001 0.456 1.837 47 0 0 0 46.110031
1.5140001 0.44800001 1.728 49 0 0 0 46.114975
1.706 0.46200001 1.765 48 0 0 0 46.119923
1.902 0.47999999 1.804 53 0 0 0 46.12487
2.109 0.50599998 1.84 48 0 0 0 46.129822
1.505 0.479 1.728 49 0 0 0 46.134769
1.692 0.49700001 1.762 53 0 0 0 46.139713
1.888 0.52100003 1.802 50 0 0 0 46.144661
2.0899999 0.55299997 1.836 50 0 0 0 46.149609
1.489 0.50700003 1.721 50 0 0 0 46.154552
1.678 0.53200001 1.7589999 49 0 0 0 46.1595
1.869 0.56099999 1.796 51 0 0 0 46.164448
2.0669999 0.59899998 1.827 48 0 0 0 46.169395
1.476 0.53600001 1.719 47 0 0 0 46.174343
1.664 0.56699997 1.757 47 0 0 0 46.179287
1.85 0.60100001 1.791 49 0 0 0 46.184235
2.04 0.64200002 1.817 45 0 0 0 46.189182
1.461 0.565 1.714 50 0 0 0 46.194126
1.646 0.60100001 1.751 46 0 0 0 46.199078
1.835 0.64200002 1.79 52 0 0 0 46.204025
2.0239999 0.69 1.817 46 0 0 0 46.208973
1.45 0.59399998 1.714 51 0 0 0 46.213921
1.631 0.63499999 1.75 46 0 0 0 46.218864
1.818 0.68199998 1.788 50 0 0 0 46.223812
1.9960001 0.73299998 1.808 45 0 0 0 46.22876
1.4349999 0.62199998 1.71 52 0 0 0 46.233704
1.61 0.667 1.7410001 48 0 0 0 46.238651
1.795 0.72000003 1.7819999 46 0 0 0 46.243599
1.9680001 0.77499998 1.8 54 0 0 0 46.248547
1.421 0.65100002 1.709 50 0 0 0 46.253494
1.595 0.70099998 1.7410001 50 0 0 0 46.258438
1.776 0.759 1.779 45 0 0 0 46.26339
1.948 0.81999999 1.799 54 0 0 0 46.268337
1.404 0.67799997 1.7029999 51 0 0 0 46.273281
1.579 0.73500001 1.74 50 0 0 0 46.278229
1.753 0.79500002 1.774 48 0 0 0 46.283176
1.923 0.86299998 1.795 45 0 0 0 46.288124
1.39 0.70599997 1.701 48 0 0 0 46.293072
1.557 0.76499999 1.733 48 0 0 0 46.298016
1.729 0.83200002 1.768 44 0 0 0 46.302963
1.9 0.90600002 1.795 47 0 0 0 46.307911
1.375 0.73299998 1.7 46 0 0 0 46.312855
1.536 0.796 1.728 50 0 0 0 46.317802
1.702 0.866 1.76 43 0 0 0 46.322754
1.872 0.94700003 1.79 49 0 0 0 46.327702
1.359 0.75999999 1.697 44 0 0 0 46.332649
1.517 0.82800001 1.725 52 0 0 0 46.337593
1.675 0.89999998 1.753 43 0 0 0 46.342541
1.845 0.98799998 1.7869999 47 0 0 0 46.347488
1.34 0.78600001 1.692 51 0 0 0 46.352432
1.495 0.85799998 1.72 49 0 0 0 46.35738
1.649 0.935 1.748 43 0 0 0 46.362328
1.816 1.028 1.783 46 0 0 0 46.367275
1.323 0.81199998 1.689 44 0 0 0 46.372223
1.472 0.88700002 1.715 49 0 0 0 46.377167
1.622 0.96799999 1.743 49 0 0 0 46.382114
1.779 1.063 1.772 46 0 0 0 46.387066
1.302 0.83600003 1.682 47 0 0 0 46.39201
1.452 0.91799998 1.7130001 50 0 0 0 46.396957
1.596 1.002 1.739 46 0 0 0 46.401905
1.74 1.096 1.76 46 0 0 0 46.406853
1.285 0.86299998 1.681 47 0 0 0 46.4118
1.429 0.94700003 1.71 52 0 0 0 46.416744
1.567 1.033 1.732 44 0 0 0 46.421692
1.707 1.131 1.755 46 0 0 0 46.42664
1.262 0.884 1.671 47 0 0 0 46.431583
1.406 0.97600001 1.706 48 0 0 0 46.436531
1.5420001 1.067 1.7309999 46 0 0 0 46.441479
1.676 1.168 1.752 45 0 0 0 46.446426
1.244 0.91000003 1.67 47 0 0 0 46.451378
1.3839999 1.005 1.704 48 0 0 0 46.456322
1.5089999 1.095 1.722 46 0 0 0 46.461269
1.636 1.198 1.7410001 38 0 0 0 46.466217
1.226 0.935 1.668 47 0 0 0 46.820244
1.359 1.031 1.698 53 0 0 0 46.825191
1.476 1.123 1.7130001 41 0 0 0 46.830135
1.596 1.228 1.7309999 42 0 0 0 46.835083
1.207 0.95899999 1.665 49 0 0 0 46.840031
1.321 1.049 1.679 39 0 0 0 46.844978
1.4450001 1.152 1.7079999 46 0 0 0 46.84993
1.561 1.26 1.726 42 0 0 0 46.854874
1.184 0.98100001 1.658 46 0 0 0 46.859821
1.2970001 1.076 1.677 39 0 0 0 46.864769
1.41 1.176 1.697 48 0 0 0 46.869713
1.518 1.285 1.7130001 41 0 0 0 46.87466
1.165 1.005 1.6569999 50 0 0 0 46.879608
1.27 1.1 1.67 38 0 0 0 46.884556
1.377 1.2029999 1.6900001 47 0 0 0 46.889503
1.4809999 1.314 1.7079999 40 0 0 0 46.894447
1.145 1.029 1.656 46 0 0 0 46.899395
1.243 1.124 1.665 40 0 0 0 46.904343
1.347 1.2309999 1.687 45 0 0 0 46.909286
1.441 1.34 1.699 43 0 0 0 46.914234
1.1210001 1.05 1.649 45 0 0 0 46.919186
1.2180001 1.15 1.664 40 0 0 0 46.924133
1.312 1.2539999 1.679 46 0 0 0 46.929081
1.4 1.364 1.6900001 41 0 0 0 46.934025
1.098 1.071 1.6440001 46 0 0 0 46.938972
1.187 1.17 1.654 44 0 0 0 46.94392
1.281 1.28 1.676 47 0 0 0 46.948864
1.359 1.3890001 1.683 42 0 0 0 46.953812
1.076 1.092 1.64 43 0 0 0 46.958759
1.16 1.193 1.651 42 0 0 0 46.963707
1.238 1.294 1.658 38 0 0 0 46.968655
1.317 1.41 1.673 46 0 0 0 46.973598
1.05 1.1109999 1.632 43 0 0 0 46.978546
1.13 1.2130001 1.643 41 0 0 0 46.983498
1.206 1.319 1.655 39 0 0 0 46.988441
1.276 1.433 1.666 43 0 0 0 46.993389
1.027 1.131 1.6289999 43 0 0 0 46.998337
1.104 1.238 1.642 40 0 0 0 47.003284
1.168 1.336 1.6440001 41 0 0 0 47.008232
1.233 1.451 1.656 41 0 0 0 47.013176
1.002 1.15 1.622 38 0 0 0 47.018124
1.072 1.255 1.633 37 0 0 0 47.023071
