# .PCD v0.7 - Point Cloud Data file format
VERSION 0.7
FIELDS x y z intensity normal_x normal_y normal_z curvature
SIZE 4 4 4 4 4 4 4 4
TYPE F F F F F F F F
COUNT 1 1 1 1 1 1 1 1
WIDTH 920
HEIGHT 1
VIEWPOINT 0 0 0 1 0 0 0
POINTS 920
DATA ascii
3.3645287 1.511831 0.010664127 21 0 0 0 0.074205004
6.5269628 2.6411357 0.47638354 69 0 0 0 0.079152003
3.3942766 1.454451 0.16610762 117 0 0 0 0.084099002
3.4161499 1.5451018 0.089118883 20 0 0 0 0.089046001
3.3842995 1.6201025 0.010729757 10 0 0 0 0.093993001
3.5210383 1.5163956 0.2535606 79 0 0 0 0.09894
3.4811933 1.5877916 0.16795367 47 0 0 0 0.103887
3.4144447 1.6423154 0.087597102 41 0 0 0 0.108834
3.486551 1.5940613 0.24712682 108 0 0 0 0.118728
3.4293704 1.6592002 0.16306226 41 0 0 0 0.123675
3.3892603 1.7295458 0.086446047 13 0 0 0 0.128622
3.4286339 1.6617544 0.23906495 117 0 0 0 0.13851599
3.3642123 1.7231873 0.15780409 18 0 0 0 0.143463
3.3786805 1.7290888 0.23219629 48 0 0 0 0.15830401
2.4366238 1.3881869 0.061236575 0 0 0 0 0.168198
2.3684878 1.4265648 0.0087674018 5 0 0 0 0.173145
3.3411927 1.8068839 0.22569068 5 0 0 0 0.178092
2.3815463 1.4326811 0.059123542 0 0 0 0 0.187986
2.3956747 1.5214885 0.0089440281 18 0 0 0 0.19293299
3.2779462 1.8677948 0.21846238 7 0 0 0 0.19788
2.2930682 1.3802328 0.10267361 0 0 0 0 0.20282701
2.3820014 1.510771 0.057553269 5 0 0 0 0.207774
2.3777959 1.5933654 0.0088920947 31 0 0 0 0.21272101
3.2198915 1.9324863 0.21038206 7 0 0 0 0.217668
2.3992791 1.5207193 0.10603276 5 0 0 0 0.222615
2.2995191 2.5310721 0.10723603 44 0 0 0 0.223088
2.3711379 1.5823457 0.056670554 11 0 0 0 0.227562
2.1569526 2.5245633 0.069706641 49 0 0 0 0.228035
3.0665896 2.1627672 0.011849087 6 0 0 0 0.232509
2.4168198 3.0018175 0.045693912 2 0 0 0 0.23298199
3.1586645 1.9933124 0.20220327 9 0 0 0 0.23745599
4.0680985 5.3859911 0.026245611 86 0 0 0 0.237929
2.3719587 1.58102 0.10268495 5 0 0 0 0.242403
2.188148 2.5210249 0.09744332 48 0 0 0 0.24287599
3.0831516 2.1636567 0.073260605 7 0 0 0 0.24735001
2.4533701 3.0080347 0.07661473 1 0 0 0 0.247823
3.0178051 2.2380042 0.012057357 6 0 0 0 0.25229701
2.3897824 3.1151483 0.043646462 0 0 0 0 0.25277001
2.4084749 1.5961282 0.1516621 5 0 0 0 0.25724399
3.8547895 5.3633466 0.025885586 89 0 0 0 0.25771701
3.0825016 2.1583176 0.13121659 7 0 0 0 0.262191
2.1049883 2.5387557 0.08949513 1 0 0 0 0.26266399
3.0292709 2.2351344 0.070322722 7 0 0 0 0.267138
2.4082396 3.0961435 0.072984897 1 0 0 0 0.267611
2.9596996 2.306637 0.013002173 6 0 0 0 0.27208501
3.9252059 5.3730102 0.069645323 98 0 0 0 0.272558
3.0442784 2.1175954 0.18805923 43 0 0 0 0.27703199
3.6453004 5.3365259 0.025598017 88 0 0 0 0.27750501
3.0305116 2.2267153 0.12730746 7 0 0 0 0.28197899
2.9637659 2.2931018 0.068026856 6 0 0 0 0.286926
3.9905121 5.3818793 0.11627633 91 0 0 0 0.28739899
2.9149945 2.3836949 0.013320724 7 0 0 0 0.29187301
3.719878 5.3470402 0.064462885 92 0 0 0 0.292346
2.9973116 2.1847906 0.18126534 58 0 0 0 0.29682001
3.4562681 5.3198123 0.025867986 92 0 0 0 0.29729301
2.9629946 2.2827888 0.12195127 7 0 0 0 0.30176699
4.0718379 5.3870883 0.15627457 92 0 0 0 0.30224001
2.9491668 2.3938727 0.067210756 8 0 0 0 0.306714
3.7895005 5.3597622 0.10521922 89 0 0 0 0.30718699
2.8225715 2.4228041 0.013265509 70 0 0 0 0.31166101
3.5259106 5.3285809 0.058601383 94 0 0 0 0.312134
2.9442198 2.2492514 0.17430727 127 0 0 0 0.31660801
3.2596323 5.2894158 0.025878726 88 0 0 0 0.317081
2.9472265 2.3786199 0.11907849 9 0 0 0 0.32155499
3.8691063 5.3680892 0.13919149 95 0 0 0 0.32202801
2.8401806 2.4187157 0.063671686 42 0 0 0 0.326502
3.5905304 5.3385525 0.094219387 96 0 0 0 0.32697499
3.3303959 5.2981677 0.053638261 105 0 0 0 0.33192199
2.8869567 2.3098903 0.1672267 150 0 0 0 0.33639601
3.0720105 5.2586265 0.025108993 104 0 0 0 0.336869
2.8674593 2.4292238 0.11339425 8 0 0 0 0.34134299
3.6712375 5.3458691 0.1222114 93 0 0 0 0.34181601
3.3943186 5.3112183 0.082254753 102 0 0 0 0.34676301
3.1412482 5.275485 0.047875397 112 0 0 0 0.35170999
2.8371012 2.3792181 0.1593751 150 0 0 0 0.35618401
2.8928163 5.2374725 0.024600528 84 0 0 0 0.356657
2.7572215 2.4461381 0.10578076 49 0 0 0 0.36113101
3.4774029 5.3254566 0.10734268 94 0 0 0 0.36160401
2.5976617 2.4334395 0.055804688 6 0 0 0 0.36607799
3.2038765 5.2796102 0.072409883 93 0 0 0 0.36655101
2.435715 2.4157937 0.012745619 6 0 0 0 0.371025
2.9663022 5.2571797 0.042485051 78 0 0 0 0.37149799
2.7756655 2.4360342 0.15217252 119 0 0 0 0.375972
2.7196147 5.2160511 0.024238698 64 0 0 0 0.376445
2.6092556 2.4246626 0.09803649 5 0 0 0 0.38091901
3.2914076 5.3006992 0.091642715 92 0 0 0 0.381392
2.4638865 2.4183187 0.052443754 5 0 0 0 0.38586599
3.0301139 5.2632804 0.063058533 76 0 0 0 0.38633901
2.3016047 2.3946602 0.012345202 6 0 0 0 0.39081299
2.7963254 5.2386465 0.038216881 82 0 0 0 0.39128599
2.6829793 2.4641995 0.14304994 2 0 0 0 0.39576
2.556489 5.1961865 0.024132943 59 0 0 0 0.39623299
2.4744921 2.4076092 0.090640061 5 0 0 0 0.40070701
3.1093643 5.2747631 0.076034695 79 0 0 0 0.40118
2.3119774 2.3769732 0.047496822 4 0 0 0 0.40565401
2.8635616 5.251636 0.053910874 88 0 0 0 0.40612701
2.1723573 2.3703079 0.012046904 4 0 0 0 0.41060099
2.6324537 5.2218499 0.033108737 47 0 0 0 0.41107401
2.7695832 2.6586299 0.14321829 7 0 0 0 0.415548
2.4285812 5.2488489 0.024289533 23 0 0 0 0.41602099
2.4115455 2.4544573 0.086348906 7 0 0 0 0.420495
2.9437768 5.2600989 0.062892742 82 0 0 0 0.420968
2.1932719 2.3631873 0.044513479 5 0 0 0 0.42544201
2.6853178 5.2014642 0.044266406 63 0 0 0 0.425915
2.0469308 2.3417814 0.011819988 6 0 0 0 0.43038899
2.5261903 5.3096223 0.029986065 22 0 0 0 0.43086201
2.5587981 2.5708756 0.12857735 28 0 0 0 0.43533599
2.2509561 5.172554 0.024521111 42 0 0 0 0.43580899
2.3738787 2.5302227 0.082834244 41 0 0 0 0.440283
2.7713671 5.2267137 0.049482699 73 0 0 0 0.44075599
2.2163477 2.5013394 0.043825388 39 0 0 0 0.44523001
2.5770907 5.287354 0.036084015 22 0 0 0 0.445703
1.9391387 2.3274932 0.01210284 5 0 0 0 0.45017701
2.307303 5.1570907 0.024788871 65 0 0 0 0.45065001
2.4185693 2.5410724 0.11697815 45 0 0 0 0.45512399
2.2547987 5.5357537 0.025611248 0 0 0 0 0.45559701
2.2584839 2.5213218 0.075957984 45 0 0 0 0.460071
2.6150553 5.2176485 0.035601303 52 0 0 0 0.46054399
2.1418839 2.5376649 0.041198246 26 0 0 0 0.465018
2.3828514 5.192822 0.02780843 34 0 0 0 0.465491
2.407764 3.0377245 0.014429246 10 0 0 0 0.46996501
2.2491863 5.3608704 0.021484442 0 0 0 0 0.470438
1.9518718 5.1356215 0.023999291 22 0 0 0 0.47538501
2.49263 5.2741561 0.02291033 22 0 0 0 0.48033199
2.2365365 5.1862822 0.019189272 20 0 0 0 0.48527899
2.09517 5.3406267 0.016603831 3 0 0 0 0.490226
1.8094453 5.1308546 0.023490122 49 0 0 0 0.49517301
2.2893884 5.1540241 0.0092749167 67 0 0 0 0.50011998
2.1881669 5.4267063 0.010323884 3 0 0 0 0.50506699
1.8636944 5.1065531 0.011655149 64 0 0 0 0.510014
1.7296373 5.2985172 0.023461998 4 0 0 0 0.514961
2.2097788 5.2967381 -0.0028935194 20 0 0 0 0.51990801
1.9308889 5.1277142 0.0023875202 56 0 0 0 0.52485502
1.7836769 5.2672448 0.0075818407 5 0 0 0 0.52980202
1.6028064 5.3300967 0.02353641 5 0 0 0 0.53474897
2.0533495 5.2626362 -0.015909474 22 0 0 0 0.53969598
1.8026007 5.1443982 -0.0056592133 19 0 0 0 0.54464298
1.6626787 5.3156104 0.0038901817 6 0 0 0 0.54958999
1.8574131 5.1051188 -0.026567115 69 0 0 0 0.559484
0.95807201 5.0578151 -0.10369727 18 0 0 0 0.56007099
1.7134079 5.2899423 -0.014620521 6 0 0 0 0.56443101
0.79780608 5.2509093 -0.065910019 98 0 0 0 0.565018
1.5200878 5.2962327 -0.0002434549 1 0 0 0 0.56937802
0.60966223 5.2287827 -0.026555516 98 0 0 0 0.569965
1.3767762 5.5134974 0.023502283 2 0 0 0 0.57432503
0.42442805 5.2094727 0.021887936 110 0 0 0 0.57491201
1.7838709 5.285068 -0.040972382 4 0 0 0 0.57927197
0.86968011 5.263166 -0.12013794 97 0 0 0 0.57985902
1.5958766 5.3471513 -0.022158051 8 0 0 0 0.58421898
0.66866541 5.2255316 -0.073175639 90 0 0 0 0.58480603
1.4412932 5.508893 -0.0049908985 2 0 0 0 0.58916599
0.48613665 5.2191539 -0.030596917 95 0 0 0 0.58975297
1.2344135 5.4876466 0.023914393 2 0 0 0 0.59411299
0.30102319 5.2048144 0.021879358 88 0 0 0 0.59469998
1.6617475 5.3264885 -0.052708548 6 0 0 0 0.59906
0.74069792 5.2398024 -0.13038941 94 0 0 0 0.59964699
0.54434299 5.2189589 -0.080220111 98 0 0 0 0.60459399
1.3039556 5.5038757 -0.0093444083 2 0 0 0 0.60895401
0.36232734 5.2035227 -0.033676315 98 0 0 0 0.609541
1.0927712 5.4547625 0.023306688 3 0 0 0 0.61390102
0.18048199 5.2200484 0.022050668 88 0 0 0 0.61448801
1.5184168 5.294754 -0.064356051 3 0 0 0 0.61884803
0.61414665 5.2263403 -0.14052624 96 0 0 0 0.61943501
1.3653702 5.4964108 -0.03892865 4 0 0 0 0.62379497
0.4206298 5.2033496 -0.087298058 94 0 0 0 0.62438202
1.1650323 5.4859061 -0.012805304 3 0 0 0 0.62874198
0.24608026 5.3607397 -0.038622614 127 0 0 0 0.62932903
0.90899348 5.1664572 0.022282628 18 0 0 0 0.63368899
0.059680752 5.2292857 0.022184171 86 0 0 0 0.63427597
1.4225795 5.433136 -0.077924244 2 0 0 0 0.63863599
0.48948726 5.2097964 -0.15163316 99 0 0 0 0.63922298
1.2278882 5.4864111 -0.046311956 2 0 0 0 0.643583
0.30190271 5.2786174 -0.09575545 97 0 0 0 0.64416999
0.94610524 5.0329747 -0.015579707 17 0 0 0 0.64853001
0.11721366 5.1371183 -0.040963575 14 0 0 0 0.64911699
0.80001569 5.2632737 0.022178132 98 0 0 0 0.65347701
-0.064841896 5.3137584 0.021642741 90 0 0 0 0.654064
1.2825043 5.4072604 -0.089458041 1 0 0 0 0.65842402
0.36562967 5.1892052 -0.16174114 90 0 0 0 0.65901101
1.081251 5.4267607 -0.05418675 3 0 0 0 0.66337103
0.1683162 4.9470882 -0.09680175 48 0 0 0 0.66395801
0.86469436 5.2777696 -0.020209054 93 0 0 0 0.66831797
-0.0026017325 5.3275161 -0.045810916 93 0 0 0 0.66890502
0.67062134 5.2358541 0.021900987 97 0 0 0 0.67326498
-0.18711551 5.2890229 0.02155694 20 0 0 0 0.67385203
1.1179897 5.23627 -0.096373603 3 0 0 0 0.67821199
0.24949241 5.3204556 -0.17682934 150 0 0 0 0.67879897
0.92094713 5.2385564 -0.059093453 18 0 0 0 0.68315899
0.054744832 5.1622834 -0.1083644 56 0 0 0 0.68374598
0.73732632 5.24928 -0.023444019 98 0 0 0 0.688106
-0.12690681 5.2998924 -0.049962476 94 0 0 0 0.68869299
0.54786915 5.2231569 0.021866191 99 0 0 0 0.69305301
-0.28652993 4.8909492 0.019971963 0 0 0 0 0.69363999
0.12582716 5.3268833 -0.18778172 92 0 0 0 0.698587
-0.06721323 5.1866312 -0.11617477 67 0 0 0 0.70353401
-0.2315771 4.8970289 -0.049699016 0 0 0 0 0.70848101
-0.39984837 4.8638315 0.018091489 0 0 0 0 0.71342802
0.0012333629 5.2893009 -0.1979963 88 0 0 0 0.71837503
-0.34569761 4.8739562 -0.052576657 1 0 0 0 0.72826898
-0.51156694 4.8516436 0.018333524 1 0 0 0 0.73321599
-0.12353703 5.2707415 -0.20810905 52 0 0 0 0.73816299
-0.29224372 4.891118 -0.12322344 0 0 0 0 0.74311
-0.45775285 4.8517995 -0.056398451 1 0 0 0 0.74805701
-0.6452893 5.0015569 0.018937599 18 0 0 0 0.75300401
-0.40218231 4.8248348 -0.12823659 2 0 0 0 0.76289803
-0.57246274 4.8607836 -0.06011175 3 0 0 0 0.76784497
-0.78076267 5.1105127 0.018275717 150 0 0 0 0.77279198
-0.34129602 4.8447614 -0.21169381 1 0 0 0 0.77773899
-0.51634026 4.8218036 -0.13500322 4 0 0 0 0.782686
-0.69495189 4.8981295 -0.063855037 102 0 0 0 0.787633
-0.91890794 5.2045612 0.018469477 94 0 0 0 0.79258001
-1.2338094 3.096766 -0.22872721 7 0 0 0 0.79401898
-0.45594442 4.8287587 -0.22154413 2 0 0 0 0.79752702
-2.178359 4.9724498 -0.24113432 37 0 0 0 0.79896599
-0.65217006 4.9858961 -0.14637414 65 0 0 0 0.80247402
-2.3865652 5.0166984 -0.12085462 112 0 0 0 0.803913
-0.86176044 5.2036738 -0.072192512 95 0 0 0 0.80742103
-2.5050428 4.8748059 0.012564244 21 0 0 0 0.80886
-1.0415295 5.194839 0.018468542 94 0 0 0 0.81236798
-2.1381233 5.0146646 -0.38397604 63 0 0 0 0.81380701
-0.58311272 4.9364495 -0.23701738 52 0 0 0 0.81731498
-2.3321011 5.0011635 -0.25166672 150 0 0 0 0.81875402
-0.80561721 5.2038183 -0.16087286 116 0 0 0 0.82226199
-2.5049355 4.9647565 -0.12397607 50 0 0 0 0.82370102
-0.98532826 5.193017 -0.076222271 96 0 0 0 0.827209
-2.6787872 4.9323449 0.011715031 101 0 0 0 0.82864797
-1.1635408 5.1760788 0.018434253 97 0 0 0 0.832156
-2.2618444 4.9740124 -0.3941673 91 0 0 0 0.83359498
-0.69669539 4.8993697 -0.24595456 165 0 0 0 0.83710301
-2.4706402 4.9891653 -0.2600548 88 0 0 0 0.83854198
-0.9308089 5.2002573 -0.16790338 89 0 0 0 0.84205002
-2.5873754 4.8411899 -0.12662566 102 0 0 0 0.84348899
-1.1090497 5.1793547 -0.079270341 96 0 0 0 0.84699702
-2.8213816 4.9234695 0.011251759 89 0 0 0 0.848436
-1.2855086 5.1583161 0.018408028 105 0 0 0 0.85194403
-2.4187665 4.9958863 -0.40981299 101 0 0 0 0.853383
-0.86713809 5.2031889 -0.27339312 90 0 0 0 0.85689098
-2.4065046 4.5829015 -0.24773011 46 0 0 0 0.85833001
-1.0528258 5.1775384 -0.17496112 88 0 0 0 0.86183798
-2.7873888 4.9359365 -0.13390118 102 0 0 0 0.86327702
-1.2318344 5.1636548 -0.083305828 98 0 0 0 0.86678499
-2.951221 4.8850179 0.0099341013 69 0 0 0 0.86822402
-1.3124769 4.790132 0.01574312 80 0 0 0 0.871732
-2.3718011 4.612349 -0.39177424 18 0 0 0 0.87317097
-0.98904032 5.1814852 -0.28344324 90 0 0 0 0.876679
-2.7068405 4.8712769 -0.27235767 89 0 0 0 0.87811798
-1.1774695 5.1629453 -0.1830361 96 0 0 0 0.88162601
-2.9301901 4.9200864 -0.13840662 104 0 0 0 0.88306499
-1.3066157 4.9636836 -0.084196061 88 0 0 0 0.88657302
-2.9527068 4.6438241 0.0095878337 30 0 0 0 0.88801199
-1.4317092 4.7892618 0.015878145 68 0 0 0 0.89152002
-2.6680253 4.8956304 -0.43033445 62 0 0 0 0.892959
-1.1135695 5.1679068 -0.29451063 91 0 0 0 0.89646697
-2.8551693 4.8637052 -0.28195161 90 0 0 0 0.89790601
-1.2877089 5.0896521 -0.18808444 60 0 0 0 0.90141398
-3.0724239 4.8941989 -0.14295159 106 0 0 0 0.90285301
-1.4752699 5.1121359 -0.091431111 132 0 0 0 0.90636098
-3.0831962 4.6134038 0.0083015263 26 0 0 0 0.90780002
-1.6527493 5.0960751 0.016256936 95 0 0 0 0.91130799
-2.8312857 4.9097638 -0.44616917 75 0 0 0 0.91274703
-1.2401391 5.1534133 -0.30563042 94 0 0 0 0.916255
-3.0141156 4.8646049 -0.29275233 90 0 0 0 0.91769397
-1.4251086 5.1266603 -0.19718011 82 0 0 0 0.921202
-1.5798887 5.0315695 -0.09338063 150 0 0 0 0.92614901
-3.4072263 4.8535852 0.0078568431 85 0 0 0 0.92758799
-1.781146 5.0915933 0.016155411 96 0 0 0 0.93109602
-2.9780641 4.8901296 -0.45879054 74 0 0 0 0.93253499
-1.3641247 5.1297913 -0.31573629 90 0 0 0 0.93604302
-1.5518594 5.1101432 -0.20431115 81 0 0 0 0.94098997
-1.6566497 4.8777275 -0.095061526 150 0 0 0 0.94593698
-3.5830257 4.8641443 0.0077129379 120 0 0 0 0.94737601
-1.9090377 5.0750818 0.015001459 96 0 0 0 0.95088398
-1.4889982 5.1082129 -0.32685098 86 0 0 0 0.95583099
-1.6794553 5.0966687 -0.21244451 81 0 0 0 0.960778
-1.7884269 4.8854265 -0.099176884 83 0 0 0 0.965725
-3.7382512 4.8407855 0.0068785488 118 0 0 0 0.96716398
-2.0314348 5.0473142 0.014919573 97 0 0 0 0.97067201
-1.6184343 5.096839 -0.33801761 83 0 0 0 0.97561902
-1.1341523 3.1888351 -0.13778412 1 0 0 0 0.98056602
-3.6665354 4.7857208 -0.1637443 5 0 0 0 0.982005
-1.8689702 4.7597704 -0.10079134 46 0 0 0 0.98551297
-3.9033539 4.8198595 0.0048223934 122 0 0 0 0.98695201
-2.1696033 5.0482521 0.014618255 100 0 0 0 0.99045998
-1.1131339 3.2355115 -0.2220495 3 0 0 0 0.99540699
-3.519172 4.6352177 -0.32107291 3 0 0 0 0.99684602
-1.1924368 3.1142762 -0.13958679 4 0 0 0 1.0003541
-3.8532214 4.7957821 -0.170149 98 0 0 0 1.001793
-2.018018 4.8072553 -0.10610025 71 0 0 0 1.005301
-4.0580544 4.7854614 0.0039442452 107 0 0 0 1.00674
-2.1550424 4.714294 0.013146484 21 0 0 0 1.0102479
-3.3250465 4.4326396 -0.4765664 2 0 0 0 1.011687
-1.166159 3.1437085 -0.22382024 26 0 0 0 1.015195
-3.4117663 4.2801251 -0.30742267 54 0 0 0 1.016634
-1.2800928 3.1220877 -0.14564314 0 0 0 0 1.020142
-4.0185733 4.766881 -0.1762533 79 0 0 0 1.0215811
-2.176753 4.8621626 -0.11159901 19 0 0 0 1.025089
-3.9953218 4.5004525 0.0029060736 23 0 0 0 1.026528
-2.4307044 5.0084305 0.013157463 107 0 0 0 1.030036
-3.4088185 4.3231401 -0.481159 48 0 0 0 1.0314749
-3.5684679 4.2638907 -0.31725278 51 0 0 0 1.036422
-3.962779 4.4861441 -0.17243291 21 0 0 0 1.041369
-3.9731617 4.2722511 0.0012067334 65 0 0 0 1.046316
-3.5958879 4.3403068 -0.50053596 33 0 0 0 1.051263
-3.7548532 4.2769837 -0.33063248 45 0 0 0 1.05621
-3.9551549 4.2705636 -0.17141046 78 0 0 0 1.061157
-4.1133046 4.2272091 0.00062332553 72 0 0 0 1.0661041
-3.7501452 4.3089738 -0.51438844 41 0 0 0 1.071051
-3.9464293 4.2862868 -0.34315458 40 0 0 0 1.0759979
-4.1087546 4.2361379 -0.17625864 75 0 0 0 1.080945
-4.2824197 4.206439 -0.000519216 51 0 0 0 1.085892
-4.3134046 4.7210393 -0.58462274 93 0 0 0 1.090839
-4.1116562 4.2574058 -0.35425192 43 0 0 0 1.095786
-4.2846327 4.2176991 -0.18355134 75 0 0 0 1.100733
-4.4596109 4.1840129 -0.001861945 66 0 0 0 1.10568
-4.5033774 4.6952643 -0.60229468 86 0 0 0 1.1106271
-4.2799902 4.2266479 -0.36443138 54 0 0 0 1.115574
-4.4628763 4.1913457 -0.18994132 68 0 0 0 1.1205209
-4.6465735 4.1670108 -0.003406636 71 0 0 0 1.125468
-4.6899147 4.6563249 -0.61995393 78 0 0 0 1.130415
-4.4600883 4.2004118 -0.37686607 55 0 0 0 1.135362
-4.6548009 4.1725869 -0.19661488 69 0 0 0 1.140309
-4.8938065 4.1916394 -0.0051631886 102 0 0 0 1.145256
-4.6589751 4.4066339 -0.60855132 59 0 0 0 1.150203
-4.7252064 4.2419391 -0.3959637 72 0 0 0 1.1551501
-4.8450475 4.145751 -0.20429026 98 0 0 0 1.160097
-4.8988547 4.0056386 -0.0062753111 6 0 0 0 1.165044
-4.6946998 4.2309422 -0.60634112 76 0 0 0 1.169991
-4.811635 4.1175156 -0.39968708 93 0 0 0 1.174938
-4.7332211 4.0593805 -0.6051746 78 0 0 0 1.189779
-8.2140894 6.0902195 -0.34215468 1 0 0 0 1.219461
-8.1658182 6.036109 -0.66336256 4 0 0 0 1.234302
-8.194376 5.783987 -0.34031084 2 0 0 0 1.239249
-8.1142998 5.7054372 -0.65388995 4 0 0 0 1.25409
-8.125515 5.4576106 -0.33640179 3 0 0 0 1.259037
-8.0786362 5.3919101 -0.64642841 5 0 0 0 1.893381
-8.0985785 5.1685266 -0.3330026 6 0 0 0 1.8983279
-8.0249557 5.085197 -0.63776779 7 0 0 0 1.913169
-8.0588989 4.8814759 -0.33156911 7 0 0 0 1.918116
-7.8889141 4.7409 -0.62335831 5 0 0 0 1.9329571
-7.8312721 4.4992642 -0.32119706 11 0 0 0 1.937904
-7.7542658 4.4106784 -0.60890645 7 0 0 0 1.952745
-7.7806349 4.2347622 -0.3183825 10 0 0 0 1.957692
-7.7175117 4.1507564 -0.60339504 9 0 0 0 1.972533
-7.9509583 4.0888534 -0.32515877 12 0 0 0 1.9774801
-7.8770571 3.9983921 -0.61195093 7 0 0 0 1.992321
-7.9165444 3.8420682 -0.32363126 11 0 0 0 1.997268
-6.9667263 3.2471392 -0.03027611 1 0 0 0 2.0022149
-7.8546553 3.7531033 -0.60769868 3 0 0 0 2.012109
-7.8768988 3.6010585 -0.32094821 9 0 0 0 2.017056
-7.8249822 3.5145035 -0.6022377 3 0 0 0 2.0318971
-7.8439369 3.3663542 -0.32038957 11 0 0 0 2.036844
-7.7941976 3.2778649 -0.59773976 2 0 0 0 2.0516851
-7.8115668 3.1416783 -0.31879029 8 0 0 0 2.056632
-7.7610693 3.0491345 -0.59314346 2 0 0 0 2.0714729
-7.7740712 2.9197872 -0.31705457 13 0 0 0 2.0764201
-7.7021003 2.8172853 -0.58595246 11 0 0 0 2.0912609
-7.7383986 2.7019782 -0.31533968 12 0 0 0 2.0962081
-7.6872783 2.6043589 -0.58270341 10 0 0 0 2.1110489
-7.7123027 2.4935942 -0.31480038 13 0 0 0 2.1159959
-7.6376262 2.3879299 -0.57664961 10 0 0 0 2.130837
-7.6850343 2.2891641 -0.31421176 12 0 0 0 2.1357839
-7.6203489 2.1849155 -0.57428879 7 0 0 0 2.150625
-7.6724033 2.0933673 -0.31392199 9 0 0 0 2.1555719
-7.2905068 -0.92170984 -0.1005983 19 0 0 0 2.345973
-7.2165146 -1.0877026 -0.3137731 20 0 0 0 2.3608141
-7.2643852 -1.0860201 -0.1038181 21 0 0 0 2.365761
-4.2059112 -0.73221588 -0.30998674 0 0 0 0 2.3756549
-7.1875687 -1.2551479 -0.31494269 18 0 0 0 2.3806019
-7.1998568 -1.2419512 -0.10708918 14 0 0 0 2.3855491
-4.1507568 -0.82385755 -0.43819663 1 0 0 0 2.390496
-4.1790628 -0.8294993 -0.30784816 0 0 0 0 2.395443
-7.1625962 -1.4214286 -0.31519911 19 0 0 0 2.4003899
-7.2261152 -1.4140429 -0.11058269 18 0 0 0 2.4053371
-4.1522331 -0.92893517 -0.4377667 0 0 0 0 2.410284
-4.1825542 -0.93548554 -0.30847055 0 0 0 0 2.415231
-7.1618657 -1.5936759 -0.31705779 17 0 0 0 2.4201779
-7.192884 -1.5766461 -0.11462568 19 0 0 0 2.4251249
-4.130569 -1.0300068 -0.43477002 0 0 0 0 2.4300721
-7.0668688 -1.7556075 -0.52171475 9 0 0 0 2.435019
-7.1268754 -1.7603759 -0.31808048 18 0 0 0 2.439966
-7.172761 -1.7416929 -0.11898991 19 0 0 0 2.4449129
-4.1322103 -1.1390805 -0.43436477 0 0 0 0 2.4498601
-7.0583596 -1.9322015 -0.52141273 7 0 0 0 2.454807
-7.1029534 -1.9286057 -0.31937149 17 0 0 0 2.459754
-7.1192737 -1.898157 -0.12152318 15 0 0 0 2.4647009
-6.6153917 -3.9830854 -0.33488527 14 0 0 0 2.4654989
-6.6671348 -3.9128458 -0.17666824 13 0 0 0 2.4704461
-7.0317407 -2.1065633 -0.52067256 6 0 0 0 2.4745951
-7.0811105 -2.098748 -0.32072133 18 0 0 0 2.479542
-7.133698 -2.0757444 -0.12676615 17 0 0 0 2.484489
-6.5597568 -4.1596584 -0.33647507 7 0 0 0 2.485287
-6.6204176 -4.0890207 -0.18146624 15 0 0 0 2.4902339
-7.0152102 -2.2834916 -0.52118325 4 0 0 0 2.4943831
-7.0553541 -2.2710581 -0.32199049 16 0 0 0 2.49933
-7.0640306 -2.2288857 -0.12990156 14 0 0 0 2.504277
-6.299325 -4.1998506 -0.32752204 5 0 0 0 2.505075
-6.3474922 -4.1226807 -0.18118748 9 0 0 0 2.5100219
-7.0069876 -2.4670784 -0.52092409 1 0 0 0 2.5141709
-7.0376458 -2.4450207 -0.32445765 17 0 0 0 2.5191181
-7.0563045 -2.4034111 -0.13460681 14 0 0 0 2.524065
-6.2818041 -4.4028158 -0.33115023 6 0 0 0 2.524863
-6.308888 -4.3015084 -0.18619183 10 0 0 0 2.52981
-7.0221825 -2.5690506 -0.13864414 14 0 0 0 2.543853
-6.2375288 -4.5879087 -0.33305386 5 0 0 0 2.544651
-6.2746754 -4.4901514 -0.19235192 12 0 0 0 2.549598
-7.0013151 -2.7411253 -0.14402725 14 0 0 0 2.5636411
-6.2162347 -4.7970328 -0.33762595 2 0 0 0 2.5644391
-6.2509322 -4.6903524 -0.19981964 12 0 0 0 2.569386
-6.9755158 -2.9144163 -0.14830047 13 0 0 0 2.5834291
-6.2160101 -4.8860302 -0.20600013 10 0 0 0 2.589174
-6.9527707 -3.0895724 -0.15365537 27 0 0 0 2.6032169
-6.1844807 -5.0915651 -0.21331292 12 0 0 0 2.6089621
-3.6856089 -3.4506707 -0.39698103 75 0 0 0 2.613909
-6.927134 -3.2668588 -0.15795319 15 0 0 0 2.6230049
-6.5665507 -5.6618333 -0.2362757 10 0 0 0 2.6287501
-3.4867651 -3.4262221 -0.37715328 74 0 0 0 2.633697
-6.8847408 -3.5218079 -0.33633414 2 0 0 0 2.637846
-3.5973246 -3.4380906 -0.29377848 73 0 0 0 2.638644
-6.8924389 -3.4435225 -0.16303523 12 0 0 0 2.6427929
-3.706768 -3.4499755 -0.21537872 84 0 0 0 2.6435909
-3.3071718 -3.4079516 -0.35881272 73 0 0 0 2.6534851
-6.8135443 -3.6850338 -0.33648711 14 0 0 0 2.657634
-3.4031413 -3.4093928 -0.2810415 67 0 0 0 2.658432
-6.8721051 -3.628583 -0.16849867 16 0 0 0 2.662581
-3.5167158 -3.4270759 -0.20777062 80 0 0 0 2.663379
-3.6356959 -3.4344771 -0.14157332 83 0 0 0 2.6683259
-3.1187847 -3.3710344 -0.34016883 70 0 0 0 2.6732731
-6.6615386 -3.8056629 -0.3325181 15 0 0 0 2.677422
-3.2294002 -3.3908324 -0.26884031 76 0 0 0 2.67822
-6.6889119 -3.7254701 -0.17067391 14 0 0 0 2.682369
-3.3315079 -3.4009583 -0.20126161 76 0 0 0 2.683167
-3.4514539 -3.410289 -0.14009827 78 0 0 0 2.6881139
-2.9498174 -3.3442919 -0.32303712 71 0 0 0 2.6930611
-3.0531118 -3.3593655 -0.25651285 78 0 0 0 2.6980081
-3.1531465 -3.3705492 -0.19389229 75 0 0 0 2.702955
-3.2762439 -3.3867149 -0.1388405 79 0 0 0 2.707902
-2.7952099 -3.3269327 -0.30829465 84 0 0 0 2.7128489
-2.8889978 -3.3323762 -0.24549708 80 0 0 0 2.7177961
-2.9889998 -3.3455319 -0.18788733 85 0 0 0 2.722743
-3.1069431 -3.3608847 -0.13771138 81 0 0 0 2.72769
-2.6464686 -3.3063188 -0.29367426 89 0 0 0 2.7326369
-2.7403083 -3.3157325 -0.23590013 89 0 0 0 2.7375841
-2.8392169 -3.3289096 -0.18226565 89 0 0 0 2.7425311
-2.9446578 -3.3347597 -0.1357469 78 0 0 0 2.747478
-2.5068207 -3.2883122 -0.28028291 79 0 0 0 2.752425
-2.599586 -3.2987413 -0.22749011 86 0 0 0 2.7573719
-2.6880746 -3.3043287 -0.17757195 82 0 0 0 2.7623191
-2.7976704 -3.3159831 -0.13518213 100 0 0 0 2.767266
-2.3690436 -3.267221 -0.26692075 91 0 0 0 2.772213
-2.4617996 -3.2796273 -0.21813904 92 0 0 0 2.7771599
-2.5555263 -3.2929749 -0.17238563 88 0 0 0 2.7821071
-2.6599681 -3.3038161 -0.13487178 92 0 0 0 2.7870541
-2.2446506 -3.2555618 -0.25492412 96 0 0 0 2.792001
-2.3331485 -3.2641206 -0.21002302 92 0 0 0 2.796948
-2.4216602 -3.2746618 -0.16813339 88 0 0 0 2.8018949
-2.5208263 -3.280704 -0.13347095 83 0 0 0 2.8068421
-2.1198967 -3.2359021 -0.24387833 98 0 0 0 2.811789
-2.2105327 -3.249356 -0.20205383 104 0 0 0 2.816736
-1.4528298 -3.1003504 -0.18052466 48 0 0 0 2.821058
-2.2937686 -3.2550981 -0.16301574 99 0 0 0 2.8216829
-1.5286765 -3.1062968 -0.15832074 51 0 0 0 2.826005
-2.3907776 -3.2602 -0.13329884 96 0 0 0 2.8266301
-1.6066805 -3.1181324 -0.14019953 49 0 0 0 2.8309519
-1.9948286 -3.2082524 -0.23178402 102 0 0 0 2.8315771
-1.6882206 -3.1227679 -0.12912452 49 0 0 0 2.8358991
-2.0822897 -3.2198145 -0.19387597 99 0 0 0 2.836524
-1.3615828 -3.09326 -0.17233649 54 0 0 0 2.8408461
-2.169807 -3.2343581 -0.15898567 96 0 0 0 2.841471
-1.4341093 -3.0933237 -0.15302415 51 0 0 0 2.845793
-2.2691655 -3.2493508 -0.1323768 99 0 0 0 2.8464179
-1.5111098 -3.1061904 -0.13688517 43 0 0 0 2.85074
-1.8822721 -3.1930752 -0.22105061 89 0 0 0 2.8513651
-1.5926639 -3.1128089 -0.12882155 51 0 0 0 2.8556869
-1.9666241 -3.2037499 -0.1860656 105 0 0 0 2.856312
-1.286664 -3.1184926 -0.16670373 107 0 0 0 2.8606341
-2.0530066 -3.2173159 -0.15514435 100 0 0 0 2.861259
-1.3459996 -3.0910847 -0.14793684 58 0 0 0 2.865581
-2.1481495 -3.22946 -0.13242245 99 0 0 0 2.8662059
-1.4174713 -3.0931578 -0.1346117 53 0 0 0 2.870528
-1.7500114 -3.1367066 -0.20763834 45 0 0 0 2.8711531
-1.4979564 -3.0998032 -0.12952372 43 0 0 0 2.8754749
-1.8559296 -3.1874657 -0.17937207 88 0 0 0 2.8761001
-1.1950792 -3.1034062 -0.15846729 97 0 0 0 2.8804221
-1.9413272 -3.2030571 -0.15143904 108 0 0 0 2.881047
-1.2709072 -3.113308 -0.14428522 98 0 0 0 2.8853691
-2.0321932 -3.2103593 -0.13159186 104 0 0 0 2.885994
-1.3313311 -3.0918159 -0.13257685 62 0 0 0 2.890316
-1.645381 -3.1201816 -0.19808641 51 0 0 0 2.8909409
-1.4085619 -3.0935829 -0.12938708 46 0 0 0 2.895263
-1.7222816 -3.1241224 -0.16989277 42 0 0 0 2.8958881
-1.1097407 -3.0940585 -0.15040854 107 0 0 0 2.9002099
-1.8174797 -3.1612868 -0.14730456 66 0 0 0 2.900835
-1.18125 -3.0981197 -0.13909501 103 0 0 0 2.9051571
-1.9225258 -3.1979966 -0.13094553 102 0 0 0 2.905782
-1.2583579 -3.1179392 -0.13099667 98 0 0 0 2.910104
-1.5481408 -3.113344 -0.18976027 50 0 0 0 2.9107289
-1.3300605 -3.1089125 -0.13062087 79 0 0 0 2.915051
-1.6272219 -3.1231792 -0.16464946 57 0 0 0 2.9156761
-1.0231082 -3.0777581 -0.14228369 112 0 0 0 2.9199979
-1.7019001 -3.1251755 -0.14239472 49 0 0 0 2.9206231
-1.0980498 -3.0936661 -0.13411383 103 0 0 0 2.9249451
-1.7930241 -3.1424329 -0.12960771 44 0 0 0 2.92557
-1.1697137 -3.1046896 -0.12884209 107 0 0 0 2.9298921
-1.2447224 -3.1045122 -0.13159108 100 0 0 0 2.934839
-0.94191062 -3.0722289 -0.13534442 110 0 0 0 2.939786
-1.0123039 -3.0763071 -0.12900572 104 0 0 0 2.9447329
-1.0828568 -3.0863585 -0.1267034 104 0 0 0 2.9496801
-1.1613632 -3.0990322 -0.13160256 107 0 0 0 2.954627
-0.8604179 -3.0597048 -0.12836213 122 0 0 0 2.959574
-0.93095189 -3.0687625 -0.1250537 114 0 0 0 2.9645209
-1.0026253 -3.0827579 -0.12479873 102 0 0 0 2.9694681
-1.0766683 -3.0855999 -0.1315417 108 0 0 0 2.9744151
-0.78217477 -3.0530467 -0.12148789 118 0 0 0 2.979362
-0.85159761 -3.0611322 -0.1211489 111 0 0 0 2.984309
-0.92103928 -3.0702121 -0.12181569 111 0 0 0 2.9892559
-0.99407423 -3.0750737 -0.13254665 102 0 0 0 2.9942031
-0.70352918 -3.0373898 -0.1155578 103 0 0 0 2.99915
-0.77422237 -3.0524218 -0.11628529 115 0 0 0 3.004097
-0.84034461 -3.0556185 -0.11984393 114 0 0 0 3.0090439
-0.91687709 -3.0733314 -0.13272491 110 0 0 0 3.0139911
-0.62607443 -3.0256906 -0.10867722 113 0 0 0 3.0189381
-0.69411016 -3.0268047 -0.11226942 103 0 0 0 3.023885
-0.76406682 -3.0508454 -0.11802834 105 0 0 0 3.028832
-0.83388567 -3.0528164 -0.1326694 124 0 0 0 3.0337789
-0.55165845 -3.0148625 -0.10187315 113 0 0 0 3.0387261
-0.61900437 -3.0249951 -0.10849761 106 0 0 0 3.043673
-0.68528605 -3.0341661 -0.11609221 107 0 0 0 3.04862
-0.75732744 -3.0430307 -0.1338222 106 0 0 0 3.0535669
-0.47688246 -2.9960346 -0.096019529 122 0 0 0 3.0585141
-0.54443437 -3.012152 -0.10468075 109 0 0 0 3.0634611
-0.6095863 -3.0193567 -0.11423886 117 0 0 0 3.068408
-0.67958349 -3.028296 -0.13392182 107 0 0 0 3.073355
-0.40469378 -2.9911084 -0.090300858 116 0 0 0 3.0783019
-0.47098961 -3.0022621 -0.10090675 110 0 0 0 3.0832491
-0.53628212 -3.0144472 -0.11349507 112 0 0 0 3.088196
-0.60392159 -3.0154734 -0.1340811 112 0 0 0 3.093143
-0.33325148 -2.980144 -0.084568523 121 0 0 0 3.0980899
-0.39945859 -2.9902887 -0.097167261 120 0 0 0 3.1030371
-0.46374762 -3.0035045 -0.11173791 123 0 0 0 3.1079841
-0.53256869 -3.0104675 -0.13538347 114 0 0 0 3.112931
-0.26293433 -2.9721329 -0.078878954 116 0 0 0 3.117878
-0.32930523 -2.9872632 -0.093508162 113 0 0 0 3.1228249
-0.39238051 -2.9965148 -0.1100298 116 0 0 0 3.1277721
-0.45919943 -3.0045514 -0.13563462 114 0 0 0 3.132719
-0.19353202 -2.9620802 -0.073200785 120 0 0 0 3.137666
-0.25760621 -2.9712901 -0.089745402 119 0 0 0 3.1426129
-0.3218441 -2.9854851 -0.10832056 114 0 0 0 3.1475599
-0.38742617 -2.989552 -0.13687612 116 0 0 0 3.1525071
-0.12400367 -2.949029 -0.067504704 127 0 0 0 3.157454
-0.18932451 -2.9651802 -0.086115353 125 0 0 0 3.162401
-0.2504119 -2.9774883 -0.10760769 109 0 0 0 3.1673479
-0.31709582 -2.9845057 -0.1372045 113 0 0 0 3.1722951
-0.057934545 -2.9468398 -0.061947536 119 0 0 0 3.177242
-0.12080941 -2.9540682 -0.083454549 118 0 0 0 3.182189
-0.18070653 -2.9624169 -0.10589824 118 0 0 0 3.1871359
-0.24578549 -2.9804935 -0.13851668 114 0 0 0 3.1920829
0.011406643 -2.938776 -0.057284214 123 0 0 0 3.1970301
-0.051402982 -2.9450004 -0.079784401 118 0 0 0 3.201977
-0.11348023 -2.959244 -0.10531058 119 0 0 0 3.206924
-0.17590782 -2.9624138 -0.13878848 113 0 0 0 3.2118709
0.078810818 -2.9286337 -0.051655587 126 0 0 0 3.2168181
0.015944839 -2.9378397 -0.077173412 127 0 0 0 3.221765
-0.043920111 -2.9481614 -0.10462765 117 0 0 0 3.226712
-0.10734222 -2.9522779 -0.14013396 111 0 0 0 3.2316589
0.14434321 -2.9154084 -0.046055093 131 0 0 0 3.2366059
0.082354464 -2.928643 -0.073574059 126 0 0 0 3.2415531
0.023492794 -2.9399958 -0.10301068 116 0 0 0 3.2465
-0.03988298 -2.9441023 -0.14051615 113 0 0 0 3.251447
0.21064548 -2.9082131 -0.041469667 130 0 0 0 3.2563939
0.14908127 -2.9124458 -0.070931479 126 0 0 0 3.2613411
0.090013981 -2.9297831 -0.10240479 119 0 0 0 3.266288
0.028369477 -2.941951 -0.14291312 116 0 0 0 3.271235
0.27707368 -2.8980193 -0.036866318 124 0 0 0 3.2761819
0.21609272 -2.913274 -0.068373047 120 0 0 0 3.2811289
0.15759456 -2.9176183 -0.10076451 126 0 0 0 3.2860761
0.096164353 -2.9257801 -0.14324696 113 0 0 0 3.291023
0.34429097 -2.8867393 -0.031167518 128 0 0 0 3.8417079
0.28348008 -2.8990049 -0.064643852 131 0 0 0 3.8466549
0.22487992 -2.9073477 -0.10004899 112 0 0 0 3.8516021
0.16444787 -2.9165592 -0.14450328 112 0 0 0 3.856549
0.41046661 -2.8825195 -0.026614618 121 0 0 0 3.861496
0.35003549 -2.8867822 -0.062040582 120 0 0 0 3.8664429
0.29314536 -2.9031916 -0.09944874 123 0 0 0 3.8713901
0.23280099 -2.9113941 -0.14589602 118 0 0 0 3.8763371
0.47522834 -2.8642271 -0.022021556 118 0 0 0 3.881284
0.41646558 -2.8775556 -0.059456728 122 0 0 0 3.8862309
0.35874769 -2.8909159 -0.098868325 113 0 0 0 3.8911779
0.28876927 -2.7926431 -0.14197992 150 0 0 0 3.8961251
0.54327649 -2.8630857 -0.017443221 128 0 0 0 3.901072
0.48185498 -2.8692849 -0.056902722 117 0 0 0 3.906019
0.42539033 -2.8776815 -0.09825974 108 0 0 0 3.9109659
0.34723303 -2.7350354 -0.14032754 151 0 0 0 3.9159131
0.60683054 -2.8497443 -0.012905591 115 0 0 0 3.9208601
0.54745257 -2.8560174 -0.054318622 121 0 0 0 3.925807
0.4916577 -2.8734376 -0.097707659 113 0 0 0 3.9307539
0.40103477 -2.6692247 -0.13874069 151 0 0 0 3.9357009
0.67229873 -2.8384838 -0.0083355214 115 0 0 0 3.9406481
0.61375719 -2.8497841 -0.051755823 128 0 0 0 3.945595
0.55750942 -2.8551631 -0.097092673 143 0 0 0 3.950542
0.4586027 -2.63359 -0.13822584 150 0 0 0 3.9554889
0.74130392 -2.8383794 -0.0037430439 119 0 0 0 3.9604361
0.68197614 -2.8456314 -0.049160603 117 0 0 0 3.9653831
0.59107888 -2.6964493 -0.091487579 153 0 0 0 3.97033
0.52189821 -2.6302028 -0.14074907 99 0 0 0 3.9752769
0.80681354 -2.8261168 0.0008315334 121 0 0 0 3.9802239
0.74851179 -2.8343949 -0.047568299 118 0 0 0 3.9851711
0.64518833 -2.6466672 -0.088979833 150 0 0 0 3.990118
0.58870792 -2.6379766 -0.14225014 22 0 0 0 3.995065
0.87427902 -2.8149359 0.0054446813 111 0 0 0 4.0000119
0.81681389 -2.8282411 -0.044962414 114 0 0 0 4.0049591
0.69811279 -2.6018331 -0.087526299 149 0 0 0 4.0099058
0.66834462 -2.7003071 -0.14774242 20 0 0 0 4.014853
0.94164252 -2.8067458 0.0090387287 116 0 0 0 4.0198002
0.87011027 -2.7734239 -0.041448712 150 0 0 0 4.0247469
0.76144528 -2.5964537 -0.08804033 75 0 0 0 4.0296941
0.73294944 -2.6889701 -0.14919609 21 0 0 0 4.0346408
1.0091494 -2.7945628 0.013656339 115 0 0 0 4.039588
0.89647782 -2.6444178 -0.038168792 151 0 0 0 4.0445352
0.8220911 -2.5829601 -0.0875744 32 0 0 0 4.0494819
0.79218495 -2.6623945 -0.1506947 17 0 0 0 4.0544291
1.0783209 -2.7904551 0.018269282 122 0 0 0 4.0593758
0.95100158 -2.6086602 -0.035728145 150 0 0 0 4.0643229
0.88916922 -2.5837405 -0.088035926 4 0 0 0 4.0692701
0.6432671 -1.9898237 -0.11360483 0 0 0 0 4.0742168
1.1487223 -2.7813869 0.021935254 119 0 0 0 4.079164
1.0000494 -2.5596681 -0.032345016 83 0 0 0 4.0841112
0.86877769 -2.3487287 -0.079278849 7 0 0 0 4.0890579
0.69271541 -1.9818555 -0.11542705 4 0 0 0 4.0940051
1.2172692 -2.7682426 0.026579197 123 0 0 0 4.0989518
1.0608796 -2.5411801 -0.030851133 47 0 0 0 4.103899
1.0470316 -2.6413271 -0.08970838 17 0 0 0 4.1088462
0.74114162 -1.9738498 -0.11627293 2 0 0 0 4.1137929
1.2758077 -2.7316535 0.030113952 150 0 0 0 4.1187401
1.1354868 -2.5522912 -0.029195428 23 0 0 0 4.1236868
1.1209778 -2.6453922 -0.090031572 15 0 0 0 4.128634
1.0700885 -2.6558499 -0.16027614 13 0 0 0 4.1335812
1.2991509 -2.6265423 0.034195803 150 0 0 0 4.1385279
1.2165875 -2.5756819 -0.027455259 15 0 0 0 4.1434751
1.1840596 -2.6219795 -0.090462327 17 0 0 0 4.1484218
1.1405005 -2.6497459 -0.16262883 13 0 0 0 4.1533689
1.3250775 -2.532536 0.036278024 65 0 0 0 4.1583161
1.3182738 -2.6339531 -0.026424719 14 0 0 0 4.1632628
1.262709 -2.633244 -0.090716653 15 0 0 0 4.16821
1.2201759 -2.6620359 -0.16586557 11 0 0 0 4.1731572
1.3813013 -2.5028598 0.040721569 37 0 0 0 4.1781039
1.3665098 -2.5809116 -0.02404354 15 0 0 0 4.1830511
1.3322424 -2.6231089 -0.091070004 15 0 0 0 4.1879978
1.2825304 -2.6325793 -0.16728336 7 0 0 0 4.192945
1.4526153 -2.4958243 0.044392936 27 0 0 0 4.1978922
1.4285232 -2.5574687 -0.02150063 35 0 0 0 4.2028389
1.3815408 -2.569104 -0.089660257 16 0 0 0 4.2077861
1.9283725 -2.4767191 0.070422411 17 0 0 0 4.211731
1.3559802 -2.625597 -0.16956437 7 0 0 0 4.2127328
3.617393 -1.4244114 0.14670341 63 0 0 0 4.2160678
1.8748209 -2.484997 -0.010874908 21 0 0 0 4.2166781
1.5136063 -2.4723434 0.047911853 20 0 0 0 4.21768
3.617784 -1.4386245 0.015597166 61 0 0 0 4.221015
1.8082402 -2.469712 -0.092348732 15 0 0 0 4.2216249
1.47574 -2.5053771 -0.020149644 67 0 0 0 4.2226272
3.7306058 -1.4955226 -0.11915047 16 0 0 0 4.2259622
1.7153978 -2.4132862 -0.17621204 72 0 0 0 4.226572
1.4521136 -2.5580089 -0.089986444 30 0 0 0 4.2275739
3.8133471 -1.5380621 -0.26951873 7 0 0 0 4.2309089
1.9993938 -2.4526505 0.074171506 7 0 0 0 4.2315192
1.4035101 -2.5665071 -0.16916966 15 0 0 0 4.2325211
3.5778217 -1.3186243 0.14432456 81 0 0 0 4.2358561
1.9535692 -2.4692392 -0.0099921878 11 0 0 0 4.2364659
1.6000069 -2.4869585 0.052815583 18 0 0 0 4.2374678
3.5230782 -1.3095393 0.015074308 99 0 0 0 4.2408028
1.8926948 -2.4621875 -0.093378082 18 0 0 0 4.2414131
1.5604194 -2.5148978 -0.018259602 43 0 0 0 4.242415
3.5314503 -1.3221089 -0.11183887 31 0 0 0 4.24575
1.8254224 -2.4438233 -0.18285352 70 0 0 0 4.2463598
1.5267464 -2.5460746 -0.091216221 30 0 0 0 4.2473621
3.5964377 -1.3529603 -0.25255138 37 0 0 0 4.2506971
2.0666265 -2.4234183 0.077859528 6 0 0 0 4.251307
1.4733787 -2.5493643 -0.17148182 24 0 0 0 4.2523088
3.4187593 -1.1758165 0.13739443 42 0 0 0 4.2556438
2.0466547 -2.4690969 -0.0078622373 7 0 0 0 4.2562542
1.6612881 -2.456481 0.056375802 78 0 0 0 4.257256
3.4596698 -1.1977744 0.015180636 101 0 0 0 4.260591
1.9562904 -2.4257803 -0.092736624 16 0 0 0 4.2612009
1.6470969 -2.5245004 -0.016325124 30 0 0 0 4.2622032
3.5243955 -1.2267056 -0.11052392 65 0 0 0 4.2655382
1.9071144 -2.4321606 -0.18692641 69 0 0 0 4.2661481
1.5993997 -2.5330617 -0.091486514 30 0 0 0 4.2671499
3.5529964 -1.240051 -0.24797991 7 0 0 0 4.2704849
2.0546694 -2.3018019 0.079208896 9 0 0 0 4.2710948
1.5283395 -2.5045881 -0.17199287 21 0 0 0 4.2720971
3.5515523 -1.134284 0.14163956 81 0 0 0 4.2754321
2.0567997 -2.3694203 -0.0061194403 5 0 0 0 4.276042
1.7262322 -2.4341617 0.059976831 61 0 0 0 4.2770438
3.4603188 -1.1106873 0.014628735 124 0 0 0 4.2803788
2.0438242 -2.4163795 -0.093687594 30 0 0 0 4.2809892
1.6792616 -2.4487648 -0.014198929 62 0 0 0 4.281991
3.47176 -1.1194065 -0.10819289 43 0 0 0 4.285326
1.9947991 -2.4207463 -0.19086409 69 0 0 0 4.2859359
1.6777555 -2.5272911 -0.091664493 31 0 0 0 4.2869382
3.5341139 -1.1391629 -0.24490769 1 0 0 0 4.2902732
2.1353447 -2.286139 0.08313337 7 0 0 0 4.2908831
1.5737444 -2.4484093 -0.17166446 28 0 0 0 4.2918849
3.8179617 -1.1263593 0.15177517 22 0 0 0 4.2952199
2.092649 -2.3018346 -0.0049543139 5 0 0 0 4.2958298
1.8433937 -2.4790788 0.065426067 21 0 0 0 4.2968321
3.4243166 -1.0140721 0.014285371 36 0 0 0 4.3001671
2.1256959 -2.3987343 -0.094726719 49 0 0 0 4.300777
1.7529086 -2.4348018 -0.012442838 27 0 0 0 4.3017788
3.3745003 -1.0012536 -0.10482845 39 0 0 0 4.3051138
2.0183215 -2.3356457 -0.18788989 37 0 0 0 4.3057241
1.709026 -2.4495099 -0.090549044 52 0 0 0 4.306726
3.3764393 -1.0005391 -0.23282041 41 0 0 0 4.310061
2.2208486 -2.2746794 0.087145746 7 0 0 0 4.3106709
1.604866 -2.3736317 -0.16956733 52 0 0 0 4.3116732
3.4736056 -0.94178069 0.13681065 49 0 0 0 4.3150082
2.1974516 -2.3091762 -0.0035975554 3 0 0 0 4.315618
3.4635265 -0.93859422 0.013557055 35 0 0 0 4.3199549
2.1348388 -2.299015 -0.093007773 28 0 0 0 4.3205652
3.4632239 -0.93983084 -0.10749467 68 0 0 0 4.3249021
2.0647871 -2.2784989 -0.18853632 47 0 0 0 4.3255119
3.4355874 -0.9278819 -0.23510648 47 0 0 0 4.3298488
2.2996917 -2.2549338 0.091047302 7 0 0 0 4.3304591
3.6463273 -0.90191317 0.1429598 22 0 0 0 4.334796
2.3081005 -2.3197677 -0.0011245759 0 0 0 0 4.3354058
3.710701 -0.9167974 0.014317637 13 0 0 0 4.3397431
2.1360488 -2.1969697 -0.090458855 25 0 0 0 4.340353
3.475729 -0.85624039 -0.10779375 45 0 0 0 4.3446898
2.1592362 -2.2733614 -0.19335462 65 0 0 0 4.3453002
3.4868262 -0.85289258 -0.23756279 43 0 0 0 4.349637
2.1333079 -1.9987514 0.085551105 0 0 0 0 4.3502469
4.4744315 -1.0014917 0.17341226 40 0 0 0 4.3545842
2.4210422 -2.3244352 -0.00057014497 19 0 0 0 4.3551941
4.3491702 -0.97029078 0.015653145 68 0 0 0 4.3595309
2.2285554 -2.1887655 -0.092305951 42 0 0 0 4.3601408
4.3587503 -0.96674883 -0.1351568 97 0 0 0 4.3644781
2.1980176 -2.2078917 -0.19313543 45 0 0 0 4.365088
4.3826313 -0.96272773 -0.29763976 78 0 0 0 4.3694248
2.292047 -2.054399 0.091892168 8 0 0 0 4.3700352
4.3943744 -0.88299823 0.16916561 38 0 0 0 4.374372
2.5129161 -2.3052163 0.0016245317 26 0 0 0 4.3749819
4.3901634 -0.87586105 0.015057258 102 0 0 0 4.3793192
2.311548 -2.1681595 -0.093307659 43 0 0 0 4.3799291
4.39885 -0.87027413 -0.13676296 91 0 0 0 4.3842659
2.2869473 -2.1905172 -0.19701856 34 0 0 0 4.3848758
4.4218969 -0.86221492 -0.29924431 72 0 0 0 4.3892131
2.7080379 -2.3209643 0.1100345 8 0 0 0 4.389823
2.1915567 -1.9205372 0.0022462651 60 0 0 0 4.3947701
7.9601207 -1.4003083 0.02609589 7 0 0 0 4.399107
2.2624009 -2.0240011 -0.088695109 180 0 0 0 4.3997169
6.5636182 -1.1397685 -0.20461726 4 0 0 0 4.4040542
2.3200421 -2.1168084 -0.19588827 39 0 0 0 4.404664
5.6698899 -0.96547282 -0.38224289 6 0 0 0 4.4090009
1.9471395 -1.5935776 0.079357021 59 0 0 0 4.4096112
8.5431585 -1.326159 0.32188085 11 0 0 0 4.4139481
1.9416062 -1.6239021 0.00304968 63 0 0 0 4.4145579
1.906185 -1.626961 -0.073800877 84 0 0 0 4.4195051
6.59203 -0.98674411 -0.20521162 5 0 0 0 4.423842
1.8787264 -1.634318 -0.15649287 86 0 0 0 4.4244518
5.6975942 -0.8294425 -0.38293645 5 0 0 0 4.4287891
2.0129712 -1.5742843 0.081955925 55 0 0 0 4.429399
7.1873102 -0.95425063 0.26869854 26 0 0 0 4.4337358
1.9833586 -1.5825832 0.0042109941 67 0 0 0 4.4343462
7.6948094 -0.99477476 0.021029297 3 0 0 0 4.438683
2.0565333 -1.6731876 -0.077608176 158 0 0 0 4.4392929
6.5895567 -0.83043277 -0.20649704 6 0 0 0 4.4436302
1.9059916 -1.5803871 -0.15559769 77 0 0 0 4.4442401
5.7004256 -0.68938065 -0.38317919 5 0 0 0 4.4485769
2.0459175 -1.5275999 0.083942905 60 0 0 0 4.4491868
6.3856683 -0.7015518 0.2356059 1 0 0 0 4.4535241
2.0260494 -1.543298 0.0043823272 108 0 0 0 4.454134
5.8574152 -0.62123436 0.014860199 2 0 0 0 4.4584708
1.9343444 -1.5029945 -0.071531303 101 0 0 0 4.4590812
5.8837991 -0.60107374 -0.18449508 1 0 0 0 4.463418
1.9099225 -1.5094777 -0.15414895 94 0 0 0 4.4640279
5.7090583 -0.55356967 -0.38231137 4 0 0 0 4.4683652
2.0953059 -1.4946097 0.086234771 69 0 0 0 4.4689751
6.1285324 -0.53661638 0.22253424 21 0 0 0 4.4733119
2.0288575 -1.4753431 0.0057891603 94 0 0 0 4.4739218
1.9663354 -1.4562587 -0.071566492 110 0 0 0 4.478869
1.964312 -1.4786741 -0.15575448 91 0 0 0 4.4838161
5.6918192 -0.41368648 -0.38101491 11 0 0 0 4.488153
2.1467741 -1.4597032 0.088583447 38 0 0 0 4.4887629
6.2589283 -0.40885875 0.22514336 3 0 0 0 4.4931002
1.9840024 -1.3743804 0.0062759402 4 0 0 0 4.49371
5.8756518 -0.35361454 0.010592555 1 0 0 0 4.4980469
2.0236568 -1.4265828 -0.072111227 98 0 0 0 4.4986572
5.9292922 -0.32758144 -0.18810906 0 0 0 0 4.5029941
5.6433778 -0.27652851 -0.37744585 6 0 0 0 4.5079408
6.6641746 -0.28753108 0.2360061 2 0 0 0 4.512888
2.1250334 -1.4012281 0.007353147 17 0 0 0 4.5134978
7.1435342 -0.26996201 0.010988788 30 0 0 0 4.5178351
2.0819767 -1.3969473 -0.072634123 52 0 0 0 4.518445
6.6683941 -0.21386273 -0.21265955 7 0 0 0 4.5227818
2.0499206 -1.3960899 -0.15838899 8 0 0 0 4.5233922
5.7141352 -0.14225619 -0.38216805 6 0 0 0 4.527729
2.197108 -1.3771728 0.0081152739 9 0 0 0 4.5332861
7.8807507 -0.11724921 0.008591976 6 0 0 0 4.5376229
2.1727071 -1.3836519 -0.075501956 34 0 0 0 4.5382328
6.6758757 -0.05895976 -0.21472785 8 0 0 0 4.5425701
2.0801592 -1.3432745 -0.15843454 4 0 0 0 4.54318
5.4089942 -0.0055837431 -0.36146599 13 0 0 0 4.5475168
3.6722841 -2.1537483 0.15185383 2 0 0 0 4.5481272
8.6003523 0.010392486 0.295746 1 0 0 0 4.552464
7.8511844 0.061223671 0.0057907477 6 0 0 0 4.5574112
6.7014809 0.09819898 -0.2173709 6 0 0 0 4.5623579
2.0203435 -1.2377253 -0.15226457 56 0 0 0 4.5629678
5.3591328 0.12162033 -0.35797966 6 0 0 0 4.5673051
3.8478281 -2.1420054 0.15890981 67 0 0 0 4.567915
7.2756224 0.16971767 0.24522732 51 0 0 0 4.5722518
3.5513556 -2.0077286 0.013783746 11 0 0 0 4.5728621
5.0901575 0.15660539 0.0011365075 4 0 0 0 4.577199
5.0634336 0.19377318 -0.16533551 29 0 0 0 4.5821462
2.0954018 -1.2167656 -0.15645242 15 0 0 0 4.582756
5.118412 0.23963733 -0.34289861 10 0 0 0 4.5870929
4.0186253 -2.1240571 0.16588722 67 0 0 0 4.5877032
5.0283675 0.22925246 0.16612209 5 0 0 0 4.5920401
3.4684064 -1.8601333 0.013633197 2 0 0 0 4.5926499
4.8402162 0.26009354 -0.0010708012 53 0 0 0 4.5969868
2.2593184 -1.2270365 -0.074746214 15 0 0 0 4.5975971
4.7770734 0.29370078 -0.15738998 13 0 0 0 4.601934
2.2832854 -1.2554744 -0.16837433 56 0 0 0 4.6025438
5.0873632 0.3610644 -0.34101126 4 0 0 0 4.6068811
4.1604295 -2.081876 0.17132501 9 0 0 0 4.607491
4.9247122 0.33371389 0.1602616 59 0 0 0 4.6118279
3.5577896 -1.8047538 0.014943381 8 0 0 0 4.6124382
4.7313499 0.36174184 -0.0030625619 46 0 0 0 4.616775
3.2213635 -1.6549674 -0.10600453 9 0 0 0 4.6173849
4.7184982 0.40226161 -0.1571963 40 0 0 0 4.6217222
2.2851684 -1.1854773 -0.16698106 5 0 0 0 4.6223321
4.7724028 0.45408916 -0.32074961 42 0 0 0 4.6266689
4.3083091 -2.0379429 0.17690879 15 0 0 0 4.6272788
7.4126253 0.66776055 0.23579274 49 0 0 0 4.6316161
3.6050878 -1.7266079 0.015408645 10 0 0 0 4.632226
7.5457034 0.74984419 -0.0088229636 22 0 0 0 4.6365628
4.346714 -2.1066227 -0.14166795 4 0 0 0 4.6371732
4.7586236 -2.3275833 -0.34546599 85 0 0 0 4.6421199
5.8715172 0.70038456 -0.39543274 5 0 0 0 4.6464572
4.3876753 -1.9581233 0.17911078 83 0 0 0 4.6470671
7.2105904 0.81137335 0.22487272 29 0 0 0 4.6514039
3.6209157 -1.6351453 0.015223217 22 0 0 0 4.6520138
4.4373045 -2.0242357 -0.14419812 131 0 0 0 4.656961
6.8343291 0.90382713 -0.23238672 5 0 0 0 4.6612978
4.9827909 -2.2886875 -0.35817674 62 0 0 0 4.6619081
5.8673673 0.84173757 -0.39583448 6 0 0 0 4.666245
4.4278693 -1.8576612 0.18052384 75 0 0 0 4.6668549
6.7235179 0.90877092 0.20520788 88 0 0 0 4.6711922
3.7046964 -1.5705158 0.015449797 36 0 0 0 4.671802
6.7767549 0.9860009 -0.015249309 101 0 0 0 4.6761389
3.6903229 -1.5801008 -0.11896954 10 0 0 0 4.6767492
4.7806549 -2.0601969 -0.34063172 60 0 0 0 4.6816959
5.8976812 0.99169374 -0.39940664 5 0 0 0 4.6860328
6.7077713 1.0590402 0.19932604 111 0 0 0 4.8086748
5.9042559 0.99846298 -0.017360121 5 0 0 0 4.813622
6.7813845 1.220836 -0.23730403 26 0 0 0 4.8185692
5.905808 1.1408911 -0.40171468 4 0 0 0 4.8235159
5.8806944 1.0633962 0.16946042 21 0 0 0 4.8284631
6.9335589 1.337414 -0.024212357 34 0 0 0 4.8334098
6.8156519 1.3936647 -0.24167812 8 0 0 0 4.838357
5.923099 1.2913823 -0.40458459 4 0 0 0 4.8433042
7.1447291 1.4584976 0.20024718 150 0 0 0 4.8482509
7.198123 1.5588025 -0.030094951 121 0 0 0 4.8531981
6.85004 1.5694914 -0.24603498 8 0 0 0 4.8581452
5.9354749 1.4440789 -0.40755576 4 0 0 0 4.8630919
6.4891953 1.474745 0.17635609 9 0 0 0 4.8680391
5.9291768 1.4260465 -0.028708035 2 0 0 0 4.8729858
6.8136506 1.7292135 -0.24908629 5 0 0 0 4.877933
5.9154439 1.5890909 -0.40830407 3 0 0 0 4.8828802
5.9709582 1.4972961 0.15763129 18 0 0 0 4.8878269
5.76618 1.5259259 -0.031942606 47 0 0 0 4.8927741
6.8400817 1.9063705 -0.25361896 3 0 0 0 4.8977208
5.9340363 1.7465405 -0.41211063 3 0 0 0 4.902668
5.7695441 1.5837944 0.14645191 47 0 0 0 4.9076152
5.6111126 1.6234784 -0.036007311 2 0 0 0 4.9125619
6.8250971 2.0752206 -0.25713712 4 0 0 0 4.9175091
5.8156662 1.8655397 -0.40622851 1 0 0 0 4.9224558
5.6670265 1.6912131 0.13863263 11 0 0 0 4.927403
5.6383462 1.7715672 -0.040664542 33 0 0 0 4.9323502
6.828547 2.2533283 -0.26218918 3 0 0 0 4.9372969
5.9554529 2.0680914 -0.41905022 4 0 0 0 4.9422441
7.1738625 2.3175774 0.16908778 39 0 0 0 4.9471912
5.802866 1.9710517 -0.045936991 21 0 0 0 4.9521379
6.835072 2.4333107 -0.26716232 5 0 0 0 4.9570851
7.3084354 2.5443258 0.16526377 32 0 0 0 4.966979
8.0001345 2.9226322 -0.071145155 2 0 0 0 4.9719262
3.2508593 1.2440431 -0.12875049 5 0 0 0 4.9768729
3.2313824 1.2985201 -0.23094644 28 0 0 0 4.9818201
6.9839721 2.6068962 0.15015836 11 0 0 0 4.9867668
7.1723862 2.8066716 -0.070605159 24 0 0 0 4.991714
3.3137379 1.357621 -0.13476166 32 0 0 0 4.9966612
3.0627308 1.3174448 -0.2207004 150 0 0 0 5.0016079
6.9621377 2.7770615 0.14148703 62 0 0 0 5.0065551
3.339118 1.3960339 -0.035977792 53 0 0 0 5.0115018
3.2431455 1.4186052 -0.13407442 8 0 0 0 5.016449
2.9734499 1.3641616 -0.21650831 79 0 0 0 5.0213962
3.3693652 1.4322327 0.064905494 49 0 0 0 5.0263429
3.289963 1.4651644 -0.038762722 43 0 0 0 5.0312901
3.0753815 1.4315221 -0.12983923 103 0 0 0 5.0362368
2.9147153 1.4226379 -0.21356153 36 0 0 0 5.0411839
3.4282589 1.5479615 0.061813168 14 0 0 0 5.0461311
3.2264295 1.525874 -0.04091683 50 0 0 0 5.0510778
3.2500076 1.6065828 -0.13999966 1 0 0 0 5.056025
2.6069458 1.3511344 -0.19293055 3 0 0 0 5.0609722
3.3903821 1.6226436 0.057311818 31 0 0 0 5.0659189
2.587285 1.3544877 -0.11435193 4 0 0 0 5.0758128
2.4954491 1.3697251 -0.18738247 8 0 0 0 5.08076
3.3821931 1.7131194 0.052565444 40 0 0 0 5.0857072
2.5289085 1.3404292 -0.037741628 0 0 0 0 5.0906539
2.4768145 1.3720526 -0.11178606 5 0 0 0 5.0956011
2.4093809 1.3972845 -0.18321051 6 0 0 0 5.1005478
3.3454578 1.7907616 0.047105152 9 0 0 0 5.105495
2.4143689 1.4116775 -0.112017 5 0 0 0 5.1153889
2.3160095 1.4181317 -0.17823742 3 0 0 0 5.1203361
2.3076563 1.3636056 -0.040677428 0 0 0 0 5.1302299
2.3426633 1.4456723 -0.111486 4 0 0 0 5.1351771
2.2647924 1.4642847 -0.17617832 0 0 0 0 5.1401238
2.365957 1.4058604 0.025867019 3 0 0 0 5.145071
2.3641992 1.4704221 -0.044865292 10 0 0 0 5.1500182
2.2532728 1.4643697 -0.1094332 2 0 0 0 5.1549649
2.2722726 1.5470906 -0.17960155 60 0 0 0 5.1599121
2.3588791 1.4752566 0.022044308 5 0 0 0 5.1648588
2.3788588 1.5569426 -0.049107689 39 0 0 0 5.169806
