# .PCD v0.7 - Point Cloud Data file format
VERSION 0.7
FIELDS x y z intensity normal_x normal_y normal_z curvature
SIZE 4 4 4 4 4 4 4 4
TYPE F F F F F F F F
COUNT 1 1 1 1 1 1 1 1
WIDTH 942
HEIGHT 1
VIEWPOINT 0 0 0 1 0 0 0
POINTS 942
DATA ascii
-3.0265834 6.2518001 0.60888916 165 0 0 0 14.4896
-3.0653121 6.2850909 0.96042335 169 0 0 0 14.4896
-5.5837979 6.1996026 8.3839684 35 0 0 0 14.4896
-3.5864506 5.8366475 0.81418759 582 0 0 0 14.4896
-3.7739887 5.8183737 3.4265807 176 0 0 0 14.4896
-5.2346749 5.6312017 0.97346443 308 0 0 0 14.4896
-4.9335093 5.5231943 -0.88790911 326 0 0 0 14.4896
-4.6114736 5.7654266 3.031049 218 0 0 0 14.4896
-3.1036654 5.4176712 -1.7542586 124 0 0 0 14.4896
-4.9896669 5.5471277 -0.52303219 334 0 0 0 14.4896
-3.5702634 7.8401718 -1.8316371 16 0 0 0 14.4896
-6.0201368 5.9468327 4.2801957 151 0 0 0 14.4896
-4.5130587 6.3658361 10.119883 40 0 0 0 14.4896
-3.5409856 5.8055201 0.47535446 585 0 0 0 14.4896
-2.021915 3.6553516 -1.8773166 220 0 0 0 14.4896
-3.8828173 5.8414097 4.8788571 111 0 0 0 14.4896
-3.1751785 6.2015224 7.7108145 45 0 0 0 14.4896
-4.3403382 5.63938 1.409763 385 0 0 0 14.4896
-3.8086588 5.9649606 2.6703963 303 0 0 0 14.4896
-2.968926 5.9077597 2.6516628 335 0 0 0 14.4896
-3.7216837 5.9160404 1.8856661 375 0 0 0 14.4896
-4.2842255 5.6165209 1.0458776 484 0 0 0 14.4896
-3.4302695 6.7151022 5.503593 92 0 0 0 14.4896
-3.9085453 8.1426172 0.33803123 96 0 0 0 14.4896
-3.7789218 5.9644203 2.2785492 319 0 0 0 14.4896
-3.7835052 5.7882161 3.8525941 136 0 0 0 14.4896
-4.6992607 5.327282 -1.5791991 143 0 0 0 14.4896
-2.6560054 5.9154449 -1.7112075 129 0 0 0 14.4896
-3.5379143 6.9561138 4.5709124 155 0 0 0 14.4896
-6.7358217 6.1479759 7.1884084 45 0 0 0 14.4896
-3.836998 5.8194766 4.3491035 159 0 0 0 14.4896
-4.4134912 5.6807723 1.7891637 343 0 0 0 14.4896
-4.8704038 5.4861741 -1.2510589 230 0 0 0 14.4896
-5.3371081 5.6874504 1.3790839 200 0 0 0 14.4896
-1.7515147 4.1019726 -1.9241709 242 0 0 0 14.4896
-5.1624599 5.9555922 6.4616914 78 0 0 0 14.4896
-2.3525355 5.3176208 -1.8474119 159 0 0 0 14.4896
-5.5718393 5.7413263 2.659909 189 0 0 0 14.4896
-3.5297005 5.834559 0.1447468 463 0 0 0 14.4896
-3.790462 8.2214737 -1.4609215 51 0 0 0 14.4896
-5.0576301 5.5802088 -0.15609999 344 0 0 0 14.4896
-6.5118723 6.0820427 6.3254013 49 0 0 0 14.4896
-3.432812 3.9345596 -1.7149627 180 0 0 0 14.4896
-3.6725638 5.8854442 1.5154819 443 0 0 0 14.4896
-5.4990954 5.7341723 2.2158489 281 0 0 0 14.4896
-5.1914034 5.6367617 0.59243995 309 0 0 0 14.4896
-3.5998886 6.0523953 -0.54228026 339 0 0 0 14.4896
-2.9029536 5.9085107 1.2354857 197 0 0 0 14.4896
-2.9137151 5.8910069 2.6376386 333 0 0 0 14.583552
-3.3719153 6.6962953 6.0822506 61 0 0 0 14.583552
-5.7163138 6.2908788 9.4678602 19 0 0 0 14.583552
-3.4097538 6.7857676 5.5452724 74 0 0 0 14.583552
-2.978533 6.2493114 0.60844558 181 0 0 0 14.583552
-4.1869407 5.6021395 0.69399714 451 0 0 0 14.583552
-4.6832271 5.3720765 -1.5812345 121 0 0 0 14.583552
-8.0056534 6.7872119 11.231332 10 0 0 0 14.583552
-3.5747223 5.8498158 1.1562541 471 0 0 0 14.583552
-1.7698601 3.2879858 -1.9081999 296 0 0 0 14.583552
-4.4215102 5.6576314 2.5507407 285 0 0 0 14.583552
-5.1232595 6.1797132 5.3398566 26 0 0 0 14.583552
-3.9443178 8.422719 -0.10847361 80 0 0 0 14.583552
-4.2082953 6.1002626 8.6499529 30 0 0 0 14.583552
-7.6942782 6.7403116 9.8916464 8 0 0 0 14.583552
-4.0630946 5.6948447 -1.3811182 323 0 0 0 14.583552
-2.8927088 5.8771687 2.2614255 354 0 0 0 14.583552
-2.5003431 3.6116118 -1.8160219 202 0 0 0 14.583552
-2.8322427 5.8173256 1.5470356 518 0 0 0 14.583552
-5.0486383 5.5960259 0.21731499 326 0 0 0 14.583552
-2.8474338 5.8871284 1.2289894 243 0 0 0 14.583552
-4.5575476 5.7095404 3.4294198 170 0 0 0 14.583552
-3.8252039 5.4021382 -1.6496313 184 0 0 0 14.583552
-3.7667208 8.2013311 -0.99900025 74 0 0 0 14.583552
-5.9078822 6.0028882 3.7548606 118 0 0 0 14.583552
-3.5143976 5.8891973 0.14732499 471 0 0 0 14.583552
-5.16676 6.1404848 5.9363241 161 0 0 0 14.583552
-5.481051 5.7189398 2.6380255 237 0 0 0 14.583552
-3.085583 6.1860666 3.6038404 61 0 0 0 14.583552
-6.6399927 6.1410866 7.1368442 47 0 0 0 14.583552
-4.4001446 5.686295 2.1658266 284 0 0 0 14.583552
-3.0986569 6.1719842 8.4945154 15 0 0 0 14.583552
-3.0671191 6.1296439 9.4118719 25 0 0 0 14.583552
-3.8968599 5.8925204 5.4640102 94 0 0 0 14.583552
-5.2938943 6.0800786 7.3264141 65 0 0 0 14.583552
-4.870151 5.5176024 -0.8788386 346 0 0 0 14.583552
-3.5318274 6.0720954 -0.88667309 163 0 0 0 14.583552
-4.222611 5.7832851 -0.33866617 436 0 0 0 14.583552
-2.8466873 4.0798559 -1.7735585 239 0 0 0 14.583552
-5.5367746 6.2319732 8.3841019 34 0 0 0 14.583552
-3.9770048 4.5874443 -1.6635875 150 0 0 0 14.583552
-2.6171839 5.920403 -1.7068853 148 0 0 0 14.583552
-8.210103 6.7031789 12.565311 14 0 0 0 14.583552
-3.5377047 5.8370156 0.8133719 553 0 0 0 14.583552
-3.4906793 5.8019972 0.47546142 603 0 0 0 14.583552
-2.9830184 3.4731357 -1.7594539 238 0 0 0 14.583552
-2.003268 3.6702902 -1.8779224 216 0 0 0 14.583552
-1.5080765 3.6619163 -1.9497918 237 0 0 0 14.583552
-3.2995603 6.5492554 6.5983105 67 0 0 0 14.583552
-6.2370448 6.0247288 5.5308776 86 0 0 0 14.583552
-3.8916802 8.2347059 0.3424167 69 0 0 0 14.583552
-3.7754569 5.8083348 4.325501 136 0 0 0 14.583552
-4.4546871 6.3786831 10.097273 52 0 0 0 14.583552
-2.6439431 3.0926476 -1.8032469 206 0 0 0 14.583552
-3.7539234 5.9620848 2.6610348 300 0 0 0 14.583552
-2.2082684 3.214421 -1.8464972 217 0 0 0 14.583552
-3.7481182 5.8159871 3.8576894 146 0 0 0 14.583552
-4.2256594 5.610734 1.042858 447 0 0 0 14.583552
-5.9912658 5.9944677 4.2919393 183 0 0 0 14.583552
-4.805325 5.4773402 -1.2390348 271 0 0 0 14.583552
-3.2766054 4.6629844 -1.7190552 149 0 0 0 14.583552
-5.2540951 5.668344 1.3705481 344 0 0 0 14.583552
-5.0816956 5.9418035 6.4156866 81 0 0 0 14.583552
-3.5540292 6.0071335 -0.19231407 379 0 0 0 14.583552
-5.1186771 5.6259036 0.59173471 373 0 0 0 14.583552
-1.3283679 3.3025594 -1.9852115 213 0 0 0 14.583552
-4.1175222 5.728292 -1.0314413 495 0 0 0 14.583552
-4.2234049 5.7422013 0.01108285 406 0 0 0 14.583552
-4.137361 6.0690341 7.7283869 28 0 0 0 14.583552
-7.4065557 7.9141712 2.4548724 15 0 0 0 14.583552
-4.1895981 5.6505399 0.35571983 420 0 0 0 14.583552
-3.6691134 5.9140205 1.8800846 374 0 0 0 14.583552
-3.6265373 6.2935319 -1.2852956 110 0 0 0 14.583552
-3.4215839 5.9944868 -1.5744087 169 0 0 0 14.583552
-4.0416126 5.9967194 6.8683596 53 0 0 0 14.583552
-2.3612204 2.7740598 -1.8419217 192 0 0 0 14.583552
-5.4235034 5.7262139 2.2038758 246 0 0 0 14.583552
-3.4093432 3.9533799 -1.7120868 216 0 0 0 14.583552
-3.9974639 8.6190624 -0.58122003 65 0 0 0 14.583552
-3.6183617 5.879385 1.5104494 479 0 0 0 14.583552
-3.2303021 6.4146047 7.1645751 47 0 0 0 14.583552
-4.7729082 5.8355918 4.4926286 138 0 0 0 14.583552
-5.9594173 6.3937397 10.808316 23 0 0 0 14.583552
-1.7313268 4.1188235 -1.9266551 217 0 0 0 14.583552
-2.3323805 5.3548694 -1.854724 171 0 0 0 14.583552
-3.7785268 8.3237925 -1.4737504 64 0 0 0 14.583552
-4.5522833 5.7659774 3.0196393 229 0 0 0 14.583552
-4.3463807 5.6666727 1.7793349 346 0 0 0 14.583552
-4.9948044 5.5776978 -0.15164223 334 0 0 0 14.583552
-6.4252415 6.0801482 6.2865748 50 0 0 0 14.583552
-3.9604154 5.9330788 6.1166224 81 0 0 0 14.583552
-3.8262498 5.8394184 4.8594947 128 0 0 0 14.583552
-3.5294414 7.8718629 -1.8325686 11 0 0 0 14.583552
-3.0801158 5.4493036 -1.7570113 168 0 0 0 14.583552
-3.4735575 6.9224534 5.0762382 118 0 0 0 14.583552
-3.5507874 6.0514841 -0.53815925 156 0 0 0 14.583552
-2.9414051 5.9218965 3.0397086 307 0 0 0 14.583552
-2.6423371 4.7257724 -1.8114337 170 0 0 0 14.583552
-6.0287571 5.9314513 4.8215265 117 0 0 0 14.583552
-3.7956078 5.9802189 3.078052 262 0 0 0 14.583552
-2.8612037 5.8453979 1.8965554 491 0 0 0 14.583552
-2.2853954 4.1351476 -1.8448056 197 0 0 0 14.583552
-5.1891365 5.6510515 0.9750011 344 0 0 0 14.583552
-3.7152572 5.9462433 2.2652259 361 0 0 0 14.583552
-4.1707659 5.7609754 -0.6861493 486 0 0 0 14.583552
-3.5303512 7.0545974 4.6224899 124 0 0 0 14.583552
-2.0024195 4.6765308 -1.8985559 203 0 0 0 14.583552
-3.1649621 6.289094 7.7953835 44 0 0 0 14.583552
-5.6511998 5.82511 3.153147 190 0 0 0 14.583552
-4.2807837 5.6335759 1.4046705 367 0 0 0 14.583552
-4.9288802 5.5456052 -0.51660454 383 0 0 0 14.583552
-4.7091322 5.8320689 3.9795125 151 0 0 0 14.583552
-3.0120254 6.2732072 0.9574365 211 0 0 0 14.583552
-3.7591653 5.8779063 3.449887 121 0 0 0 14.583552
-4.3436599 5.6863875 2.1585252 284 0 0 0 14.684672
-4.2273822 5.6351209 1.4013416 401 0 0 0 14.684672
-5.2224283 6.0800457 7.2901545 60 0 0 0 14.684672
-4.1703033 5.6084194 1.0404104 414 0 0 0 14.684672
-3.7672458 5.8328753 4.8365803 106 0 0 0 14.684672
-2.3409734 2.7817094 -1.8362967 185 0 0 0 14.684672
-1.3115014 3.3133235 -1.9867055 181 0 0 0 14.684672
-2.1895051 3.2257807 -1.8443573 209 0 0 0 14.684672
-3.831111 5.8777442 5.4301987 79 0 0 0 14.684672
-3.500242 7.9301157 -1.8400121 15 0 0 0 14.684672
-5.2637782 5.6917391 1.7688727 208 0 0 0 14.684672
-4.1734848 5.7882309 -0.33485851 459 0 0 0 14.684672
-3.4035807 3.9929662 -1.7185251 196 0 0 0 14.684672
-3.501847 6.0501785 -0.53416753 167 0 0 0 14.684672
-3.3797009 6.0019045 -1.5692296 165 0 0 0 14.684672
-3.9794509 5.9920006 6.8362775 60 0 0 0 14.684672
-3.618258 5.9140716 1.8751414 393 0 0 0 14.684672
-3.7238944 5.8117375 4.3128343 147 0 0 0 14.684672
-2.827383 4.1019597 -1.7743123 196 0 0 0 14.684672
-2.9255705 6.2356434 0.6068868 191 0 0 0 14.684672
-2.8895271 5.9122682 3.0269728 301 0 0 0 14.684672
-5.0549583 5.6240139 0.59181792 387 0 0 0 14.684672
-5.0173755 5.9462705 6.3897686 75 0 0 0 14.684672
-4.1548929 6.1136675 8.6334047 51 0 0 0 14.684672
-3.4671831 7.0245533 5.1363025 103 0 0 0 14.684672
-4.1694059 5.6950397 0.35930556 195 0 0 0 14.684672
-5.9777303 6.0579271 4.3148193 285 0 0 0 14.684672
-5.3456311 5.7147465 2.1906698 304 0 0 0 14.684672
-2.6204252 3.1004622 -1.7970319 241 0 0 0 14.684672
-4.9328742 5.5753598 -0.14735913 350 0 0 0 14.684672
-2.8156087 5.8446746 1.8920734 449 0 0 0 14.684672
-1.7120675 4.1380734 -1.9304233 242 0 0 0 14.684672
-3.8751435 8.3295927 0.34677756 64 0 0 0 14.684672
-5.8944716 6.4130154 10.781108 28 0 0 0 14.684672
-3.2690589 4.7097416 -1.727486 170 0 0 0 14.684672
-2.9738348 3.5027328 -1.7637923 229 0 0 0 14.684672
-4.2837505 5.6574035 1.7710198 348 0 0 0 14.684672
-5.1781988 5.6557174 1.3635427 323 0 0 0 14.684672
-4.0667648 5.7285342 -1.0245225 537 0 0 0 14.684672
-3.2858374 6.6336331 6.6632643 64 0 0 0 14.684672
-4.7443995 5.4723539 -1.2281981 284 0 0 0 14.684672
-3.4868982 5.8761768 0.4813343 473 0 0 0 14.684672
-3.5659277 5.8754039 1.5059117 519 0 0 0 14.684672
-4.2268701 7.4362888 -1.5188767 62 0 0 0 14.684672
-3.2112944 6.4874096 7.2238965 49 0 0 0 14.684672
-5.4938025 6.2689047 8.3904772 52 0 0 0 14.684672
-6.3148561 6.0543289 6.223855 80 0 0 0 14.684672
-3.7476718 5.9887319 3.0726216 255 0 0 0 14.684672
-2.783433 5.8466506 1.2185892 275 0 0 0 14.684672
-4.7198124 5.847641 4.4823303 170 0 0 0 14.684672
-3.973464 8.7027216 -0.58379149 46 0 0 0 14.684672
-4.678926 5.4308715 -1.5875703 119 0 0 0 14.684672
-3.5443769 6.1773181 -0.89765179 44 0 0 0 14.684672
-2.6172888 4.744525 -1.8113902 162 0 0 0 14.684672
-5.9808135 5.9605336 4.81914 101 0 0 0 14.684672
-3.9389515 8.5443077 -0.10845441 68 0 0 0 14.684672
-3.7195988 5.8546705 3.8699403 153 0 0 0 14.684672
-2.3118942 5.3920221 -1.8621261 163 0 0 0 14.684672
-3.4804518 5.8225079 0.81050295 620 0 0 0 14.684672
-5.5714316 5.8157525 3.133498 191 0 0 0 14.684672
-3.4060588 6.8920498 5.6156549 124 0 0 0 14.684672
-3.9520586 4.6123996 -1.6616035 157 0 0 0 14.684672
-3.6599996 5.9405146 2.2566175 431 0 0 0 14.684672
-4.8643641 5.5390244 -0.50987709 427 0 0 0 14.684672
-2.2625492 4.1492605 -1.8440276 179 0 0 0 14.684672
-4.149642 5.6233287 0.69602877 358 0 0 0 14.684672
-3.522202 5.8443704 1.1530031 480 0 0 0 14.684672
-4.1089172 5.7469373 -0.67882782 522 0 0 0 14.684672
-6.5457783 6.1344194 7.0863132 60 0 0 0 14.684672
-5.6195068 5.7824364 3.6004119 119 0 0 0 14.684672
-3.6979311 5.9564061 2.6504881 321 0 0 0 14.684672
-7.2357631 6.6121874 8.5727358 19 0 0 0 14.684672
-4.5012746 5.7762842 3.0133686 190 0 0 0 14.684672
-4.214057 5.802289 0.013434533 448 0 0 0 14.684672
-3.751399 8.2969389 -1.0066532 62 0 0 0 14.684672
-5.1355824 5.6617236 0.97494596 337 0 0 0 14.684672
-3.7719967 8.4406261 -1.4893177 66 0 0 0 14.684672
-3.7985389 5.4310598 -1.6493821 164 0 0 0 14.684672
-4.8005338 5.5039306 -0.86868131 391 0 0 0 14.684672
-4.4719644 5.6762404 3.3958988 171 0 0 0 14.684672
-3.5158267 5.9731503 0.15035862 411 0 0 0 14.684672
-3.893889 5.9192243 6.079236 70 0 0 0 14.684672
-5.4168978 5.723299 2.6284757 255 0 0 0 14.684672
-3.0723236 6.2289906 8.5463314 27 0 0 0 14.684672
-5.0968595 6.139133 5.9075246 168 0 0 0 14.684672
-1.496806 3.6928742 -1.9613652 270 0 0 0 14.684672
-7.8747091 6.7683239 11.123713 17 0 0 0 14.684672
-4.3881087 6.3791213 10.055522 42 0 0 0 14.684672
-5.6081753 6.2577219 9.3682022 25 0 0 0 14.684672
-1.7554636 3.3052335 -1.9114966 236 0 0 0 14.684672
-4.0798707 6.0741143 7.7039652 32 0 0 0 14.684672
-3.5391815 6.0646052 -0.19182873 369 0 0 0 14.684672
-6.1205773 5.9893417 5.4680247 55 0 0 0 14.684672
-3.3429122 6.7510829 6.1139908 83 0 0 0 14.684672
-2.8649788 5.8863668 2.6290176 345 0 0 0 14.684672
-7.4864578 6.6473579 9.6920376 29 0 0 0 14.684672
-4.6441026 5.8278308 3.9600194 160 0 0 0 14.684672
-4.3587251 5.6502237 2.5381858 277 0 0 0 14.684672
-4.9848285 5.5926948 0.21947445 314 0 0 0 14.684672
-2.9636915 6.2707715 0.95576239 160 0 0 0 14.684672
-2.571476 5.9091377 -1.697979 109 0 0 0 14.684672
-2.4915879 3.6429524 -1.8231556 210 0 0 0 14.684672
-8.0678806 6.6795115 12.431245 8 0 0 0 14.684672
-3.5079379 7.1254215 4.6558442 120 0 0 0 14.684672
-3.0362158 6.1868701 3.5946991 57 0 0 0 14.684672
-1.9784695 4.6941319 -1.9002584 194 0 0 0 14.684672
-3.0502408 5.4698892 -1.7562668 153 0 0 0 14.684672
-3.0215342 6.1487546 9.4116783 25 0 0 0 14.684672
-3.1498363 6.3690963 7.8702264 35 0 0 0 14.684672
-4.0046186 5.6828227 -1.369782 362 0 0 0 14.684672
-2.8392682 5.8616705 2.250176 443 0 0 0 14.684672
-3.7705688 5.9800515 3.4977703 177 0 0 0 14.684672
-4.8144412 5.88482 5.0635991 68 0 0 0 14.684672
-1.9892628 3.6938968 -1.8831884 237 0 0 0 14.684672
-2.7832565 5.8082066 1.5414832 565 0 0 0 14.684672
-3.7498748 8.5251942 -1.4989063 48 0 0 0 14.778112
-2.8386595 5.9038558 3.0150933 280 0 0 0 14.778112
-3.731971 6.0040245 3.5003514 196 0 0 0 14.778112
-2.8175998 5.8838592 2.6215336 361 0 0 0 14.778112
-3.8380566 5.9206886 6.0581017 87 0 0 0 14.778112
-4.7441554 5.5047054 -0.86099875 402 0 0 0 14.778112
-4.9517298 5.94836 6.3619547 71 0 0 0 14.778112
-3.3371415 6.8546777 6.1897969 67 0 0 0 14.778112
-5.949842 6.0065536 4.8306098 105 0 0 0 14.778112
-4.422009 5.6871948 3.3889825 197 0 0 0 14.778112
-15.706276 34.28746 1.3101126 89 0 0 0 14.778112
-1.9767389 3.7207 -1.8900893 264 0 0 0 14.778112
-3.463882 6.0675707 -0.53194493 149 0 0 0 14.778112
-5.1310215 5.6738453 1.3638829 326 0 0 0 14.778112
-4.0059075 5.7138238 -1.0148889 522 0 0 0 14.778112
-5.7826757 6.3799167 10.667624 20 0 0 0 14.778112
-2.2422299 4.1681819 -1.8454437 216 0 0 0 14.778112
-3.9661591 8.8255587 -0.5890696 51 0 0 0 14.778112
-2.6062014 3.1193388 -1.7974079 217 0 0 0 14.778112
-2.3257935 2.7954028 -1.8347909 234 0 0 0 14.778112
-2.876617 6.2297163 0.60610163 213 0 0 0 14.778112
-3.691561 5.9835887 3.0604913 225 0 0 0 14.778112
-7.9580479 6.6808224 12.346006 9 0 0 0 14.778112
-4.8573198 5.5566869 -0.14255953 427 0 0 0 14.778112
-4.205029 7.499918 -1.5246837 91 0 0 0 14.778112
-3.5181739 5.878561 1.5032831 474 0 0 0 14.778112
-5.3457608 5.7194581 2.6154759 215 0 0 0 14.778112
-5.1579018 6.0872431 7.263298 45 0 0 0 14.778112
-5.068172 5.6564374 0.97233212 326 0 0 0 14.778112
-3.2710838 6.7180686 6.7282906 66 0 0 0 14.778112
-4.1309099 5.6272054 1.0418267 379 0 0 0 14.778112
-1.6915865 4.1547203 -1.932946 260 0 0 0 14.778112
-3.7346308 8.3917713 -1.0141019 42 0 0 0 14.778112
-5.5290155 5.7620006 3.5705404 135 0 0 0 14.778112
-5.4951987 5.8090334 3.1156282 216 0 0 0 14.778112
-2.7283669 5.823431 1.2118032 256 0 0 0 14.778112
-4.6597819 5.8504987 4.465416 131 0 0 0 14.778112
-3.6440933 5.9534597 2.641362 336 0 0 0 14.778112
-4.4232178 5.7509379 2.9889903 252 0 0 0 14.778112
-3.5037937 6.0357275 0.1530654 404 0 0 0 14.778112
-4.6791821 5.4616303 -1.2161553 304 0 0 0 14.778112
-1.4785898 3.7072573 -1.9639101 279 0 0 0 14.778112
-3.4697168 5.9289999 0.48565611 439 0 0 0 14.778112
-2.4737878 3.6613574 -1.8236288 183 0 0 0 14.778112
-2.9812024 6.1786265 9.4284811 24 0 0 0 14.778112
-3.592386 6.3476501 -0.91832447 123 0 0 0 14.778112
-6.4610643 6.1354613 7.0456481 53 0 0 0 14.778112
-1.2967478 3.3296905 -1.9916393 247 0 0 0 14.778112
-3.4779217 5.8520856 1.1523645 544 0 0 0 14.778112
-4.9258327 5.5940795 0.22180425 317 0 0 0 14.778112
-6.7719502 6.2709146 8.0818911 33 0 0 0 14.778112
-4.7994165 5.5311451 -0.50307959 401 0 0 0 14.778112
-3.0455849 6.2864366 8.598978 29 0 0 0 14.778112
-3.4948883 7.2172127 4.7028666 123 0 0 0 14.778112
-4.0559478 5.7445898 -0.67301494 515 0 0 0 14.778112
-2.1796689 3.2505248 -1.8500389 250 0 0 0 14.778112
-3.7241278 5.9465871 3.9171429 96 0 0 0 14.778112
-2.7709334 5.8453493 1.8881749 425 0 0 0 14.778112
-3.2038221 6.5856934 7.3114924 45 0 0 0 14.778112
-4.986794 5.6163578 0.59138381 347 0 0 0 14.778112
-5.2948856 5.7316074 2.1883659 308 0 0 0 14.778112
-4.2324214 5.6623778 1.7672347 354 0 0 0 14.778112
-4.0942483 6.1157727 8.6017046 36 0 0 0 14.778112
-3.6896636 5.8420024 4.3202424 110 0 0 0 14.778112
-2.9637947 3.531657 -1.767727 230 0 0 0 14.778112
-2.2865884 5.4186306 -1.8657714 160 0 0 0 14.778112
-3.3141818 5.9664993 -1.5526288 102 0 0 0 14.778112
-2.5175846 5.8780456 -1.6833009 128 0 0 0 14.778112
-3.2459488 4.7345219 -1.7276036 146 0 0 0 14.778112
-4.6134615 5.418489 -1.5725834 259 0 0 0 14.778112
-6.2226462 6.0444255 6.1784315 58 0 0 0 14.778112
-4.1926503 5.8002644 0.36638561 390 0 0 0 14.778112
-3.4360907 5.8289328 0.81049114 566 0 0 0 14.778112
-3.7120099 5.8313537 4.8182373 110 0 0 0 14.778112
-2.8131747 4.1317763 -1.7784582 215 0 0 0 14.778112
-3.9325206 4.6438737 -1.6620148 131 0 0 0 14.778112
-2.9137971 6.2643933 0.95359725 163 0 0 0 14.778112
-4.1740999 5.6362371 1.3980274 391 0 0 0 14.778112
-3.4645977 7.974885 -1.8442001 9 0 0 0 14.778112
-3.4445689 7.0959382 5.1740465 111 0 0 0 14.778112
-2.598865 4.7756414 -1.8161669 156 0 0 0 14.778112
-1.7392664 3.319308 -1.9129121 247 0 0 0 14.778112
-4.5754843 5.8181391 3.9372599 139 0 0 0 14.778112
-5.4464092 6.3007007 8.3905115 66 0 0 0 14.778112
-2.9900334 6.1936841 3.5892682 55 0 0 0 14.778112
-3.0215888 5.4928679 -1.7563092 152 0 0 0 14.778112
-4.1047435 5.7651472 -0.32925668 550 0 0 0 14.778112
-3.4968264 6.0753508 -0.1895109 151 0 0 0 14.778112
-3.78374 5.4774361 -1.6545267 143 0 0 0 14.778112
-3.91817 8.6351976 -0.10780299 89 0 0 0 14.778112
-2.7377918 5.8057523 1.5377837 550 0 0 0 14.778112
-5.0277033 6.1377535 5.8793192 132 0 0 0 14.778112
-3.1301897 6.4418797 7.9362416 58 0 0 0 14.778112
-2.792635 5.8594046 2.2441127 439 0 0 0 14.778112
-3.9536581 5.6808019 -1.3610201 372 0 0 0 14.778112
-7.3604851 6.6242428 9.5964947 53 0 0 0 14.778112
-4.2336841 6.2489333 9.8103189 19 0 0 0 14.778112
-6.023416 5.9711661 5.4217434 75 0 0 0 14.778112
-4.1561413 5.7046628 0.70516533 462 0 0 0 14.778112
-3.5915852 5.9123492 2.239821 382 0 0 0 14.778112
-3.3865566 6.9687114 5.6620083 89 0 0 0 14.778112
-4.7342777 5.8646436 5.0241103 99 0 0 0 14.778112
-5.5078831 6.2314281 9.2803965 36 0 0 0 14.778112
-4.0057483 6.0533657 7.6477017 36 0 0 0 14.778112
-4.1627669 5.8047681 0.016083874 538 0 0 0 14.778112
-3.3956263 4.0304751 -1.72396 172 0 0 0 14.778112
-3.773854 5.8750172 5.4079928 82 0 0 0 14.778112
-5.208849 5.7027092 1.7660137 250 0 0 0 14.778112
-3.5645242 5.9087605 1.8686807 418 0 0 0 14.778112
-5.9467783 6.1041617 4.3256125 266 0 0 0 14.778112
-4.2925143 5.6928997 2.1538026 291 0 0 0 14.778112
-3.9139538 5.9812379 6.7980194 54 0 0 0 14.778112
-4.307611 5.65728 2.5322709 311 0 0 0 14.778112
-1.9529246 4.7081871 -1.900497 204 0 0 0 14.778112
-2.2574203 5.4363036 -1.8664212 149 0 0 0 14.878464
-1.6692811 4.1669831 -1.9335235 270 0 0 0 14.878464
-4.0484977 5.7585907 -0.32489216 544 0 0 0 14.878464
-7.6149921 6.7265096 10.908059 17 0 0 0 14.878464
-4.9281306 5.6185808 0.59183306 365 0 0 0 14.878464
-3.7811999 5.9198537 6.0348835 63 0 0 0 14.878464
-4.1673975 5.6481881 1.7575954 322 0 0 0 14.878464
-2.7731755 5.886909 2.6165156 374 0 0 0 14.878464
-3.6843455 6.0132532 3.4944386 189 0 0 0 14.878464
-2.8694873 6.2693615 0.95301932 182 0 0 0 14.878464
-5.2156148 5.7167263 2.17419 315 0 0 0 14.878464
-2.4563792 3.6804047 -1.8245559 181 0 0 0 14.878464
-2.1656642 3.2692149 -1.8522871 246 0 0 0 14.878464
-5.2672038 5.7066083 2.5985494 210 0 0 0 14.878464
-2.6827884 5.819418 1.2088549 320 0 0 0 14.878464
-6.3540812 6.1139908 6.9800262 64 0 0 0 14.878464
-2.6929038 5.8038588 1.5341967 563 0 0 0 14.878464
-2.9439261 6.200213 3.5837159 48 0 0 0 14.878464
-3.5427892 5.9154682 2.2347453 349 0 0 0 14.878464
-2.9522638 6.2328849 9.4823303 25 0 0 0 14.878464
-4.1790795 7.4876137 -1.084808 55 0 0 0 14.878464
-4.9925046 5.6408715 0.96796799 368 0 0 0 14.878464
-4.1075807 5.8011093 0.018623533 492 0 0 0 14.878464
-2.6144218 3.1655562 -1.8139238 226 0 0 0 14.878464
-4.3568945 5.7396407 2.9720097 246 0 0 0 14.878464
-5.9339566 5.9592676 5.3817101 105 0 0 0 14.878464
-4.6010189 5.8542485 4.4493814 138 0 0 0 14.878464
-3.1755958 6.6433406 7.3538537 46 0 0 0 14.878464
-7.2978969 6.6571465 9.5827579 62 0 0 0 14.878464
-5.9264493 6.0605621 4.8483968 233 0 0 0 14.878464
-4.3677216 5.6920371 3.3785548 170 0 0 0 14.878464
-1.9315387 4.7324429 -1.9050961 183 0 0 0 14.878464
-4.7347531 5.5226603 -0.49643043 394 0 0 0 14.878464
-4.1192565 5.6345434 1.3940092 431 0 0 0 14.878464
-5.9099441 6.1445007 4.3322377 206 0 0 0 14.878464
-3.5080657 5.8980494 1.8605465 408 0 0 0 14.878464
-1.9542913 3.728925 -1.8874545 216 0 0 0 14.878464
-7.8555713 6.6870513 12.271246 17 0 0 0 14.878464
-5.4324517 6.2319689 9.2333136 41 0 0 0 14.878464
-4.234055 5.6890206 2.1452391 296 0 0 0 14.878464
-4.9734983 6.153985 5.8681827 105 0 0 0 14.878464
-3.9725053 8.9823561 -0.59686679 70 0 0 0 14.878464
-5.1194143 5.6748052 1.7513918 330 0 0 0 14.878464
-3.6578739 5.8308306 4.8009024 106 0 0 0 14.878464
-2.8344717 6.2379398 0.60651588 230 0 0 0 14.878464
-2.8018725 4.1662078 -1.7847244 264 0 0 0 14.878464
-3.6399989 5.9850817 3.0517919 254 0 0 0 14.878464
-3.2258868 4.7639017 -1.7295722 153 0 0 0 14.878464
-5.0731673 6.0695395 7.2073874 47 0 0 0 14.878464
-1.2762573 3.3313582 -1.9877175 241 0 0 0 14.878464
-3.4302151 5.8535252 1.150472 602 0 0 0 14.878464
-3.3749425 7.0637217 5.7229629 75 0 0 0 14.878464
-4.1536927 5.7749553 0.71291757 330 0 0 0 14.878464
-6.6766553 6.265635 8.0259533 34 0 0 0 14.878464
-3.4207561 5.8848572 0.81696558 409 0 0 0 14.878464
-3.4635916 5.8695769 1.497593 449 0 0 0 14.878464
-2.9982889 5.5257964 -1.7597581 141 0 0 0 14.878464
-2.4581525 5.8322549 -1.664574 151 0 0 0 14.878464
-3.2534385 6.7986608 6.7892103 59 0 0 0 14.878464
-3.4693596 6.1620059 -0.53708827 52 0 0 0 14.878464
-3.8594604 5.9864602 6.7781906 60 0 0 0 14.878464
-2.7251699 5.8431044 1.8833332 433 0 0 0 14.878464
-3.7674584 5.5221815 -1.6592604 146 0 0 0 14.878464
-1.4576555 3.7148628 -1.9629228 267 0 0 0 14.878464
-4.2441559 5.6473546 2.5189199 266 0 0 0 14.878464
-3.3237777 6.94524 6.2535629 79 0 0 0 14.878464
-1.7225686 3.3324792 -1.9139225 310 0 0 0 14.878464
-4.1404395 6.2055697 9.7026539 22 0 0 0 14.878464
-5.0681095 5.6739635 1.3599761 307 0 0 0 14.878464
-3.4772522 6.0740633 0.15522049 428 0 0 0 14.878464
-3.7083499 6.0075798 3.9439082 132 0 0 0 14.878464
-3.9195526 4.6833673 -1.6654702 127 0 0 0 14.878464
-3.7165041 8.485754 -1.0215603 55 0 0 0 14.878464
-4.1521764 5.8181095 0.36843574 523 0 0 0 14.878464
-3.4819384 7.3115244 4.751296 105 0 0 0 14.878464
-2.7907784 5.9008389 3.0059953 272 0 0 0 14.878464
-3.7347624 8.627861 -1.5118886 69 0 0 0 14.878464
-3.113189 6.522068 8.0110531 43 0 0 0 14.878464
-3.02882 6.3661761 8.681757 32 0 0 0 14.878464
-2.9541256 3.56126 -1.772082 223 0 0 0 14.878464
-4.8637481 5.5911665 0.2238671 361 0 0 0 14.878464
-5.4158063 6.3521385 8.4166441 68 0 0 0 14.878464
-4.0338364 6.117487 8.5698643 35 0 0 0 14.878464
-4.1059752 5.6657643 1.0467048 380 0 0 0 14.878464
-4.6314321 5.4706035 -1.2089022 301 0 0 0 14.878464
-4.2026043 7.5996695 -1.538128 74 0 0 0 14.878464
-4.0048757 5.7442369 -0.66763514 551 0 0 0 14.878464
-4.687952 5.5049701 -0.85345322 351 0 0 0 14.878464
-4.7991567 5.5569763 -0.13855083 434 0 0 0 14.878464
-6.1343951 6.0371299 6.1362886 83 0 0 0 14.878464
-2.7477827 5.8602414 2.2392228 456 0 0 0 14.878464
-5.4244051 5.8070898 3.1004744 208 0 0 0 14.878464
-4.8936944 5.9589219 6.3434978 69 0 0 0 14.878464
-3.4172299 7.1590796 5.2056675 76 0 0 0 14.878464
-3.37465 4.0526643 -1.7227817 177 0 0 0 14.878464
-2.5766077 4.7999935 -1.8184333 166 0 0 0 14.878464
-3.8862398 8.6244507 0.35944915 69 0 0 0 14.878464
-4.5671225 5.427886 -1.5643731 222 0 0 0 14.878464
-4.5056038 5.805778 3.9129462 182 0 0 0 14.878464
-3.9039834 5.6799536 -1.3527826 403 0 0 0 14.878464
-3.6628575 5.8843827 4.3365178 143 0 0 0 14.878464
-3.466506 6.0068898 0.49178115 391 0 0 0 14.878464
-3.2917659 6.008215 -1.5568697 46 0 0 0 14.878464
-3.9583139 5.7172666 -1.0088313 474 0 0 0 14.878464
-3.9001436 8.7343426 -0.10742051 35 0 0 0 14.878464
-3.945348 6.0522542 7.6166334 50 0 0 0 14.878464
-5.6646304 6.3378501 10.540704 19 0 0 0 14.878464
-2.2239566 4.1910701 -1.848786 237 0 0 0 14.878464
-3.5962801 5.9597311 2.6363113 310 0 0 0 14.878464
-2.3178551 2.8179121 -1.8393024 215 0 0 0 14.878464
-4.6728005 5.8665881 5.0038071 122 0 0 0 14.878464
-5.4509964 5.7533288 3.5481939 186 0 0 0 14.878464
-3.7185431 5.8745589 5.3880954 95 0 0 0 14.878464
-3.4446287 6.0684042 -0.18666264 160 0 0 0 14.878464
-3.4136593 5.8677602 1.4937996 418 0 0 0 14.972672
-3.8566244 5.6819849 -1.3453325 390 0 0 0 14.972672
-3.2307003 6.8705282 6.8414984 59 0 0 0 14.972672
-3.9035442 5.7097502 -1.0008277 433 0 0 0 14.972672
-4.7133374 5.9112287 5.6127949 88 0 0 0 14.972672
-1.6509017 4.1893592 -1.9389184 242 0 0 0 14.972672
-4.0004153 5.7630777 -0.32124925 579 0 0 0 14.972672
-5.5358906 6.2813106 10.391928 14 0 0 0 14.972672
-2.9383099 3.5836828 -1.772758 226 0 0 0 14.972672
-3.4197955 7.2873187 5.2843566 109 0 0 0 14.972672
-3.4474015 6.1070867 0.15731119 184 0 0 0 14.972672
-4.8051081 5.5915236 0.22604273 356 0 0 0 14.972672
-5.8989592 6.1107559 4.863256 226 0 0 0 14.972672
-4.0544205 6.1709313 9.6100035 20 0 0 0 14.972672
-5.1412358 5.7061195 2.161849 288 0 0 0 14.972672
-3.9123359 6.0929379 7.6384563 61 0 0 0 14.972672
-3.4518602 5.8868742 1.8524152 455 0 0 0 14.972672
-3.8645339 8.7960672 -0.10634436 18 0 0 0 14.972672
-3.9043987 4.7206659 -1.6680815 108 0 0 0 14.972672
-4.1899667 5.648994 2.5108769 248 0 0 0 14.972672
-3.4530766 6.0684862 0.49672103 458 0 0 0 14.972672
-3.2061021 4.7940264 -1.7318057 191 0 0 0 14.972672
-2.932626 6.3083668 9.5685329 22 0 0 0 14.972672
-4.0914965 5.8070998 0.36887458 546 0 0 0 14.972672
-3.6993268 8.5843992 -1.0295217 53 0 0 0 14.972672
-3.9633186 6.1028256 8.5160065 37 0 0 0 14.972672
-6.0257583 6.0082331 6.0732441 73 0 0 0 14.972672
-3.457979 7.3848281 4.7861795 102 0 0 0 14.972672
-4.539762 5.854095 4.4307871 132 0 0 0 14.972672
-3.4152124 5.9589205 0.82588387 361 0 0 0 14.972672
-4.0979595 5.7283969 1.0559182 349 0 0 0 14.972672
-2.1510098 3.2871172 -1.8540804 243 0 0 0 14.972672
-3.9539235 5.7434998 -0.662251 512 0 0 0 14.972672
-4.6331606 5.5063043 -0.84616059 354 0 0 0 14.972672
-4.5805531 5.4754467 -1.2007892 308 0 0 0 14.972672
-3.6592066 5.8669105 5.362093 92 0 0 0 14.972672
-3.5608661 6.4136066 -0.55678028 131 0 0 0 14.972672
-3.1678126 6.7457695 7.4456415 48 0 0 0 14.972672
-2.9719641 5.5535769 -1.7615199 146 0 0 0 14.972672
-4.1332388 5.8210764 0.71788275 415 0 0 0 14.972672
-4.158329 7.5549793 -1.0889853 86 0 0 0 14.972672
-5.3825259 6.2611661 9.2293825 37 0 0 0 14.972672
-5.1934824 5.6979375 2.5837882 249 0 0 0 14.972672
-1.4350532 3.7182009 -1.9596699 278 0 0 0 14.972672
-4.175796 5.6846471 2.1366701 334 0 0 0 14.972672
-5.380168 5.7512689 3.5302823 183 0 0 0 14.972672
-3.7992353 5.9820285 6.7480454 54 0 0 0 14.972672
-3.0193462 6.4636674 8.7886209 26 0 0 0 14.972672
-3.401886 6.0776377 -0.18441653 147 0 0 0 14.972672
-3.358923 4.081368 -1.7244391 222 0 0 0 14.972672
-6.6068292 6.2832794 8.000248 46 0 0 0 14.972672
-2.4403346 3.7017031 -1.8266292 201 0 0 0 14.972672
-7.7544117 6.6930704 12.197957 24 0 0 0 14.972672
-2.2054753 4.2139058 -1.8521029 234 0 0 0 14.972672
-3.3304961 6.1638594 -1.5912926 17 0 0 0 14.972672
-4.822598 5.9527526 6.3079171 93 0 0 0 14.972672
-7.5451488 6.7564406 10.884843 14 0 0 0 14.972672
-4.3113537 5.6935377 3.3664329 162 0 0 0 14.972672
-1.9074785 4.7505579 -1.9071738 185 0 0 0 14.972672
-5.888032 5.9904251 5.3808703 104 0 0 0 14.972672
-3.390497 5.8682809 1.1511904 514 0 0 0 14.972672
-4.1112661 5.645205 1.7515262 295 0 0 0 14.972672
-2.7010279 5.856452 2.2327356 496 0 0 0 14.972672
-5.0622802 5.6817594 1.7474891 304 0 0 0 14.972672
-2.7276342 5.887104 2.6104074 327 0 0 0 14.972672
-3.6205032 5.9952335 3.4730952 228 0 0 0 14.972672
-3.9643388 9.11028 -0.60250354 64 0 0 0 14.972672
-2.638968 5.8186536 1.2066447 319 0 0 0 14.972672
-2.2277398 5.4529595 -1.8667345 170 0 0 0 14.972672
-2.8227584 6.2686076 0.95167226 186 0 0 0 14.972672
-1.9359654 3.7451084 -1.8889731 239 0 0 0 14.972672
-4.1873498 7.6780829 -1.5470235 57 0 0 0 14.972672
-4.9997435 6.0641389 7.1669087 53 0 0 0 14.972672
-2.5545766 4.8251052 -1.8209953 157 0 0 0 14.972672
-7.2494273 6.7026863 9.5878019 24 0 0 0 14.972672
-3.7318048 5.9300985 6.0233722 105 0 0 0 14.972672
-2.8997197 6.2104239 3.5804834 43 0 0 0 14.972672
-4.8552523 5.6037226 0.59063321 328 0 0 0 14.972672
-4.4355288 5.7920732 3.8881466 202 0 0 0 14.972672
-4.0771999 5.6499186 1.3942032 418 0 0 0 14.972672
-1.2579192 3.3386071 -1.9872451 279 0 0 0 14.972672
-2.650147 5.8060646 1.531769 578 0 0 0 14.972672
-3.5461216 5.9616165 2.6295199 334 0 0 0 14.972672
-3.3697515 7.1749434 5.7969241 74 0 0 0 14.972672
-2.600929 3.1858375 -1.8151472 223 0 0 0 14.972672
-3.6198778 5.8557072 4.8046679 98 0 0 0 14.972672
-6.1511135 5.9971061 6.8077488 42 0 0 0 14.972672
-2.6759131 5.8326592 1.8760242 467 0 0 0 14.972672
-2.7814245 4.1873541 -1.7851433 254 0 0 0 14.972672
-2.7866099 6.2331543 0.60579365 207 0 0 0 14.972672
-3.4969814 5.9231367 2.2315085 363 0 0 0 14.972672
-3.0994711 6.6113906 8.0970373 47 0 0 0 14.972672
-3.873702 8.7372637 0.36451018 73 0 0 0 14.972672
-5.3487921 5.7990165 3.0824099 206 0 0 0 14.972672
-4.0439773 5.7847152 0.021200996 565 0 0 0 14.972672
-3.5809982 5.9735665 3.0367606 276 0 0 0 14.972672
-5.950181 6.2662234 4.39573 121 0 0 0 14.972672
-4.517066 5.4324465 -1.5548359 262 0 0 0 14.972672
-4.9354658 5.6455512 0.96702349 385 0 0 0 14.972672
-3.6431797 5.9389539 4.3618088 98 0 0 0 14.972672
-4.2869997 5.7225623 2.9523659 251 0 0 0 14.972672
-2.3158741 2.848043 -1.848835 237 0 0 0 14.972672
-3.3205771 7.0598044 6.3387718 59 0 0 0 14.972672
-4.6799922 5.5250478 -0.49089694 342 0 0 0 14.972672
-1.7061634 3.3463757 -1.9153779 267 0 0 0 14.972672
-3.7523825 5.5693626 -1.6646914 137 0 0 0 14.972672
-4.6341276 5.8968196 5.0078392 110 0 0 0 14.972672
-2.3108528 5.5728679 -1.58358 500 0 0 0 14.972672
-3.6988108 8.6843786 -1.5164884 71 0 0 0 14.972672
-4.7327142 5.5468936 -0.13424349 423 0 0 0 14.972672
-3.6955447 6.0745764 3.9746048 107 0 0 0 14.972672
-5.0034184 5.6713243 1.3555379 322 0 0 0 14.972672
-5.3801928 6.3980236 8.4357224 52 0 0 0 14.972672
-2.7457228 5.9032249 2.9998181 284 0 0 0 14.972672
-4.0785117 5.7757745 1.0623289 333 0 0 0 15.07328
-3.9041734 4.7765727 -1.6774814 122 0 0 0 15.07328
-2.939604 5.5701451 -1.7597928 150 0 0 0 15.07328
-5.4783492 6.3041706 10.37521 18 0 0 0 15.07328
-4.0066304 6.1934805 9.6067152 19 0 0 0 15.07328
-4.7561989 5.9514503 6.2778955 67 0 0 0 15.07328
-2.4196196 3.7159469 -1.8252648 239 0 0 0 15.07328
-2.1367185 3.3056793 -1.856362 257 0 0 0 15.07328
-4.4665046 5.4358087 -1.5452008 261 0 0 0 15.07328
-2.182986 4.2292004 -1.8521547 268 0 0 0 15.07328
-5.872292 6.1621575 4.8790045 184 0 0 0 15.07328
-3.5593774 5.9805536 3.4538236 209 0 0 0 15.07328
-3.3939691 6.0980206 0.15847926 165 0 0 0 15.07328
-3.94906 5.7622309 -0.31741944 566 0 0 0 15.07328
-3.8550956 5.7107744 -0.99458706 454 0 0 0 15.07328
-5.1137705 5.6815429 2.5657229 270 0 0 0 15.07328
-4.5804334 5.5094419 -0.8393631 323 0 0 0 15.07328
-5.9551506 5.8829942 6.6407161 75 0 0 0 15.07328
-4.7950654 5.6025896 0.59070307 369 0 0 0 15.07328
-4.0542283 5.6401839 1.74485 331 0 0 0 15.07328
-2.631274 5.8314857 1.8716394 483 0 0 0 15.07328
-4.6241088 5.5254221 -0.48534739 373 0 0 0 15.07328
-2.651721 5.8463039 2.223875 434 0 0 0 15.07328
-3.3873675 5.947084 1.1640007 393 0 0 0 15.07328
-1.8850056 4.772861 -1.91111 180 0 0 0 15.07328
-2.6810756 5.8844571 2.6030791 358 0 0 0 15.07328
-2.5984931 5.8247662 1.2057694 361 0 0 0 15.07328
-2.2071874 5.4923606 -1.8751605 172 0 0 0 15.07328
-5.3892031 6.4980936 8.5256386 30 0 0 0 15.07328
-3.6744807 5.9271302 5.9987321 90 0 0 0 15.07328
-4.0613046 5.7017846 1.4031121 408 0 0 0 15.07328
-3.3452899 7.24757 5.8395963 85 0 0 0 15.07328
-3.7258351 5.9556508 6.6936731 82 0 0 0 15.07328
-2.6074932 5.8079796 1.5292337 557 0 0 0 15.07328
-3.6436093 6.0277138 4.411849 140 0 0 0 15.07328
-3.1908255 4.8312259 -1.7367615 174 0 0 0 15.07328
-2.8518307 6.212306 3.5725346 38 0 0 0 15.07328
-2.3036432 2.8657146 -1.8501556 219 0 0 0 15.07328
-3.7293954 5.6052146 -1.666755 171 0 0 0 15.07328
-3.9164014 6.1238165 8.5121241 25 0 0 0 15.07328
-3.8539791 8.8364878 0.3689405 59 0 0 0 15.07328
-3.0787935 6.688139 8.1673546 45 0 0 0 15.07328
-4.2578902 5.6982298 3.3562996 172 0 0 0 15.07328
-1.6293542 4.2039461 -1.9407517 252 0 0 0 15.07328
-2.5257893 4.8374991 -1.8187883 152 0 0 0 15.07328
-4.8733993 5.6437316 0.96495575 370 0 0 0 15.07328
-4.6820292 5.5545564 -0.130641 372 0 0 0 15.07328
-2.6977527 5.8987012 2.9902079 307 0 0 0 15.07328
-3.4474142 5.9239035 2.2257175 331 0 0 0 15.07328
-5.9527845 6.0136538 6.0453539 67 0 0 0 15.07328
-4.9220195 6.0524144 7.1195469 54 0 0 0 15.07328
-4.5789728 5.9057932 4.9940467 123 0 0 0 15.07328
-3.653579 8.7198067 -1.51748 70 0 0 0 15.07328
-1.2401521 3.3473485 -1.9878181 247 0 0 0 15.07328
-3.3653681 5.8681092 1.4905179 472 0 0 0 15.07328
-5.2547212 5.7695689 3.0533464 212 0 0 0 15.07328
-3.4099693 7.3923826 5.3460059 104 0 0 0 15.07328
-3.2918627 7.1224961 6.377337 65 0 0 0 15.07328
-3.8160529 8.8292103 -0.10493921 21 0 0 0 15.07328
-4.1443253 7.7062764 -1.5456637 48 0 0 0 15.07328
-1.6880724 3.3569882 -1.9150383 263 0 0 0 15.07328
-2.9933939 6.5281653 8.8504181 29 0 0 0 15.07328
-3.1549377 6.8401213 7.5281682 29 0 0 0 15.07328
-4.1412101 7.6301727 -1.0944393 49 0 0 0 15.07328
-2.9120889 6.3840103 9.6546412 24 0 0 0 15.07328
-5.0091467 5.6926365 1.7447728 325 0 0 0 15.07328
-4.4625649 5.8322978 4.3962064 148 0 0 0 15.07328
-1.9208292 3.7676475 -1.8938874 249 0 0 0 15.07328
-3.940676 9.2053757 -0.60593814 64 0 0 0 15.07328
-5.3108673 5.7499385 3.5130301 191 0 0 0 15.07328
-2.9281924 3.6132486 -1.7771404 225 0 0 0 15.07328
-3.686096 6.1484437 4.0095892 135 0 0 0 15.07328
-2.7785833 6.2729597 0.95100123 207 0 0 0 15.07328
-3.5279303 5.9710736 3.0263574 299 0 0 0 15.07328
-3.8716195 6.121912 7.6456809 49 0 0 0 15.07328
-4.1172266 5.6790185 2.1276834 311 0 0 0 15.07328
-5.3467407 6.3069234 9.2498951 35 0 0 0 15.07328
-4.7292147 5.5707693 0.2273834 358 0 0 0 15.07328
-2.2739394 5.5747266 -1.5793182 539 0 0 0 15.07328
-5.8653193 6.2564821 4.367548 36 0 0 0 15.07328
-4.1320605 5.6448793 2.5003781 291 0 0 0 15.07328
-4.9499688 5.6807489 1.353888 324 0 0 0 15.07328
-3.4027283 5.8869634 1.8477672 448 0 0 0 15.07328
-3.4239187 6.1031537 0.49953699 230 0 0 0 15.07328
-4.2389779 5.733912 2.9473436 269 0 0 0 15.07328
-5.0793834 5.7085247 2.1544356 303 0 0 0 15.07328
-7.1269073 6.6787372 9.4945602 21 0 0 0 15.07328
-3.6001172 5.9105673 4.8328533 92 0 0 0 15.07328
-3.3471701 4.1151438 -1.7283797 226 0 0 0 15.07328
-4.0425224 5.8119693 0.37011582 606 0 0 0 15.07328
-4.0918469 5.8378 0.719329 465 0 0 0 15.07328
-6.5171003 6.2810712 7.9500089 44 0 0 0 15.07328
-3.5782356 6.5362105 -0.56438679 130 0 0 0 15.07328
-3.4133089 6.0409155 0.83575803 368 0 0 0 15.07328
-4.5235214 5.4722414 -1.191089 328 0 0 0 15.07328
-3.904815 5.7448039 -0.65728956 449 0 0 0 15.07328
-3.4943583 6.3316054 -0.19123299 97 0 0 0 15.07328
-7.6817236 6.7228551 12.168856 36 0 0 0 15.07328
-1.4188179 3.7380669 -1.9654664 275 0 0 0 15.07328
-3.6788146 8.677619 -1.0369209 49 0 0 0 15.07328
-2.3109879 5.5861449 -1.2659181 65 0 0 0 15.07328
-4.3775749 5.7932901 3.8734951 156 0 0 0 15.07328
-2.7546599 4.1989298 -1.7815316 280 0 0 0 15.07328
-5.8648639 6.0449228 5.400887 94 0 0 0 15.07328
-3.9886858 5.7792797 0.02360972 567 0 0 0 15.07328
-3.2159157 6.9613924 6.9123907 54 0 0 0 15.07328
-2.5850143 3.2031891 -1.8147759 208 0 0 0 15.07328
-3.6010098 5.8601723 5.337182 83 0 0 0 15.07328
-2.7345209 6.2179852 0.60404056 200 0 0 0 15.07328
-4.6420698 5.9013529 5.5788097 87 0 0 0 15.07328
-3.4039724 7.3946481 4.7801189 36 0 0 0 15.07328
-3.8153875 5.6925802 -1.340176 368 0 0 0 15.07328
-3.6069763 6.7696958 -1.744472 26 0 0 0 15.07328
-3.4885385 5.9502163 2.616991 342 0 0 0 15.07328
-2.652178 5.8987846 2.9831002 351 0 0 0 15.168256
-4.8134499 5.6436505 0.96324158 370 0 0 0 15.168256
-5.3658385 6.5603342 8.5659523 15 0 0 0 15.168256
-2.7308733 6.268836 0.94915724 220 0 0 0 15.168256
-3.3478281 7.3993554 4.7710514 28 0 0 0 15.168256
-1.4023887 3.7578835 -1.9712441 316 0 0 0 15.168256
-2.9863672 6.636312 8.9712 25 0 0 0 15.168256
-3.1947882 7.0408182 6.971972 42 0 0 0 15.168256
-2.9160752 3.6406543 -1.7804047 155 0 0 0 15.168256
-2.5402279 5.7900825 1.1967821 467 0 0 0 15.168256
-2.6338844 5.8797641 2.5950229 335 0 0 0 15.168256
-2.9137814 5.5993376 -1.7621719 168 0 0 0 15.168256
-3.3751619 6.0114441 1.1740959 379 0 0 0 15.168256
-4.5923171 5.9181314 5.5703816 97 0 0 0 15.168256
-2.5621448 5.8033614 1.5251116 540 0 0 0 15.168256
-3.601629 8.7395153 -1.5156679 82 0 0 0 15.168256
-3.3989072 6.102283 0.84293705 381 0 0 0 15.168256
-2.1858833 5.5308399 -1.883248 262 0 0 0 15.168256
-3.1731205 4.8652267 -1.7405112 147 0 0 0 15.168256
-3.8496208 6.1130681 8.4649553 35 0 0 0 15.168256
-2.8958912 6.471457 9.7585688 14 0 0 0 15.168256
-6.4035273 6.2543182 7.8700585 51 0 0 0 15.168256
-3.3946421 5.9185066 2.217797 377 0 0 0 15.168256
-4.0368013 5.8345933 0.71849149 546 0 0 0 15.168256
-1.223503 3.3592751 -1.9903553 251 0 0 0 15.168256
-3.987968 5.8082356 0.37088764 579 0 0 0 15.168256
-3.064362 6.7807631 8.256999 47 0 0 0 15.168256
-2.8054841 6.2170649 3.5664403 45 0 0 0 15.168256
-3.5108316 5.9862418 3.4464731 224 0 0 0 15.168256
-4.5670929 5.523807 -0.47966525 397 0 0 0 15.168256
-3.3715203 6.1446514 0.16076347 197 0 0 0 15.168256
-3.1256733 6.9010177 7.5740438 59 0 0 0 15.168256
-4.3992939 5.8276048 4.3748951 181 0 0 0 15.168256
-7.2571616 6.6780977 10.621383 16 0 0 0 15.168256
-3.9512405 9.3842192 -0.61516488 44 0 0 0 15.168256
-2.3983061 3.7293169 -1.8234984 212 0 0 0 15.168256
-4.9464693 5.6920376 1.7387407 283 0 0 0 15.168256
-2.1261404 3.3302805 -1.8621042 234 0 0 0 15.168256
-4.0232167 5.6711264 1.7491859 354 0 0 0 15.168256
-6.6354132 6.3018651 8.9060478 37 0 0 0 15.168256
-3.5869498 5.9773731 4.8707767 85 0 0 0 15.168256
-4.5171094 5.4991174 -0.83050704 386 0 0 0 15.168256
-2.6866565 6.2115679 0.60313046 187 0 0 0 15.168256
-3.429354 5.9350939 2.6030548 343 0 0 0 15.168256
-3.8858886 4.8109078 -1.6790504 122 0 0 0 15.168256
-4.7369814 5.6032372 0.5909822 395 0 0 0 15.168256
-2.5689707 3.2204821 -1.8143913 210 0 0 0 15.168256
-2.7344675 4.2206149 -1.7823467 221 0 0 0 15.168256
-1.6742302 3.3762589 -1.9197701 229 0 0 0 15.168256
-4.0527496 5.66432 2.1155341 289 0 0 0 15.168256
-3.8128328 6.1219497 7.6174011 50 0 0 0 15.168256
-4.0798764 5.6479192 2.4932008 325 0 0 0 15.168256
-3.3556242 5.8900352 1.8441578 462 0 0 0 15.168256
-5.0514684 5.6835651 2.5561259 254 0 0 0 15.168256
-4.6729736 5.5723219 0.22947726 395 0 0 0 15.168256
-4.0750093 5.8466902 1.0729536 408 0 0 0 15.168256
-3.7719707 5.699635 -1.334219 378 0 0 0 15.168256
-3.9472501 6.1976428 9.5757008 23 0 0 0 15.168256
-3.8072929 5.7122669 -0.98849255 517 0 0 0 15.168256
-1.8923278 2.9876935 -1.8913593 260 0 0 0 15.168256
-4.8460808 6.0416756 7.0741735 57 0 0 0 15.168256
-4.1964746 5.6915431 3.339802 160 0 0 0 15.168256
-5.2381063 5.743928 3.4933078 194 0 0 0 15.168256
-3.8268566 8.9211063 0.37288085 40 0 0 0 15.168256
-1.9079324 3.795027 -1.9012804 227 0 0 0 15.168256
-3.5609624 6.5447602 -0.19637276 57 0 0 0 15.168256
-5.8356667 6.2033339 4.8868566 157 0 0 0 15.168256
-5.8359666 6.0938802 5.4160943 208 0 0 0 15.168256
-2.6061044 5.8435488 2.2179327 436 0 0 0 15.168256
-2.4960558 4.8480568 -1.8159181 165 0 0 0 15.168256
-2.5824449 5.8203249 1.8642275 459 0 0 0 15.168256
-4.1247206 7.7080722 -1.1002264 56 0 0 0 15.168256
-3.6879542 6.832952 -0.58789802 33 0 0 0 15.168256
-2.2670155 5.5716472 -1.2584329 626 0 0 0 15.168256
-4.4473467 5.4774466 -1.5467815 253 0 0 0 15.168256
-3.7066262 5.6418219 -1.669034 163 0 0 0 15.168256
-4.6933813 5.9537945 6.2522984 78 0 0 0 15.168256
-5.2977285 6.3370996 9.2480841 62 0 0 0 15.168256
-5.3799376 6.2788458 10.280645 25 0 0 0 15.168256
-3.2778702 7.2190547 6.446146 79 0 0 0 15.168256
-4.6403437 5.5725942 -0.12736487 351 0 0 0 15.168256
-2.1704822 4.2642665 -1.86107 274 0 0 0 15.168256
-4.497098 5.8792439 4.9508939 117 0 0 0 15.168256
-3.8535898 5.7424378 -0.65192741 470 0 0 0 15.168256
-7.617661 6.7596602 12.153516 45 0 0 0 15.168256
-3.6016641 6.8556132 -1.7596613 21 0 0 0 15.168256
-3.56232 5.8847461 5.341001 87 0 0 0 15.168256
-3.6435223 8.7379045 -1.0401741 34 0 0 0 15.168256
-4.3208351 5.7954316 3.8597722 159 0 0 0 15.168256
-3.9380836 5.7800188 0.025998652 529 0 0 0 15.168256
-3.8983927 5.7618194 -0.31364086 507 0 0 0 15.168256
-1.6080022 4.2192941 -1.9429694 257 0 0 0 15.168256
-3.3814092 6.1141229 0.50059777 171 0 0 0 15.168256
-3.6660366 6.2058668 4.0339379 165 0 0 0 15.168256
-5.8934326 5.8993912 6.6217709 58 0 0 0 15.168256
-3.6360533 6.1050339 4.4534903 117 0 0 0 15.168256
-3.6070714 5.906816 5.957171 69 0 0 0 15.168256
-3.3171847 5.8680944 1.4872432 485 0 0 0 15.168256
-4.1773448 5.7261953 2.9328494 248 0 0 0 15.168256
-3.4768724 5.9713278 3.0175445 308 0 0 0 15.168256
-5.0322981 5.727057 2.1531692 295 0 0 0 15.168256
-3.3156428 7.3105941 5.8746572 88 0 0 0 15.168256
-4.4791079 5.4838495 -1.1848173 347 0 0 0 15.168256
-3.6735165 5.9619079 6.6764665 68 0 0 0 15.168256
-5.8794355 6.0178165 6.0168529 59 0 0 0 15.168256
-5.677907 6.1345625 4.2624955 54 0 0 0 15.168256
-1.8629974 4.7968206 -1.9157362 167 0 0 0 15.168256
-4.0978551 7.7281666 -1.5430249 90 0 0 0 15.168256
-3.3291907 4.141541 -1.7291268 215 0 0 0 15.168256
-2.2316608 5.5629196 -1.5711347 529 0 0 0 15.168256
-5.1824121 5.762784 3.0365212 225 0 0 0 15.168256
-3.3739748 7.4427166 5.3683224 48 0 0 0 15.168256
-4.8709035 5.6598616 1.3453143 373 0 0 0 15.168256
-4.0539241 5.7665243 1.4151365 251 0 0 0 15.168256
-2.2841036 2.8742921 -1.8455106 218 0 0 0 15.168256
-3.8876371 5.7803454 0.02826806 496 0 0 0 15.269376
-4.1097932 7.7903976 -1.1067625 16 0 0 0 15.269376
-3.8133905 6.1504664 8.4845104 35 0 0 0 15.269376
-1.838454 4.814538 -1.9179454 185 0 0 0 15.269376
-3.6468565 6.8539996 -0.58601868 52 0 0 0 15.269376
-3.3427348 6.1318059 0.50207824 155 0 0 0 15.269376
-4.4075351 5.461319 -1.1711633 450 0 0 0 15.269376
-3.8601496 4.8361087 -1.6774772 132 0 0 0 15.269376
-5.8329101 5.916451 6.6039267 60 0 0 0 15.269376
-5.8749433 6.3264894 4.9585819 75 0 0 0 15.269376
-1.381168 3.7650192 -1.9703438 275 0 0 0 15.269376
-5.1711726 5.7433925 3.4771004 201 0 0 0 15.269376
-2.534271 5.8096862 1.8569825 430 0 0 0 15.269376
-5.6066017 6.1358123 4.2430782 79 0 0 0 15.269376
-2.5595758 3.2462642 -1.8189926 196 0 0 0 15.269376
-3.3411667 5.9110508 2.2091467 405 0 0 0 15.269376
-3.6100473 5.949244 6.6384745 51 0 0 0 15.269376
-5.1252766 5.7721033 3.0282345 205 0 0 0 15.269376
-4.5497861 5.5308123 -0.12246303 451 0 0 0 15.269376
-3.3844271 5.9439054 2.5995376 315 0 0 0 15.269376
-5.8221574 6.0378013 6.004447 55 0 0 0 15.269376
-4.8018689 5.6494951 1.3391818 348 0 0 0 15.269376
-3.4232466 5.9664388 3.0062301 241 0 0 0 15.269376
-3.2929139 7.3905907 5.9231515 64 0 0 0 15.269376
-4.1310964 5.6784959 3.3197775 186 0 0 0 15.269376
-4.418828 5.8559585 4.9109068 115 0 0 0 15.269376
-3.2904034 7.4005589 4.7598305 35 0 0 0 15.269376
-2.6049035 5.8944087 2.9738066 311 0 0 0 15.269376
-4.3358021 5.8217182 4.3529358 181 0 0 0 15.269376
-3.1489398 4.8894982 -1.7408122 150 0 0 0 15.269376
-1.6590655 3.3930552 -1.923167 258 0 0 0 15.269376
-3.6788304 5.6709933 -1.669189 159 0 0 0 15.269376
-1.5839669 4.2276444 -1.9420314 257 0 0 0 15.269376
-4.0185533 5.6375017 2.4802334 273 0 0 0 15.269376
-3.5605457 6.0231051 4.8914967 110 0 0 0 15.269376
-3.8484435 5.7618208 -0.31003213 519 0 0 0 15.269376
-3.6173558 6.1649842 4.4823637 134 0 0 0 15.269376
-3.8744671 6.1797442 9.5112648 25 0 0 0 15.269376
-3.7371876 5.7194786 -1.3315274 329 0 0 0 15.269376
-3.7937632 5.7263641 -0.64509451 536 0 0 0 15.269376
-4.4964137 5.5046754 -0.47252935 412 0 0 0 15.269376
-2.7585077 6.2199116 3.5593123 34 0 0 0 15.269376
-3.2595928 7.3087192 6.508564 80 0 0 0 15.269376
-4.0998101 5.6954331 2.9068434 278 0 0 0 15.269376
-3.1173654 7.0104637 7.6727552 28 0 0 0 15.269376
-2.5200834 5.8055634 1.5227139 493 0 0 0 15.269376
-3.6529305 8.908349 -1.0571707 14 0 0 0 15.269376
-4.0321445 5.8615007 1.0735515 476 0 0 0 15.269376
-3.1915526 7.1624742 7.0728922 57 0 0 0 15.269376
-3.4047658 6.2950063 0.16503491 152 0 0 0 15.269376
-2.562938 5.8456793 2.2138236 452 0 0 0 15.269376
-4.7556233 5.6453276 0.96176666 340 0 0 0 15.269376
-3.3034396 5.8835015 1.8375933 451 0 0 0 15.269376
-2.1538796 5.5426216 -1.8821714 352 0 0 0 15.269376
-5.1435132 6.3764925 8.2873507 11 0 0 0 15.269376
-4.045825 7.7392726 -1.5383807 93 0 0 0 15.269376
-2.4965513 5.7874212 1.1941862 478 0 0 0 15.269376
-3.262022 5.8549132 1.4806905 519 0 0 0 15.269376
-5.7928286 6.1280723 5.4182734 172 0 0 0 15.269376
-1.8787519 3.0031085 -1.8932109 236 0 0 0 15.269376
-4.2763181 5.8135123 3.8566997 138 0 0 0 15.269376
-2.1913826 5.5552678 -1.5643514 564 0 0 0 15.269376
-2.7161505 4.2453399 -1.7845947 237 0 0 0 15.269376
-2.2291205 5.5713153 -1.2544317 703 0 0 0 15.269376
-3.65904 6.2867436 4.0732632 148 0 0 0 15.269376
-1.8843058 3.8011646 -1.8979034 254 0 0 0 15.269376
-3.9858963 5.836689 0.71820039 556 0 0 0 15.269376
-6.2656097 6.2016239 7.7588983 33 0 0 0 15.269376
-3.383426 6.1628261 0.84991896 178 0 0 0 15.269376
-3.3157406 4.1737804 -1.7324692 201 0 0 0 15.269376
-3.3156893 7.4440393 5.3554978 30 0 0 0 15.269376
-4.9662857 5.7233996 2.1437304 344 0 0 0 15.269376
-4.7857008 6.0494609 7.0508657 60 0 0 0 15.269376
-3.9386683 5.8114934 0.37196276 566 0 0 0 15.269376
-3.4588022 5.9853883 3.4354708 229 0 0 0 15.269376
-2.15558 4.2951407 -1.8681967 272 0 0 0 15.269376
-4.4584546 5.4936047 -0.82263577 400 0 0 0 15.269376
-5.3077426 6.2828789 10.234951 35 0 0 0 15.269376
-2.3828452 3.7518709 -1.8264523 239 0 0 0 15.269376
-2.8943157 5.6412148 -1.7687629 169 0 0 0 15.269376
-4.6298451 5.9544487 6.2252941 89 0 0 0 15.269376
-3.7563639 5.708405 -0.98162442 520 0 0 0 15.269376
-2.1129646 3.3510215 -1.8657221 249 0 0 0 15.269376
-2.587265 5.8755951 2.5872271 390 0 0 0 15.269376
-4.9887495 5.6843481 2.5460751 249 0 0 0 15.269376
-2.2759595 5.6179633 -0.95568943 73 0 0 0 15.269376
-6.5644345 6.3189878 8.8763447 40 0 0 0 15.269376
-2.6417277 6.2112179 0.60269082 209 0 0 0 15.269376
-2.6790478 6.2543488 0.94574249 205 0 0 0 15.269376
-3.5203133 6.563364 -0.1945308 124 0 0 0 15.269376
-2.2705679 2.8904088 -1.8459522 224 0 0 0 15.269376
-4.0559778 5.8459096 1.4305573 414 0 0 0 15.269376
-3.042016 6.858284 8.3280039 50 0 0 0 15.269376
-1.2058866 3.3686316 -1.9914619 272 0 0 0 15.269376
