# .PCD v0.7 - Point Cloud Data file format
VERSION 0.7
FIELDS x y z intensity normal_x normal_y normal_z curvature
SIZE 4 4 4 4 4 4 4 4
TYPE F F F F F F F F
COUNT 1 1 1 1 1 1 1 1
WIDTH 959
HEIGHT 1
VIEWPOINT 0 0 0 1 0 0 0
POINTS 959
DATA ascii
16.019724 7.1418891 7.3385754 22 0 0 0 44.641281
26.832129 4.4442463 -2.3655579 27 0 0 0 44.641281
12.898277 6.0182891 2.144089 63 0 0 0 44.641281
8.8096218 4.6953025 -3.5467112 114 0 0 0 44.641281
24.272427 6.2802043 0.21171173 41 0 0 0 44.641281
17.15786 4.7673931 -3.353312 17 0 0 0 44.641281
15.204892 6.8909526 5.1091943 46 0 0 0 44.641281
3.5650601 0.71682853 -2.6690967 316 0 0 0 44.641281
14.202756 5.3523746 -1.3870575 85 0 0 0 44.641281
6.7213283 2.0310526 -3.2263265 99 0 0 0 44.641281
24.129282 6.3647113 -1.0022219 30 0 0 0 44.641281
4.7216201 2.0686691 -3.0406406 158 0 0 0 44.641281
16.586983 7.336185 8.6760015 24 0 0 0 44.641281
6.6550555 3.6851234 -3.5874553 84 0 0 0 44.641281
8.4464188 3.4948983 -3.7007809 64 0 0 0 44.641281
17.209377 6.1282578 1.890413 69 0 0 0 44.641281
12.505441 5.8958979 1.4010819 64 0 0 0 44.641281
13.900385 5.3183131 -2.0946615 27 0 0 0 44.641281
5.6131086 2.4100821 -3.2046208 147 0 0 0 44.641281
4.7216606 0.92623746 -2.8248618 211 0 0 0 44.641281
27.779123 6.6241965 5.8661857 23 0 0 0 44.641281
5.5357432 1.0710126 -2.9400954 165 0 0 0 44.641281
8.0367374 1.5081369 -3.2772546 97 0 0 0 44.641281
17.299965 6.0800486 2.8003023 26 0 0 0 44.641281
27.273556 4.1424069 1.6558497 19 0 0 0 44.641281
27.587648 3.8909776 4.4303274 16 0 0 0 44.641281
15.30698 4.3989706 -4.6533027 35 0 0 0 44.641281
14.438096 5.3644905 -0.6509676 37 0 0 0 44.641281
13.737298 6.2890868 3.820631 37 0 0 0 44.641281
27.131527 4.3790588 -1.0431635 16 0 0 0 44.641281
11.025042 5.3786883 -0.56163549 126 0 0 0 44.641281
9.5084324 4.9059367 -2.6427543 115 0 0 0 44.641281
6.6105366 1.2610943 -3.0921872 136 0 0 0 44.641281
15.75516 5.6866455 0.9141205 37 0 0 0 44.641281
6.7478299 2.8441868 -3.3925822 95 0 0 0 44.641281
26.651997 4.5246272 -3.6980743 15 0 0 0 44.641281
15.972431 7.180119 6.3197484 35 0 0 0 44.641281
11.959099 5.7022076 0.68751961 111 0 0 0 44.641281
5.6167121 1.7258098 -3.0602283 145 0 0 0 44.641281
23.994717 6.4419193 -2.2111096 29 0 0 0 44.641281
4.0967398 1.3025851 -2.8183677 269 0 0 0 44.641281
17.833298 4.868464 -2.5527122 18 0 0 0 44.641281
13.333041 5.1713562 -2.7308915 28 0 0 0 44.641281
24.641945 6.2610769 1.4518471 7 0 0 0 44.641281
26.44445 4.596416 -5.032527 6 0 0 0 44.641281
11.52451 5.5560699 0.038672581 83 0 0 0 44.641281
9.6212635 4.8906384 -2.6730726 124 0 0 0 44.735744
12.688077 5.8879452 1.4086101 63 0 0 0 44.735744
27.269526 3.9726415 1.6376947 36 0 0 0 44.735744
26.816944 4.274271 -2.3781424 26 0 0 0 44.735744
9.9419413 4.9751234 -2.1786675 89 0 0 0 44.735744
16.143118 7.0792131 7.3625898 25 0 0 0 44.735744
11.796078 4.6407933 -3.7482264 74 0 0 0 44.735744
15.435554 6.8824229 5.1610284 38 0 0 0 44.735744
27.382446 3.8489258 3.0053387 18 0 0 0 44.735744
4.7817621 1.4627144 -2.9340422 179 0 0 0 44.735744
17.44903 4.7342629 -3.4164677 18 0 0 0 44.735744
27.708685 3.5773919 5.8365879 16 0 0 0 44.735744
4.7087197 0.89376169 -2.8174825 207 0 0 0 44.735744
6.5904679 1.2155201 -3.0839429 161 0 0 0 44.735744
4.7110972 2.0301893 -3.0298567 164 0 0 0 44.735744
13.764239 6.2613139 3.0300572 45 0 0 0 44.735744
24.913399 8.3392639 6.6515198 16 0 0 0 44.735744
13.39658 5.102674 -2.746594 31 0 0 0 44.735744
15.366275 5.5237536 0.088510506 45 0 0 0 44.735744
27.563383 3.7174203 4.4058604 19 0 0 0 44.735744
8.8842535 4.666388 -3.5723386 114 0 0 0 44.735744
3.5324144 1.12073 -2.7131705 250 0 0 0 44.735744
6.6388388 3.624058 -3.5721281 71 0 0 0 44.735744
8.3501663 4.4657512 -3.9129009 31 0 0 0 44.735744
9.259284 4.7819042 -3.1370378 112 0 0 0 44.735744
6.6891227 1.9769452 -3.2098417 103 0 0 0 44.735744
11.710749 5.558423 0.030909026 91 0 0 0 44.735744
11.168383 4.4670572 -4.2119179 60 0 0 0 44.735744
5.4527955 3.0395093 -3.3364632 112 0 0 0 44.735744
27.398819 6.6429095 2.9625716 9 0 0 0 44.735744
5.6050315 1.6849436 -3.052547 143 0 0 0 44.735744
24.0042 6.2882886 -2.2234623 32 0 0 0 44.735744
8.236968 2.3937747 -3.4469798 64 0 0 0 44.735744
15.37137 4.3164306 -4.6753898 17 0 0 0 44.735744
23.797789 6.3432989 -3.4294367 43 0 0 0 44.735744
24.13209 6.2088518 -1.0157493 34 0 0 0 44.735744
17.255819 6.0269175 1.8802739 48 0 0 0 44.735744
16.43203 4.5364313 -4.0929594 29 0 0 0 44.735744
17.064522 6.0424833 0.97410411 74 0 0 0 44.735744
27.757662 3.4104078 7.2930422 22 0 0 0 44.735744
3.5623188 0.6935603 -2.667083 295 0 0 0 44.735744
14.673965 5.4284844 -1.4405829 63 0 0 0 44.735744
4.029604 1.7738992 -2.9080899 201 0 0 0 44.735744
14.61269 5.3285975 -0.66716075 39 0 0 0 44.735744
5.6006107 2.3646715 -3.1937199 132 0 0 0 44.735744
27.777348 6.4460311 5.8396168 21 0 0 0 44.735744
4.0997858 1.2761397 -2.8187447 262 0 0 0 44.735744
10.300464 1.8367107 -3.6135406 43 0 0 0 44.735744
12.212996 4.7268338 -3.1764755 72 0 0 0 44.735744
16.03401 7.090641 6.3149438 29 0 0 0 44.735744
10.829867 3.0928426 -3.8985417 42 0 0 0 44.735744
5.5118146 1.0313923 -2.9280064 182 0 0 0 44.735744
24.313154 6.1334128 0.19661756 23 0 0 0 44.735744
10.829818 5.3427315 -1.7582507 90 0 0 0 44.735744
24.817575 8.4271793 5.2857013 26 0 0 0 44.735744
6.7362905 2.7913959 -3.3833776 99 0 0 0 44.735744
4.093874 0.78772283 -2.7444596 266 0 0 0 44.735744
14.257821 2.4948108 -4.2207198 19 0 0 0 44.735744
26.458336 4.4329309 -5.0465031 17 0 0 0 44.735744
27.305128 4.2369814 -1.0655208 16 0 0 0 44.735744
14.053531 5.279335 -2.1224778 26 0 0 0 44.735744
7.9928441 1.4493499 -3.2610354 92 0 0 0 44.735744
27.561911 6.5479536 4.3768415 15 0 0 0 44.735744
16.675955 7.2542367 8.6857109 13 0 0 0 44.735744
8.4122486 3.4211898 -3.6827476 55 0 0 0 44.735744
3.1096325 0.61284488 -2.5936928 305 0 0 0 44.735744
12.175654 5.7148767 0.68931371 58 0 0 0 44.735744
11.26246 5.4100986 -0.58027494 74 0 0 0 44.735744
13.927808 6.2739739 3.8528025 29 0 0 0 44.735744
26.669046 4.3606467 -3.7131045 29 0 0 0 44.735744
3.0946984 1.0005426 -2.6457343 198 0 0 0 44.735744
11.185878 5.4452758 -1.1909992 174 0 0 0 44.735744
16.739304 4.5119357 -4.1744013 39 0 0 0 44.835583
12.837572 5.8627391 1.4123087 67 0 0 0 44.835583
23.808035 6.1912341 -3.4405301 32 0 0 0 44.835583
24.132912 6.0529785 -1.0292039 31 0 0 0 44.835583
27.434536 6.4756188 2.9449623 31 0 0 0 44.835583
23.998219 6.131093 -2.2344234 25 0 0 0 44.835583
18.425097 6.2251749 2.9438918 15 0 0 0 44.835583
5.4893694 0.99239767 -2.9168179 181 0 0 0 44.835583
5.5998569 1.6462584 -3.0485933 192 0 0 0 44.835583
14.108898 6.2525411 3.8820684 48 0 0 0 44.835583
4.6930442 0.86098421 -2.8085396 215 0 0 0 44.835583
3.1065395 0.98353499 -2.6540864 198 0 0 0 44.835583
6.6157975 3.5598814 -3.5533206 84 0 0 0 44.835583
11.878394 5.5498481 0.022926247 98 0 0 0 44.835583
4.1058478 1.2506509 -2.8213446 258 0 0 0 44.835583
14.109187 5.2027121 -2.135443 126 0 0 0 44.835583
13.721748 5.1314182 -2.8169527 63 0 0 0 44.835583
14.9463 5.3476863 -0.69132328 43 0 0 0 44.835583
27.772411 3.242116 7.2739973 16 0 0 0 44.835583
14.13696 2.3847566 -4.1894398 19 0 0 0 44.835583
15.812201 6.9352574 5.2606993 32 0 0 0 44.835583
27.558571 3.5470555 4.3847289 12 0 0 0 44.835583
16.303654 7.0315228 7.4033341 16 0 0 0 44.835583
10.675204 5.2613974 -2.3427546 21 0 0 0 44.835583
27.706993 3.4069924 5.8145671 17 0 0 0 44.835583
4.0790563 0.75891203 -2.7347033 266 0 0 0 44.835583
3.5728016 0.67287827 -2.6752515 284 0 0 0 44.835583
17.657766 4.6758399 -3.463572 35 0 0 0 44.835583
7.9385314 1.3893657 -3.240597 74 0 0 0 44.835583
13.91417 6.2872458 2.2788286 53 0 0 0 44.835583
17.093908 5.9363132 0.96272129 106 0 0 0 44.835583
8.3691816 4.4111605 -3.9158747 40 0 0 0 44.835583
15.651376 5.5191746 0.079296015 33 0 0 0 44.835583
26.679213 4.1957002 -3.7272785 31 0 0 0 44.835583
17.616041 6.0329967 1.903455 26 0 0 0 44.835583
6.5629764 1.1689332 -3.0722742 143 0 0 0 44.835583
5.5991926 2.3242166 -3.189393 145 0 0 0 44.835583
29.061956 6.4021783 7.6010866 9 0 0 0 44.835583
8.1710119 2.3206992 -3.4189358 82 0 0 0 44.835583
5.4592319 3.0001647 -3.3339939 109 0 0 0 44.835583
11.028872 4.3338051 -4.1567106 29 0 0 0 44.835583
9.390337 4.7778535 -3.178992 104 0 0 0 44.835583
27.391012 4.0800085 -1.0844754 6 0 0 0 44.835583
4.7724328 1.4281147 -2.9268172 181 0 0 0 44.835583
24.391817 5.9959583 0.18173912 14 0 0 0 44.835583
8.9939137 4.6548576 -3.6123331 118 0 0 0 44.835583
11.366101 5.3752131 -0.59176451 104 0 0 0 44.835583
27.778212 6.2691126 5.81389 28 0 0 0 44.835583
3.5345428 1.097755 -2.7130234 251 0 0 0 44.835583
27.273317 3.8043885 1.6201153 26 0 0 0 44.835583
6.6730661 1.9280744 -3.2013566 126 0 0 0 44.835583
12.468357 4.7389092 -3.2447178 61 0 0 0 44.835583
11.988072 4.6325693 -3.8093231 73 0 0 0 44.835583
26.801662 4.1048112 -2.3907478 24 0 0 0 44.835583
9.7498293 4.8819346 -2.7079442 105 0 0 0 44.835583
26.483818 4.2714653 -5.0628796 20 0 0 0 44.835583
10.261001 1.7650361 -3.602603 60 0 0 0 44.835583
16.221119 7.0556078 6.3592658 28 0 0 0 44.835583
14.666536 5.3247056 -1.4460856 121 0 0 0 44.835583
4.0317869 1.7458371 -2.9057307 224 0 0 0 44.835583
8.379241 3.3486896 -3.6654251 63 0 0 0 44.835583
3.1065366 0.59240419 -2.5911076 288 0 0 0 44.835583
27.378452 3.6793187 2.9858449 26 0 0 0 44.835583
27.603664 6.381331 4.3597746 20 0 0 0 44.835583
11.218058 5.3770041 -1.1984959 189 0 0 0 44.835583
13.994473 6.263567 3.0622163 39 0 0 0 44.835583
4.7152934 1.9982523 -3.0288403 150 0 0 0 44.835583
10.781695 3.0081937 -3.8818521 56 0 0 0 44.835583
12.371936 5.7155218 0.68972421 93 0 0 0 44.835583
24.829445 8.2634335 5.2609973 27 0 0 0 44.835583
11.162625 5.4230037 -1.8156875 35 0 0 0 44.835583
24.909327 8.170104 6.6202383 15 0 0 0 44.835583
6.7310777 2.7415566 -3.3775632 96 0 0 0 44.835583
4.6906729 0.83085638 -2.8077853 212 0 0 0 44.931328
7.9112024 1.3347532 -3.2314057 85 0 0 0 44.931328
15.445851 6.732708 4.2249556 34 0 0 0 44.931328
27.79229 6.0955024 5.7912631 21 0 0 0 44.931328
15.245785 5.3506436 -0.71410513 40 0 0 0 44.931328
3.4837036 1.5195338 -2.8057022 7 0 0 0 44.931328
6.61695 3.5092235 -3.5478418 92 0 0 0 44.931328
24.840225 8.0997915 5.2364211 27 0 0 0 44.931328
4.706634 1.9610635 -3.0195513 187 0 0 0 44.931328
29.08569 6.2229395 7.5783381 15 0 0 0 44.931328
27.262207 3.6343336 1.6018285 15 0 0 0 44.931328
8.3673983 4.3458791 -3.9091365 58 0 0 0 44.931328
14.191158 6.2482119 3.086827 57 0 0 0 44.931328
27.735355 3.2403209 5.7991142 25 0 0 0 44.931328
13.810713 6.2058759 1.5034726 28 0 0 0 44.931328
11.096191 5.3078065 -1.806778 133 0 0 0 44.931328
8.3319321 3.2713149 -3.6419117 67 0 0 0 44.931328
5.4753709 0.95525205 -2.9102786 196 0 0 0 44.931328
6.7129364 2.6868432 -3.365298 106 0 0 0 44.931328
5.555872 2.2668619 -3.1609826 135 0 0 0 44.931328
11.264224 5.3153205 -1.2075462 144 0 0 0 44.931328
4.0575242 0.72912908 -2.7204545 286 0 0 0 44.931328
4.0918541 1.2191781 -2.8100264 241 0 0 0 44.931328
12.612331 5.7338109 0.69223517 91 0 0 0 44.931328
11.582008 5.3915062 -0.60959214 81 0 0 0 44.931328
26.695219 4.0317979 -3.7423403 28 0 0 0 44.931328
17.131147 5.8328748 0.95185655 69 0 0 0 44.931328
12.125412 5.5757618 0.014659679 96 0 0 0 44.931328
24.639486 8.1589746 3.9018183 28 0 0 0 44.931328
16.486376 7.051856 6.4337306 27 0 0 0 44.931328
17.133238 4.5065942 -4.2779441 36 0 0 0 44.931328
23.811567 6.0377917 -3.4506783 41 0 0 0 44.931328
24.132738 5.8972888 -1.0425462 32 0 0 0 44.931328
3.56428 0.64860958 -2.6690211 294 0 0 0 44.931328
27.445957 6.3027349 2.9249828 19 0 0 0 44.931328
4.0330267 1.717494 -2.9027896 224 0 0 0 44.931328
23.983496 5.9722462 -2.2445278 42 0 0 0 44.931328
26.521912 4.1119385 -5.0818152 26 0 0 0 44.931328
11.078109 4.2757683 -4.1735597 41 0 0 0 44.931328
5.446867 2.9508166 -3.3200266 134 0 0 0 44.931328
27.306856 3.8979154 -1.0964166 9 0 0 0 44.931328
4.749702 1.3898164 -2.9113464 218 0 0 0 44.931328
9.5156631 4.7693686 -3.2189982 94 0 0 0 44.931328
12.13737 4.6058364 -3.8567822 89 0 0 0 44.931328
5.5638862 1.5988907 -3.027719 171 0 0 0 44.931328
10.798238 5.240943 -2.3705721 96 0 0 0 44.931328
3.5372972 1.0750344 -2.7134593 279 0 0 0 44.931328
8.1277094 2.254976 -3.4006019 81 0 0 0 44.931328
27.092237 6.3611808 1.5354146 9 0 0 0 44.931328
14.057935 2.2832129 -4.1707296 23 0 0 0 44.931328
14.558034 5.2680893 -2.2092261 43 0 0 0 44.931328
14.29789 6.356163 2.3248615 28 0 0 0 44.931328
27.777458 3.0727372 7.2527733 22 0 0 0 44.931328
26.791231 3.9365315 -2.403779 14 0 0 0 44.931328
3.0889032 0.95725584 -2.6368909 284 0 0 0 44.931328
27.535034 3.3746545 4.3609204 28 0 0 0 44.931328
14.758732 5.2569532 -1.4616956 75 0 0 0 44.931328
24.883778 7.9947033 6.5837541 27 0 0 0 44.931328
17.898703 6.0086036 1.9180369 32 0 0 0 44.931328
12.725155 4.7483611 -3.3134539 55 0 0 0 44.931328
3.0995455 0.57132268 -2.5853016 272 0 0 0 44.931328
10.125206 1.6779437 -3.5574725 47 0 0 0 44.931328
10.712 2.9185355 -3.8574231 30 0 0 0 44.931328
14.011758 5.1431656 -2.8801558 52 0 0 0 44.931328
17.388685 7.3740301 7.8603768 24 0 0 0 44.931328
15.908018 6.8620849 5.2670999 51 0 0 0 44.931328
23.66754 6.1152525 -4.6643081 35 0 0 0 44.931328
27.499439 3.7952487 0.26069045 11 0 0 0 44.931328
15.880279 5.4916897 0.069690548 37 0 0 0 44.931328
6.5200176 1.1201051 -3.0533352 157 0 0 0 44.931328
9.8438377 4.8546796 -2.7331038 135 0 0 0 44.931328
6.6540713 1.8787366 -3.1915452 126 0 0 0 44.931328
9.1405907 4.6609435 -3.6673768 121 0 0 0 44.931328
27.629936 6.2111254 4.3405252 14 0 0 0 44.931328
27.39312 3.5123787 2.9685631 26 0 0 0 44.931328
18.138239 5.9667306 1.9277589 20 0 0 0 45.030144
12.94873 4.742466 -3.3735969 74 0 0 0 45.030144
27.786255 2.9040065 7.2328587 16 0 0 0 45.030144
9.6309061 4.754426 -3.2556281 105 0 0 0 45.030144
13.825334 6.1117187 1.4918658 48 0 0 0 45.030144
5.5546446 2.22719 -3.1570489 134 0 0 0 45.030144
5.45679 0.91755778 -2.9013593 198 0 0 0 45.030144
8.2978277 3.1999519 -3.624424 61 0 0 0 45.030144
14.030014 5.0534029 -2.8868532 157 0 0 0 45.030144
26.804398 3.7720101 -2.4189968 5 0 0 0 45.030144
26.703911 6.2217846 0.16214427 38 0 0 0 45.030144
11.181762 5.2656503 -1.8232626 197 0 0 0 45.030144
10.024197 1.5982385 -3.524761 51 0 0 0 45.030144
12.729383 5.6939454 0.68810397 95 0 0 0 45.030144
16.997972 7.1485596 6.6029224 18 0 0 0 45.030144
26.725897 3.8701217 -3.7595901 27 0 0 0 45.030144
3.5485246 0.62318921 -2.6573694 312 0 0 0 45.030144
4.0340815 1.6891809 -2.899842 245 0 0 0 45.030144
17.490503 7.2918901 7.8727078 24 0 0 0 45.030144
27.386021 3.3429096 2.949121 19 0 0 0 45.030144
11.32268 5.2591405 -1.2180369 107 0 0 0 45.030144
13.901514 2.1706789 -4.1288657 30 0 0 0 45.030144
5.5539227 1.5594344 -3.0213454 172 0 0 0 45.030144
14.582905 5.1771455 -2.217706 101 0 0 0 45.030144
14.839353 5.1843338 -1.4762403 62 0 0 0 45.030144
10.942614 5.2293105 -2.4032748 65 0 0 0 45.030144
23.679686 5.964942 -4.6746435 25 0 0 0 45.030144
10.356378 5.0296865 -2.8763661 69 0 0 0 45.030144
6.6295085 1.8282361 -3.1791492 117 0 0 0 45.030144
14.483637 6.2720747 3.1316366 59 0 0 0 45.030144
24.978189 7.8581305 6.5791426 12 0 0 0 45.030144
4.7366042 1.3546764 -2.9020011 201 0 0 0 45.030144
8.0830488 2.1896091 -3.3818181 82 0 0 0 45.030144
27.29574 3.72717 -1.1113176 14 0 0 0 45.030144
10.935007 4.1444311 -4.1173491 19 0 0 0 45.030144
27.18965 6.2101746 1.5219138 9 0 0 0 45.030144
24.829338 7.9298215 5.207603 20 0 0 0 45.030144
8.2871799 4.2408652 -3.8655756 40 0 0 0 45.030144
12.272033 5.5531316 0.0063481936 60 0 0 0 45.030144
12.380943 4.6125388 -3.9346848 53 0 0 0 45.030144
4.0776501 1.1879063 -2.7986827 212 0 0 0 45.030144
10.590613 2.8162231 -3.814285 38 0 0 0 45.030144
3.1063979 0.94199377 -2.6503453 289 0 0 0 45.030144
16.123613 5.4664574 0.059847347 26 0 0 0 45.030144
6.4838839 1.0730222 -3.037729 131 0 0 0 45.030144
26.533783 3.9483182 -5.0958481 22 0 0 0 45.030144
16.057287 6.8108697 5.2910275 40 0 0 0 45.030144
14.517072 6.3481579 2.3440135 32 0 0 0 45.030144
11.760371 5.3879037 -0.62552732 90 0 0 0 45.030144
4.6977153 1.9240367 -3.010242 188 0 0 0 45.030144
17.315531 5.7785635 0.94877732 40 0 0 0 45.030144
27.537874 3.2059364 4.3415065 31 0 0 0 45.030144
6.6784186 2.626142 -3.3448777 103 0 0 0 45.030144
27.787992 5.9183478 5.7651224 27 0 0 0 45.030144
3.0969558 0.55115122 -2.5833304 239 0 0 0 45.030144
27.738356 3.0708055 5.7786512 24 0 0 0 45.030144
15.697604 6.7290773 4.2711897 49 0 0 0 45.030144
27.645472 6.0387864 4.3198094 20 0 0 0 45.030144
27.250021 3.464591 1.583619 28 0 0 0 45.030144
7.8826103 1.2803589 -3.2217858 79 0 0 0 45.030144
23.984177 5.817801 -2.256135 38 0 0 0 45.030144
27.452383 6.1291318 2.9046454 19 0 0 0 45.030144
23.81027 5.8835769 -3.4602144 55 0 0 0 45.030144
17.371424 4.4564557 -4.342514 28 0 0 0 45.030144
6.6073618 3.4532351 -3.5367193 78 0 0 0 45.030144
4.0480666 0.70177579 -2.7145402 262 0 0 0 45.030144
4.6830478 0.79989439 -2.803931 220 0 0 0 45.030144
29.105429 6.0431471 7.5548921 15 0 0 0 45.030144
3.5037534 1.503154 -2.8182051 9 0 0 0 45.030144
9.2666111 4.6548257 -3.7140782 103 0 0 0 45.030144
24.64282 7.9943833 3.8786638 23 0 0 0 45.030144
5.444201 2.9070904 -3.3122468 116 0 0 0 45.030144
24.170427 5.7510948 -1.0575962 18 0 0 0 45.030144
3.5406799 1.0525304 -2.7144904 302 0 0 0 45.030144
15.464598 5.3221922 -0.73318636 60 0 0 0 45.030144
3.536243 1.0277799 -2.7095163 274 0 0 0 45.125633
8.0549221 2.1293788 -3.3701491 94 0 0 0 45.125633
26.741865 3.706286 -3.7748296 34 0 0 0 45.125633
26.528124 3.7823198 -5.1065998 14 0 0 0 45.125633
8.269249 3.131423 -3.6095185 65 0 0 0 45.125633
9.3541012 4.6281528 -3.7451789 78 0 0 0 45.125633
11.430637 5.2251787 -1.2340757 101 0 0 0 45.125633
17.353935 7.1741967 6.7108736 21 0 0 0 45.125633
27.238976 3.5508447 -1.1242162 40 0 0 0 45.125633
17.655573 5.7731256 0.95365196 30 0 0 0 45.125633
11.192769 5.1881256 -1.8273557 123 0 0 0 45.125633
5.4318776 0.87913191 -2.8891044 181 0 0 0 45.125633
3.5397031 0.59920996 -2.6510944 324 0 0 0 45.125633
6.6552505 2.5705318 -3.3303633 95 0 0 0 45.125633
10.900262 4.0557656 -4.1025424 14 0 0 0 45.125633
24.497705 7.8948107 2.5710065 24 0 0 0 45.125633
14.041982 6.1056967 1.5014989 32 0 0 0 45.125633
27.793879 2.9069378 5.7693334 19 0 0 0 45.125633
6.5925593 3.3950233 -3.522933 65 0 0 0 45.125633
15.7527 5.3145723 -0.7559461 49 0 0 0 45.125633
3.0995314 0.53195912 -2.585839 294 0 0 0 45.125633
4.720798 1.3190563 -2.8910754 187 0 0 0 45.125633
13.704503 2.0541482 -4.0748034 22 0 0 0 45.125633
5.5420012 1.519693 -3.0139937 173 0 0 0 45.125633
4.6845717 1.8855952 -2.9983108 216 0 0 0 45.125633
27.80271 5.7455845 5.7432437 19 0 0 0 45.125633
14.632442 5.0948672 -2.2300525 78 0 0 0 45.125633
24.934622 7.6783905 6.5387201 28 0 0 0 45.125633
26.833946 6.0804896 0.14613275 30 0 0 0 45.125633
27.520018 3.0350873 4.3191142 24 0 0 0 45.125633
9.7566023 4.7432532 -3.295876 103 0 0 0 45.125633
27.790146 2.7348461 7.2120218 26 0 0 0 45.125633
27.386753 3.1746435 2.9307146 24 0 0 0 45.125633
9.9273071 1.5205499 -3.4935551 47 0 0 0 45.125633
4.0295901 1.6587095 -2.8929563 254 0 0 0 45.125633
5.5498781 2.1863256 -3.1511912 162 0 0 0 45.125633
5.4334559 2.8594217 -3.2996373 123 0 0 0 45.125633
12.936026 5.6922736 0.68842107 19 0 0 0 45.125633
24.824774 7.7625728 5.1804814 28 0 0 0 45.125633
11.931824 5.3790298 -0.64120483 78 0 0 0 45.125633
26.76622 3.600657 -2.4295015 17 0 0 0 45.125633
15.150316 5.1899681 -1.5144678 52 0 0 0 45.125633
12.52517 4.5799003 -3.9807615 68 0 0 0 45.125633
7.8253365 1.2219075 -3.20035 104 0 0 0 45.125633
23.470745 5.8710623 -5.8884792 23 0 0 0 45.125633
24.659193 7.8345003 3.8578284 26 0 0 0 45.125633
14.274343 5.0437169 -2.9408553 59 0 0 0 45.125633
15.816652 6.66646 4.2813802 44 0 0 0 45.125633
12.437097 5.5370398 -0.0021335229 93 0 0 0 45.125633
27.673458 5.8693113 4.3012776 25 0 0 0 45.125633
27.458673 5.9558487 2.884516 25 0 0 0 45.125633
14.62438 6.2276354 3.1436903 47 0 0 0 45.125633
23.980968 5.6628547 -2.2673607 31 0 0 0 45.125633
3.1031883 0.92039245 -2.6458986 319 0 0 0 45.125633
23.817616 5.7318959 -3.4710641 32 0 0 0 45.125633
11.053518 5.2002411 -2.4285612 215 0 0 0 45.125633
3.5112159 1.4812957 -2.8204906 15 0 0 0 45.125633
27.771519 5.5907969 7.1831498 7 0 0 0 45.125633
6.5941181 1.7752756 -3.1615903 132 0 0 0 45.125633
14.616701 6.2861061 2.3440022 94 0 0 0 45.125633
10.532338 2.732116 -3.7942374 53 0 0 0 45.125633
16.865417 5.6040502 0.050175391 22 0 0 0 45.125633
23.68803 5.8139873 -4.6843204 25 0 0 0 45.125633
4.066433 1.1577723 -2.789531 226 0 0 0 45.125633
10.42882 4.9870272 -2.8955584 70 0 0 0 45.125633
27.248207 6.0497308 1.5063545 24 0 0 0 45.125633
4.584836 2.4702561 -3.1452229 17 0 0 0 45.125633
8.2694359 4.1689506 -3.8517196 35 0 0 0 45.125633
6.4554896 1.0277169 -3.0258849 136 0 0 0 45.125633
4.039259 0.6747067 -2.7091589 295 0 0 0 45.125633
27.381083 3.4405103 0.22680421 12 0 0 0 45.125633
17.585135 7.2059474 7.8819618 15 0 0 0 45.125633
13.126978 4.7175775 -3.4219019 55 0 0 0 45.125633
16.240135 6.7720733 5.3258147 27 0 0 0 45.125633
27.229834 3.2942467 1.5651207 25 0 0 0 45.125633
4.6693144 0.7680732 -2.7964456 193 0 0 0 45.125633
16.140818 5.336585 -0.78411454 48 0 0 0 45.224705
27.062843 5.9598274 0.13036408 7 0 0 0 45.224705
5.5272622 1.4794483 -3.0052054 152 0 0 0 45.224705
11.642013 5.2366138 -1.2618017 91 0 0 0 45.224705
11.214038 5.1155806 -1.8332475 107 0 0 0 45.224705
27.791044 2.5656633 7.1907501 22 0 0 0 45.224705
5.5357976 2.1420796 -3.1401141 146 0 0 0 45.224705
13.775704 5.9620643 0.71989197 46 0 0 0 45.224705
26.524355 3.6169159 -5.1178551 18 0 0 0 45.224705
17.652435 7.1721377 6.7959723 12 0 0 0 45.224705
5.4258914 0.84404027 -2.8871758 190 0 0 0 45.224705
3.5165477 0.57299268 -2.6339779 347 0 0 0 45.224705
18.100809 5.7973228 0.96349466 43 0 0 0 45.224705
26.605421 5.9902577 -1.1972159 18 0 0 0 45.224705
27.531546 2.8678236 4.3015342 24 0 0 0 45.224705
27.799971 5.5696669 5.7180638 31 0 0 0 45.224705
4.0141416 1.6239781 -2.8782201 234 0 0 0 45.224705
15.397689 5.1704502 -1.546455 46 0 0 0 45.224705
14.687127 5.0140886 -2.2433083 70 0 0 0 45.224705
6.5965967 3.3468802 -3.5195401 70 0 0 0 45.224705
24.672609 7.6741877 3.8367307 27 0 0 0 45.224705
14.478223 5.0170751 -2.9866118 162 0 0 0 45.224705
17.432529 7.1450186 5.6880178 25 0 0 0 45.224705
4.6443849 0.73466915 -2.7822318 239 0 0 0 45.224705
14.796807 6.1950345 3.1622918 31 0 0 0 45.224705
27.465794 5.7831807 2.8646381 20 0 0 0 45.224705
23.815323 5.5783029 -3.480593 36 0 0 0 45.224705
3.0976303 0.89819926 -2.6395228 295 0 0 0 45.224705
23.474321 5.7203202 -5.8958077 22 0 0 0 45.224705
7.7567019 1.1625297 -3.1742725 99 0 0 0 45.224705
8.2280426 4.0859132 -3.8269484 38 0 0 0 45.224705
10.411318 2.6330547 -3.751435 61 0 0 0 45.224705
14.321308 6.1239128 1.5173181 25 0 0 0 45.224705
26.74473 3.4322007 -2.44155 12 0 0 0 45.224705
6.4294906 0.98319399 -3.0152712 118 0 0 0 45.224705
27.276512 5.8825278 1.4892194 20 0 0 0 45.224705
13.548409 1.9461129 -4.0330348 29 0 0 0 45.224705
4.0606141 1.1293656 -2.7842622 269 0 0 0 45.224705
4.0294671 0.64761847 -2.7031999 301 0 0 0 45.224705
13.338294 4.702282 -3.4791107 44 0 0 0 45.224705
25.026316 7.5407109 6.5338974 14 0 0 0 45.224705
6.5697336 1.7257965 -3.1495092 129 0 0 0 45.224705
12.674767 5.5508461 -0.011086074 78 0 0 0 45.224705
4.7171574 1.2870615 -2.8878415 182 0 0 0 45.224705
24.834999 7.6006269 5.1567082 25 0 0 0 45.224705
3.0989695 0.51222539 -2.5857754 326 0 0 0 45.224705
27.376539 3.005461 2.9113314 21 0 0 0 45.224705
23.684919 5.6606202 -4.6918621 21 0 0 0 45.224705
4.5896888 2.4373393 -3.1425667 34 0 0 0 45.224705
24.513441 7.7359028 2.5521109 24 0 0 0 45.224705
23.98064 5.509059 -2.2789085 25 0 0 0 45.224705
11.071067 5.12676 -2.4330962 236 0 0 0 45.224705
9.8867855 4.7327552 -3.3377492 118 0 0 0 45.224705
17.682785 7.1206059 7.8926549 31 0 0 0 45.224705
10.870178 3.9695959 -4.0896902 25 0 0 0 45.224705
27.092812 3.2372084 0.20862143 33 0 0 0 45.224705
4.6735425 1.8483124 -2.987906 226 0 0 0 45.224705
26.840254 3.5534606 -3.8019707 22 0 0 0 45.224705
5.4301472 2.8160117 -3.291796 123 0 0 0 45.224705
15.914886 6.5941629 4.2859306 39 0 0 0 45.224705
3.5288708 1.4636698 -2.8312056 19 0 0 0 45.224705
8.2072668 3.0510979 -3.5800235 62 0 0 0 45.224705
9.8550806 1.4478115 -3.4711986 39 0 0 0 45.224705
27.22344 3.1260316 1.5475359 22 0 0 0 45.224705
12.141006 5.384871 -0.65923792 93 0 0 0 45.224705
14.676906 6.2065463 2.3377352 71 0 0 0 45.224705
6.6519527 2.5229816 -3.3260882 124 0 0 0 45.224705
17.028484 5.5436368 0.039502174 38 0 0 0 45.224705
27.189005 3.3763537 -1.1373285 43 0 0 0 45.224705
12.703643 4.5579286 -4.038002 60 0 0 0 45.224705
27.716843 5.7031808 4.2852979 18 0 0 0 45.224705
27.753834 5.4126806 7.1521125 10 0 0 0 45.224705
3.5285716 1.0022234 -2.7021315 293 0 0 0 45.224705
10.513382 4.949429 -2.918287 86 0 0 0 45.224705
14.676672 3.6430271 -4.4754171 19 0 0 0 45.224705
7.9986229 2.0623751 -3.3466542 71 0 0 0 45.224705
9.51085 4.634304 -3.8044209 115 0 0 0 45.224705
27.797049 5.5442324 4.2751541 23 0 0 0 45.319935
4.7124882 1.2549422 -2.8840659 196 0 0 0 45.319935
3.523818 0.97766525 -2.6971214 264 0 0 0 45.319935
31.257893 9.0612402 9.8225079 5 0 0 0 45.319935
7.9552999 1.9995347 -3.3287597 80 0 0 0 45.319935
27.071449 3.1946998 -1.1473868 19 0 0 0 45.319935
5.4265337 2.7727544 -3.2839096 123 0 0 0 45.319935
24.01334 5.363049 -2.2936549 15 0 0 0 45.319935
9.6010466 4.6065898 -3.8367441 97 0 0 0 45.319935
10.019758 4.7220521 -3.3806105 109 0 0 0 45.319935
3.502696 0.54859704 -2.6240432 320 0 0 0 45.319935
5.5011683 1.436536 -2.990248 158 0 0 0 45.319935
27.064394 5.7880077 0.11378066 17 0 0 0 45.319935
11.860291 5.2484665 -1.2904395 77 0 0 0 45.319935
11.317821 5.0801978 -1.8529754 113 0 0 0 45.319935
27.791853 2.3965859 7.1698074 22 0 0 0 45.319935
14.147593 6.0211782 0.72731739 64 0 0 0 45.319935
26.51762 3.4514198 -5.1286392 19 0 0 0 45.319935
17.967398 7.1729898 6.8868132 18 0 0 0 45.319935
27.113085 3.07271 0.19266026 20 0 0 0 45.319935
27.833645 5.4012198 5.7006493 10 0 0 0 45.319935
6.5930614 3.2951944 -3.5121894 73 0 0 0 45.319935
27.289127 5.7120848 1.4713933 19 0 0 0 45.319935
4.6268663 0.70277703 -2.7726173 214 0 0 0 45.319935
17.530371 7.0608344 5.6933975 44 0 0 0 45.319935
11.101518 5.0593433 -2.4405677 130 0 0 0 45.319935
17.800694 7.0424614 7.912477 15 0 0 0 45.319935
4.0113211 0.61939645 -2.6916218 295 0 0 0 45.319935
10.610168 4.9166756 -2.9445188 61 0 0 0 45.319935
27.377144 2.8376989 2.893285 27 0 0 0 45.319935
4.5913053 2.40288 -3.1377871 42 0 0 0 45.319935
17.412464 5.5519214 0.028611552 27 0 0 0 45.319935
14.488367 3.5026577 -4.4204597 18 0 0 0 45.319935
4.664649 1.8121717 -2.9790108 186 0 0 0 45.319935
12.889482 4.5364723 -4.0977182 55 0 0 0 45.319935
23.684658 5.5083771 -4.7000604 26 0 0 0 45.319935
6.5529022 1.6787124 -3.1412044 138 0 0 0 45.319935
24.516733 7.5735216 2.5321646 31 0 0 0 45.319935
8.2008877 4.0108299 -3.8090641 54 0 0 0 45.319935
27.773102 5.2421145 7.1309566 15 0 0 0 45.319935
24.845095 7.4390664 5.1332464 21 0 0 0 45.319935
14.885886 6.1261821 3.1632011 46 0 0 0 45.319935
14.540173 4.9398131 -3.0027914 94 0 0 0 45.319935
8.2019281 2.9925678 -3.5756881 68 0 0 0 45.319935
3.089972 0.49117449 -2.5786288 314 0 0 0 45.319935
15.499779 5.1001639 -1.5636145 35 0 0 0 45.319935
10.829736 3.88045 -4.073029 24 0 0 0 45.319935
13.587448 4.697566 -3.5464449 69 0 0 0 45.319935
4.0007553 1.5904249 -2.8651202 231 0 0 0 45.319935
5.4205627 0.80918813 -2.8856938 182 0 0 0 45.319935
14.499523 6.0961161 1.5224167 98 0 0 0 45.319935
27.218979 2.9582922 1.5302074 20 0 0 0 45.319935
27.538107 2.7000875 4.2834163 18 0 0 0 45.319935
16.391981 5.3094001 -0.8055945 34 0 0 0 45.319935
13.320384 1.8302351 -3.9695859 29 0 0 0 45.319935
10.303281 2.5389709 -3.7134442 32 0 0 0 45.319935
5.5247016 2.0993454 -3.1308804 127 0 0 0 45.319935
6.3799467 0.93558651 -2.9935186 143 0 0 0 45.319935
6.6221013 2.4657879 -3.3084741 142 0 0 0 45.319935
24.346275 7.6355562 1.2659804 23 0 0 0 45.319935
16.110859 6.5607939 4.3165321 48 0 0 0 45.319935
3.4681034 1.4138831 -2.7780802 49 0 0 0 45.319935
4.0570159 1.1017337 -2.7806413 226 0 0 0 45.319935
14.873639 4.9770989 -2.2771645 48 0 0 0 45.319935
26.613316 5.8223023 -1.2121651 33 0 0 0 45.319935
12.262818 5.3500147 -0.67236775 85 0 0 0 45.319935
24.647118 7.5024195 3.8099461 18 0 0 0 45.319935
14.757707 6.1351943 2.3347652 67 0 0 0 45.319935
7.7252069 1.1094731 -3.1636786 88 0 0 0 45.319935
9.7907782 1.3772026 -3.4517229 50 0 0 0 45.319935
12.880912 5.5481014 -0.020120382 64 0 0 0 45.319935
3.0875018 0.87484992 -2.629282 294 0 0 0 45.319935
23.479786 5.5704093 -5.9037542 21 0 0 0 45.319935
23.814951 5.4255853 -3.4904439 52 0 0 0 45.319935
27.450371 5.6062088 2.8426716 12 0 0 0 45.319935
26.738987 3.2661633 -2.4550536 18 0 0 0 45.319935
24.846579 7.2755156 5.1082916 22 0 0 0 45.417984
12.507607 5.3666334 -0.69281977 92 0 0 0 45.417984
5.383616 0.76987112 -2.8671911 216 0 0 0 45.417984
4.6618986 1.7786338 -2.9742386 190 0 0 0 45.417984
8.1588154 2.9208007 -3.5548298 73 0 0 0 45.417984
27.881311 2.4058683 5.7264686 10 0 0 0 45.417984
5.4014578 2.7189794 -3.2630408 133 0 0 0 45.417984
9.766818 4.6136208 -3.8996987 107 0 0 0 45.417984
18.223415 7.1469855 6.9546099 18 0 0 0 45.417984
5.5108356 2.0558844 -3.1201982 146 0 0 0 45.417984
6.5479665 3.2233801 -3.4826152 80 0 0 0 45.417984
16.578997 5.3440232 -1.6823804 24 0 0 0 45.417984
27.290871 5.5397506 1.4531064 18 0 0 0 45.417984
13.262517 1.7397411 -3.9574161 24 0 0 0 45.417984
23.482412 5.4201784 -5.9111762 23 0 0 0 45.417984
3.5273938 0.9554984 -2.6987066 251 0 0 0 45.417984
10.642576 4.8535633 -2.9527395 53 0 0 0 45.417984
27.080647 2.9025524 0.17647035 35 0 0 0 45.417984
13.095763 5.5465741 -0.029435804 66 0 0 0 45.417984
17.610008 6.9687419 5.6929636 37 0 0 0 45.417984
13.110737 4.5250621 -4.1689777 70 0 0 0 45.417984
14.355734 6.0069933 0.72635943 43 0 0 0 45.417984
27.899632 5.3890848 4.268517 7 0 0 0 45.417984
14.57303 6.0230608 1.5166514 90 0 0 0 45.417984
8.2138138 3.955792 -3.8102157 28 0 0 0 45.417984
14.582167 4.8554573 -3.0149209 71 0 0 0 45.417984
7.7135258 1.0596185 -3.1614079 80 0 0 0 45.417984
4.0548468 1.0745971 -2.7781253 253 0 0 0 45.417984
17.405222 6.9646969 4.6375675 24 0 0 0 45.417984
11.540924 5.0964332 -1.892815 88 0 0 0 45.417984
17.795238 5.5551591 0.01727918 33 0 0 0 45.417984
3.491853 0.52485955 -2.6164942 293 0 0 0 45.417984
27.215454 2.7909601 1.5130568 19 0 0 0 45.417984
9.6727743 1.3002144 -3.4131157 55 0 0 0 45.417984
13.779084 4.6703243 -3.5987685 57 0 0 0 45.417984
27.778879 5.0693278 7.1066837 15 0 0 0 45.417984
4.6083045 0.6709854 -2.7624552 231 0 0 0 45.417984
6.3471084 0.89101946 -2.9798043 155 0 0 0 45.417984
24.656452 7.3420262 3.7887406 23 0 0 0 45.417984
27.110861 5.6259689 0.097361438 30 0 0 0 45.417984
10.170253 4.7179108 -3.4295444 121 0 0 0 45.417984
23.832928 5.2773528 -3.5031142 44 0 0 0 45.417984
27.572166 2.5350657 4.2697453 18 0 0 0 45.417984
3.0750043 0.85102391 -2.6170998 275 0 0 0 45.417984
27.783873 2.2270515 7.1469522 18 0 0 0 45.417984
26.937069 3.2328486 -3.8423426 9 0 0 0 45.417984
6.5935268 2.4096572 -3.291666 131 0 0 0 45.417984
15.223747 4.9916592 -2.3367636 45 0 0 0 45.417984
4.0052924 0.59325397 -2.688412 292 0 0 0 45.417984
24.496065 7.4045105 2.5099599 22 0 0 0 45.417984
6.5357604 1.6318806 -3.1328645 124 0 0 0 45.417984
3.0800922 0.47011873 -2.5708215 287 0 0 0 45.417984
10.680309 3.7538221 -4.0151081 24 0 0 0 45.417984
10.20737 2.4493778 -3.6799791 40 0 0 0 45.417984
15.002881 6.0679245 3.1699317 34 0 0 0 45.417984
26.740128 3.1012437 -2.4692304 19 0 0 0 45.417984
11.121721 4.9873247 -2.4458539 132 0 0 0 45.417984
3.9948421 1.5600967 -2.8576035 271 0 0 0 45.417984
26.727621 5.6773334 -1.2321692 9 0 0 0 45.417984
4.5752778 2.3594959 -3.1209428 87 0 0 0 45.417984
5.4773459 1.3946377 -2.9766619 179 0 0 0 45.417984
14.916977 6.0953188 2.3439319 52 0 0 0 45.417984
26.478683 3.2822456 -5.1332626 17 0 0 0 45.417984
23.672901 5.3539443 -4.7060943 35 0 0 0 45.417984
26.974537 3.0170624 -1.1582108 15 0 0 0 45.417984
27.355907 2.6680527 2.8731453 20 0 0 0 45.417984
27.44062 5.431035 2.8214819 23 0 0 0 45.417984
24.364271 7.4789863 1.2492696 18 0 0 0 45.417984
4.6976662 1.2203127 -2.8740861 206 0 0 0 45.417984
31.302242 8.8687124 9.7981443 7 0 0 0 45.417984
27.846992 5.2290154 5.6793494 13 0 0 0 45.417984
3.462467 1.387187 -2.7700758 75 0 0 0 45.417984
16.72525 5.3053412 -0.83161139 41 0 0 0 45.417984
7.9393744 1.9441211 -3.3226049 61 0 0 0 45.417984
11.993373 5.2205324 -1.3096879 94 0 0 0 45.417984
17.741871 6.8964086 5.7093902 13 0 0 0 45.513985
24.641928 7.1751285 3.7641795 22 0 0 0 45.513985
18.014193 5.5036573 0.005828985 25 0 0 0 45.513985
6.575593 2.3579338 -3.2803798 104 0 0 0 45.513985
3.4611034 1.3623688 -2.7656662 75 0 0 0 45.513985
27.857323 5.056469 5.6577425 22 0 0 0 45.513985
24.395609 7.3267665 1.2333497 34 0 0 0 45.513985
3.5292916 0.93291044 -2.69908 305 0 0 0 45.513985
3.4911299 0.5027805 -2.6167576 302 0 0 0 45.513985
26.883204 5.5398407 -1.2542361 7 0 0 0 45.513985
27.972181 5.2274165 4.2574496 7 0 0 0 45.513985
13.311417 4.5040359 -4.2337594 67 0 0 0 45.513985
26.481583 3.1187165 -5.1461649 22 0 0 0 45.513985
9.8920927 4.5997686 -3.946322 107 0 0 0 45.513985
15.246278 6.1219563 2.3791203 46 0 0 0 45.513985
11.246338 4.9615002 -2.4745743 80 0 0 0 45.513985
3.0660543 0.82839268 -2.6080971 292 0 0 0 45.513985
11.760069 5.10815 -1.9321216 96 0 0 0 45.513985
13.04345 1.629841 -3.8966169 28 0 0 0 45.513985
4.5827665 0.63848835 -2.7481208 222 0 0 0 45.513985
26.742229 2.936625 -2.4835181 28 0 0 0 45.513985
27.216854 2.6243305 1.4963076 29 0 0 0 45.513985
10.16677 2.3741512 -3.6667905 40 0 0 0 45.513985
27.779663 2.0580323 7.1254163 17 0 0 0 45.513985
3.0716002 0.44942847 -2.564281 301 0 0 0 45.513985
14.449656 5.9433708 0.71978819 149 0 0 0 45.513985
13.308293 5.541472 -0.038943153 70 0 0 0 45.513985
27.112238 5.4546704 0.080911368 23 0 0 0 45.513985
15.385242 4.9412913 -2.3671129 63 0 0 0 45.513985
5.4737706 1.3582001 -2.9743583 171 0 0 0 45.513985
16.995144 5.2775507 -0.85461527 43 0 0 0 45.513985
27.795977 4.8988252 7.0856533 12 0 0 0 45.513985
16.782904 5.2974153 -1.7107943 104 0 0 0 45.513985
6.320261 0.84773701 -2.9690247 160 0 0 0 45.513985
4.057323 1.0487777 -2.7789454 200 0 0 0 45.513985
27.434628 5.2570958 2.8008955 29 0 0 0 45.513985
14.676811 4.7881041 -3.0381887 63 0 0 0 45.513985
15.989293 6.3539472 3.3574278 30 0 0 0 45.513985
8.11343 2.8490593 -3.5331094 59 0 0 0 45.513985
5.3516588 0.73176163 -2.8514652 199 0 0 0 45.513985
5.484273 2.0081246 -3.1023521 162 0 0 0 45.513985
14.089576 4.6803603 -3.6826687 59 0 0 0 45.513985
9.6299639 1.2344912 -3.4014328 51 0 0 0 45.513985
24.496193 7.2424979 2.4900913 28 0 0 0 45.513985
26.926142 2.845962 -1.1710721 22 0 0 0 45.513985
4.6517234 1.7424921 -2.9647737 180 0 0 0 45.513985
4.6776385 1.184643 -2.8609731 219 0 0 0 45.513985
3.9995408 1.5340561 -2.8579185 232 0 0 0 45.513985
17.445307 6.8579564 4.6251864 82 0 0 0 45.513985
23.476522 5.2684007 -5.9165912 10 0 0 0 45.513985
7.6309714 1.0006101 -3.1297359 118 0 0 0 45.513985
23.866434 5.1326218 -3.5181704 24 0 0 0 45.513985
12.681266 5.350183 -0.70928931 87 0 0 0 45.513985
5.4066038 2.6808066 -3.2608545 140 0 0 0 45.513985
8.1822929 3.8798327 -3.7906597 27 0 0 0 45.513985
14.644337 5.9485755 1.5106838 61 0 0 0 45.513985
12.309422 5.2694383 -1.3496894 47 0 0 0 45.513985
27.29348 5.3679652 1.4350164 21 0 0 0 45.513985
10.681683 4.7933998 -2.9629323 63 0 0 0 45.513985
3.993367 0.56637925 -2.6812603 261 0 0 0 45.513985
27.076981 2.7359006 0.16053326 28 0 0 0 45.513985
4.5763788 2.3252668 -3.1161177 115 0 0 0 45.513985
23.675493 5.2032132 -4.715107 26 0 0 0 45.513985
6.5156765 1.5846752 -3.1231968 108 0 0 0 45.513985
18.409452 7.0910382 6.9955339 15 0 0 0 45.513985
31.296446 8.6624022 9.7586508 17 0 0 0 45.513985
7.8979168 1.8829525 -3.3057179 76 0 0 0 45.513985
6.5241561 3.1628432 -3.4647126 91 0 0 0 45.513985
10.332314 4.7172432 -3.4824741 108 0 0 0 45.513985
10.628584 3.663233 -3.9944811 22 0 0 0 45.513985
27.347473 2.5000129 2.8545377 23 0 0 0 45.513985
32.430397 3.4933584 -4.6663342 6 0 0 0 45.613823
24.651951 7.016058 3.7435532 29 0 0 0 45.613823
3.0306075 1.2055552 -2.6978307 24 0 0 0 45.613823
26.564529 5.4265099 -2.5801272 9 0 0 0 45.613823
31.352127 8.4736166 9.7387047 8 0 0 0 45.613823
16.821405 5.1973891 -1.7221116 70 0 0 0 45.613823
11.892486 5.0801044 -1.9570347 89 0 0 0 45.613823
4.5629644 0.60711241 -2.73737 227 0 0 0 45.613823
27.135094 5.2879982 0.064539276 25 0 0 0 45.613823
6.5242405 3.1143231 -3.4598622 93 0 0 0 45.613823
7.8452373 1.8198308 -3.2841802 106 0 0 0 45.613823
4.0443783 1.0190765 -2.7691286 245 0 0 0 45.613823
3.459578 1.3375974 -2.76125 97 0 0 0 45.613823
27.766653 1.8887193 7.1019831 28 0 0 0 45.613823
27.858818 4.8827214 5.6346283 17 0 0 0 45.613823
26.929358 5.3789454 -1.2711527 35 0 0 0 45.613823
27.33997 2.3324027 2.8362079 21 0 0 0 45.613823
23.689604 5.0552955 -4.7265873 31 0 0 0 45.613823
5.3255782 0.69486183 -2.839004 221 0 0 0 45.613823
4.5688744 2.2869003 -3.1055105 128 0 0 0 45.613823
12.913271 5.3559208 -0.72941929 68 0 0 0 45.613823
4.6445079 1.7077019 -2.9573646 181 0 0 0 45.613823
14.478479 5.8526468 0.71010208 119 0 0 0 45.613823
17.519148 6.7643452 4.6218095 52 0 0 0 45.613823
27.408915 5.0800395 2.7785127 32 0 0 0 45.613823
9.5399771 1.1635758 -3.3729274 56 0 0 0 45.613823
24.384762 7.1623735 1.2154425 21 0 0 0 45.613823
12.701621 5.3463173 -1.3985955 98 0 0 0 45.613823
6.5513358 2.3043995 -3.2660465 113 0 0 0 45.613823
10.4642 4.7010431 -3.5252008 113 0 0 0 45.613823
26.925365 2.680444 -1.1860281 24 0 0 0 45.613823
10.099939 2.2936361 -3.6441383 46 0 0 0 45.613823
13.588511 4.5059896 -4.3232822 39 0 0 0 45.613823
13.561021 5.5502901 -0.048956599 78 0 0 0 45.613823
11.352149 4.9261355 -2.4992149 75 0 0 0 45.613823
15.034539 4.8039637 -3.116889 45 0 0 0 45.613823
10.558362 3.5673666 -3.9669967 41 0 0 0 45.613823
3.9078033 2.0110807 -2.9830022 34 0 0 0 45.613823
12.913019 1.5333424 -3.8625722 26 0 0 0 45.613823
3.9697969 0.5380699 -2.6662345 247 0 0 0 45.613823
5.3918028 2.6330326 -3.2466364 128 0 0 0 45.613823
6.5031953 1.5396367 -3.1173434 95 0 0 0 45.613823
24.4914 7.0797024 2.4698889 27 0 0 0 45.613823
16.366106 6.3887701 3.41675 27 0 0 0 45.613823
3.0561712 0.42786485 -2.5519264 303 0 0 0 45.613823
27.778509 4.7227063 7.0561957 12 0 0 0 45.613823
8.105032 2.7908959 -3.527864 84 0 0 0 45.613823
27.227163 2.4587336 1.4801486 24 0 0 0 45.613823
10.035439 4.5927238 -4.0003233 90 0 0 0 45.613823
5.4739213 1.9667058 -3.093967 176 0 0 0 45.613823
24.234606 7.2441826 -0.019906202 39 0 0 0 45.613823
14.28718 4.6498084 -3.7369277 69 0 0 0 45.613823
14.738382 5.8827047 1.5069593 51 0 0 0 45.613823
27.84749 2.0641985 5.6804423 9 0 0 0 45.613823
8.112649 3.7868645 -3.7534688 37 0 0 0 45.613823
4.6532192 1.1482141 -2.8452437 242 0 0 0 45.613823
3.0665944 0.80844295 -2.6074228 300 0 0 0 45.613823
26.473721 2.9541621 -5.1570969 22 0 0 0 45.613823
14.040421 3.1236386 -4.2920642 29 0 0 0 45.613823
15.574632 6.1441464 2.4136295 45 0 0 0 45.613823
3.5202281 0.90750307 -2.6910262 276 0 0 0 45.613823
6.2940402 0.80491292 -2.9586284 166 0 0 0 45.613823
10.778031 4.7583437 -2.9893641 71 0 0 0 45.613823
27.290083 5.1954632 1.416732 19 0 0 0 45.613823
27.065311 2.5687697 0.14463484 25 0 0 0 45.613823
16.593824 5.2186112 -2.5618792 38 0 0 0 45.613823
3.4855356 0.48004273 -2.613394 362 0 0 0 45.613823
18.655491 7.0558858 7.0588593 20 0 0 0 45.613823
7.5883784 0.94772023 -3.1147542 125 0 0 0 45.613823
3.9909196 1.5030276 -2.8486819 263 0 0 0 45.613823
5.4536958 1.3178864 -2.9630589 204 0 0 0 45.613823
26.743315 2.7721014 -2.4977479 35 0 0 0 45.613823
17.476454 5.3108802 -0.88913041 19 0 0 0 45.613823
24.027872 5.0145812 -3.5524809 20 0 0 0 45.613823
3.4726934 0.45645028 -2.6045787 325 0 0 0 45.70752
10.155056 4.5732994 -4.0447736 104 0 0 0 45.70752
27.240438 2.2933686 1.4642682 23 0 0 0 45.70752
27.294436 5.0247536 1.3990155 26 0 0 0 45.70752
16.936462 5.1203947 -1.7414836 43 0 0 0 45.70752
26.755281 2.6087904 -2.5130284 36 0 0 0 45.70752
4.567965 2.2521122 -3.0995834 159 0 0 0 45.70752
12.856171 1.4469029 -3.8508134 24 0 0 0 45.70752
4.640275 1.6742399 -2.9519923 199 0 0 0 45.70752
6.4094315 1.476092 -3.0720296 147 0 0 0 45.70752
3.9072604 1.9811509 -2.9770637 54 0 0 0 45.70752
8.0507889 2.7175891 -3.5025163 88 0 0 0 45.70752
16.669144 5.1311736 -2.579345 125 0 0 0 45.70752
24.518106 6.9263582 2.4530532 21 0 0 0 45.70752
18.827568 6.9903626 7.0941334 17 0 0 0 45.70752
12.001294 5.040668 -1.9780382 85 0 0 0 45.70752
6.5174851 3.0628719 -3.4514587 95 0 0 0 45.70752
26.91164 2.5138667 -1.2003508 27 0 0 0 45.70752
4.6402049 1.1149563 -2.8367014 202 0 0 0 45.70752
5.3892875 2.5916307 -3.2400589 144 0 0 0 45.70752
27.404589 4.9074402 2.758522 21 0 0 0 45.70752
15.251635 4.7713847 -3.1662223 38 0 0 0 45.70752
3.9649267 0.51256782 -2.6640782 232 0 0 0 45.70752
4.5599375 0.57819963 -2.7369425 232 0 0 0 45.70752
13.793276 4.4810548 -4.3896766 42 0 0 0 45.70752
9.9902477 2.2046752 -3.6058965 47 0 0 0 45.70752
26.646322 5.2745705 -2.6011355 7 0 0 0 45.70752
7.8137493 1.7623278 -3.2717228 94 0 0 0 45.70752
27.779058 4.5499988 7.0317044 15 0 0 0 45.70752
24.244566 7.0869722 -0.034828696 37 0 0 0 45.70752
15.175198 5.9503446 1.5371883 58 0 0 0 45.70752
9.4850874 1.0979618 -3.3570364 52 0 0 0 45.70752
3.5094557 0.88186359 -2.6817384 308 0 0 0 45.70752
14.537543 4.6337948 -3.8052821 40 0 0 0 45.70752
3.98209 1.4721762 -2.8394063 281 0 0 0 45.70752
4.0280261 0.98879164 -2.7570341 233 0 0 0 45.70752
5.304512 0.65897977 -2.8293371 191 0 0 0 45.70752
16.734831 6.4156928 3.4738278 35 0 0 0 45.70752
3.4593832 1.3134757 -2.7580152 128 0 0 0 45.70752
23.692242 4.9051862 -4.7358413 38 0 0 0 45.70752
15.890011 6.1571665 2.4457343 48 0 0 0 45.70752
10.975585 4.7662463 -3.0443175 88 0 0 0 45.70752
11.570539 4.9377017 -2.5491207 76 0 0 0 45.70752
27.336386 2.1652839 2.8184731 21 0 0 0 45.70752
7.5454531 0.89539689 -3.0996969 82 0 0 0 45.70752
10.6268 4.6969061 -3.5784314 99 0 0 0 45.70752
6.264864 0.76211947 -2.9468939 163 0 0 0 45.70752
13.073682 5.329607 -0.74542135 64 0 0 0 45.70752
26.961327 2.7367861 -3.8862269 6 0 0 0 45.70752
10.507065 3.4790161 -3.9468181 42 0 0 0 45.70752
5.4333563 1.277881 -2.9517074 186 0 0 0 45.70752
13.780019 5.5424008 -0.058949694 69 0 0 0 45.70752
27.1471 5.1193295 0.048258282 29 0 0 0 45.70752
27.89114 4.7144332 5.6180267 25 0 0 0 45.70752
27.779675 1.7212054 7.0855222 19 0 0 0 45.70752
17.748167 5.2758789 -0.91285414 39 0 0 0 45.70752
26.460947 2.7893815 -5.1671658 10 0 0 0 45.70752
6.5394955 2.2556808 -3.2581043 102 0 0 0 45.70752
27.058582 2.4023488 0.12885344 21 0 0 0 45.70752
5.4632902 1.925501 -3.0855312 174 0 0 0 45.70752
17.603405 6.6741495 4.6213131 25 0 0 0 45.70752
3.0050278 1.1743327 -2.6714141 66 0 0 0 45.70752
27.585484 2.0319963 4.2163754 12 0 0 0 45.70752
24.392984 7.004107 1.1986581 21 0 0 0 45.70752
13.093323 5.4178233 -1.4476987 20 0 0 0 45.70752
8.0790358 3.7118149 -3.7333302 72 0 0 0 45.70752
24.707672 6.8700376 3.7300525 19 0 0 0 45.70752
3.0633037 0.78756839 -2.6035211 279 0 0 0 45.70752
14.506742 5.7617526 0.70049173 98 0 0 0 45.70752
26.922575 5.2075753 -1.2854475 12 0 0 0 45.70752
27.392281 4.7340074 2.7378941 27 0 0 0 45.808895
3.9590831 0.48700938 -2.6613486 232 0 0 0 45.808895
7.4939394 0.84266698 -3.0811296 94 0 0 0 45.808895
14.787232 4.6145701 -3.8737059 67 0 0 0 45.808895
4.6261425 1.0816722 -2.8276234 207 0 0 0 45.808895
5.438251 1.8795754 -3.0689886 205 0 0 0 45.808895
6.4139085 1.4359176 -3.0746381 146 0 0 0 45.808895
26.906826 2.348475 -1.215066 42 0 0 0 45.808895
7.7872872 1.7064371 -3.2615206 89 0 0 0 45.808895
26.424696 2.622612 -5.1727386 22 0 0 0 45.808895
3.5070422 0.85845858 -2.6790652 289 0 0 0 45.808895
4.5499835 2.2092137 -3.0820851 168 0 0 0 45.808895
24.533262 6.7701392 2.4351606 23 0 0 0 45.808895
26.954947 5.0440736 -1.3017039 25 0 0 0 45.808895
13.131619 5.3405294 -1.4568897 33 0 0 0 45.808895
27.578287 7.353941 5.5577478 7 0 0 0 45.808895
9.413868 1.0312766 -3.3353508 57 0 0 0 45.808895
26.717451 5.1199841 -2.6212409 17 0 0 0 45.808895
5.4127526 1.2381418 -2.9403276 213 0 0 0 45.808895
3.0113175 1.1557908 -2.6739848 75 0 0 0 45.808895
16.701389 5.0301704 -2.5901916 71 0 0 0 45.808895
27.761656 4.5198989 5.569356 17 0 0 0 45.808895
13.764333 2.8864036 -4.2137375 22 0 0 0 45.808895
27.581923 1.8640747 4.1978192 21 0 0 0 45.808895
14.604221 5.6980114 0.69398195 66 0 0 0 45.808895
11.182468 4.7756815 -3.1020424 74 0 0 0 45.808895
17.341204 5.1280074 -1.7916206 31 0 0 0 45.808895
13.299099 5.3275447 -0.76556236 70 0 0 0 45.808895
10.751158 4.67417 -3.6187615 87 0 0 0 45.808895
27.863031 7.301106 7.0878763 4 0 0 0 45.808895
12.655029 1.3458062 -3.7953598 21 0 0 0 45.808895
26.741461 2.4431908 -2.5258937 33 0 0 0 45.808895
27.780039 1.5531381 7.0661707 14 0 0 0 45.808895
17.011675 6.4035521 3.51144 30 0 0 0 45.808895
16.033989 6.1011829 2.4514685 34 0 0 0 45.808895
11.711763 4.9141788 -2.5819175 62 0 0 0 45.808895
10.36924 3.3635137 -3.8939524 37 0 0 0 45.808895
3.0687964 0.76898181 -2.6073279 313 0 0 0 45.808895
5.2928414 0.62450129 -2.8248549 214 0 0 0 45.808895
9.9415874 2.130368 -3.5900679 55 0 0 0 45.808895
15.375478 5.9213614 1.543505 45 0 0 0 45.808895
3.9831481 1.4451267 -2.8374388 229 0 0 0 45.808895
24.24964 6.9288692 -0.049743041 38 0 0 0 45.808895
17.946726 6.6798863 4.6880517 26 0 0 0 45.808895
3.4530635 1.2871411 -2.7499452 166 0 0 0 45.808895
32.444485 3.0952911 -4.7010679 5 0 0 0 45.808895
27.329773 1.9982636 2.800601 34 0 0 0 45.808895
24.369377 6.8374476 1.1804258 28 0 0 0 45.808895
8.0152588 2.6513991 -3.4855917 64 0 0 0 45.808895
27.267626 2.1291962 1.4492058 24 0 0 0 45.808895
6.5093775 2.2010832 -3.2410858 100 0 0 0 45.808895
27.776567 4.3773398 7.006772 11 0 0 0 45.808895
14.011482 5.5368633 -0.069324784 69 0 0 0 45.808895
4.6382337 1.6417146 -2.9481771 181 0 0 0 45.808895
26.375967 5.1708732 -3.9262614 19 0 0 0 45.808895
10.284195 4.556715 -4.0931897 80 0 0 0 45.808895
14.002719 4.4551864 -4.4577942 53 0 0 0 45.808895
23.740091 4.7644892 -4.7544017 19 0 0 0 45.808895
27.296713 4.8540993 1.3812791 27 0 0 0 45.808895
5.3848977 2.5495706 -3.2325213 145 0 0 0 45.808895
12.603223 5.2037001 -2.082288 127 0 0 0 45.808895
27.054804 2.236505 0.11314747 32 0 0 0 45.808895
17.864712 5.1926208 -0.92850614 24 0 0 0 45.808895
3.4549685 0.43239504 -2.592118 286 0 0 0 45.808895
27.160992 4.9513173 0.031994186 28 0 0 0 45.808895
18.958763 6.9083343 7.1139436 16 0 0 0 45.808895
3.8822258 1.9391397 -2.9523637 89 0 0 0 45.808895
15.351662 4.7004199 -3.1911504 28 0 0 0 45.808895
4.5490975 0.54837745 -2.7318368 243 0 0 0 45.808895
4.019527 0.96064979 -2.7505243 279 0 0 0 45.808895
6.2434974 0.72062647 -2.9389768 146 0 0 0 45.808895
6.48914 3.0017672 -3.43168 100 0 0 0 45.808895
8.087595 3.6566124 -3.7331386 73 0 0 0 45.808895
11.40946 4.7910008 -3.1654429 82 0 0 0 45.900799
26.811787 2.3917053 -3.8916242 13 0 0 0 45.900799
13.555626 5.334959 -0.7877326 72 0 0 0 45.900799
27.552649 1.6945937 4.1756325 25 0 0 0 45.900799
3.4480658 1.2615072 -2.7430472 195 0 0 0 45.900799
14.306784 5.553268 -0.080383681 68 0 0 0 45.900799
27.325108 1.8314697 2.7831156 29 0 0 0 45.900799
3.0674882 0.74873263 -2.6053333 285 0 0 0 45.900799
13.614223 2.7682929 -4.1709037 24 0 0 0 45.900799
27.7229 4.3413658 5.5392699 24 0 0 0 45.900799
16.511871 6.1683316 2.5072029 31 0 0 0 45.900799
14.943128 5.7258177 0.69819373 50 0 0 0 45.900799
27.793144 4.2077408 6.9870167 16 0 0 0 45.900799
8.0916014 3.5995958 -3.7309105 82 0 0 0 45.900799
26.960775 4.8756652 -1.3165762 21 0 0 0 45.900799
3.0160699 1.1366992 -2.675246 103 0 0 0 45.900799
9.3075752 0.96190536 -3.3010926 91 0 0 0 45.900799
13.512062 5.3998361 -1.5051765 69 0 0 0 45.900799
7.4420958 0.7906183 -3.0624757 100 0 0 0 45.900799
5.3841882 2.5095363 -3.2273321 137 0 0 0 45.900799
27.177788 4.7839227 0.015848881 32 0 0 0 45.900799
5.2573509 0.58753139 -2.8075185 151 0 0 0 45.900799
5.4212117 1.8368783 -3.0571363 187 0 0 0 45.900799
5.3936095 1.1991087 -2.9298398 190 0 0 0 45.900799
3.9481585 0.46097645 -2.6552234 244 0 0 0 45.900799
6.3960853 1.3909438 -3.0664783 163 0 0 0 45.900799
