# .PCD v0.7 - Point Cloud Data file format
VERSION 0.7
FIELDS x y z intensity normal_x normal_y normal_z curvature
SIZE 4 4 4 4 4 4 4 4
TYPE F F F F F F F F
COUNT 1 1 1 1 1 1 1 1
WIDTH 923
HEIGHT 1
VIEWPOINT 0 0 0 1 0 0 0
POINTS 923
DATA ascii
-3.717824 10.961403 3.1047134 78 0 0 0 22.276096
-1.1903774 4.9227729 -3.9972985 209 0 0 0 22.276096
-3.4327106 14.797377 5.0487242 28 0 0 0 22.276096
-2.2126079 6.5561309 -0.90054989 463 0 0 0 22.276096
-2.0237341 5.9198165 -1.7821776 533 0 0 0 22.276096
-0.18587781 6.3063025 -1.2191156 578 0 0 0 22.276096
-0.83732498 6.4705634 -1.0045522 596 0 0 0 22.276096
-0.1745186 6.1070657 -1.4963447 646 0 0 0 22.276096
-0.75534451 5.8866549 -1.8362479 641 0 0 0 22.276096
-1.7208501 4.7674465 -3.3290367 577 0 0 0 22.276096
-2.0826325 6.1276155 -1.501708 553 0 0 0 22.276096
-1.9125205 5.5239391 -2.3171146 523 0 0 0 22.276096
-1.8595155 5.3280435 -2.5726969 644 0 0 0 22.276096
-3.686826 10.807642 3.6767972 66 0 0 0 22.276096
-3.1222544 9.2943335 -0.32061112 10 0 0 0 22.276096
-1.1547083 8.8947611 -0.06994722 9 0 0 0 22.276096
-3.6208429 10.78055 0.18072584 4 0 0 0 22.276096
-0.57213509 4.8224831 -4.1463113 170 0 0 0 22.276096
-0.78112447 6.0619826 -1.5650519 698 0 0 0 22.276096
-0.81171387 6.28161 -1.295282 535 0 0 0 22.276096
-1.5308676 6.6273808 -0.7944361 570 0 0 0 22.276096
-0.15974143 5.9215755 -1.7659434 684 0 0 0 22.276096
-1.5573812 4.0078063 -4.3628025 293 0 0 0 22.276096
-2.3947451 7.1174664 -0.60654968 48 0 0 0 22.276096
0.0036978738 4.4622598 -3.7447817 509 0 0 0 22.276096
-0.22002327 7.0694571 -0.6583305 159 0 0 0 22.276096
-0.19791813 6.5162754 -0.92940998 486 0 0 0 22.276096
-1.3525507 5.8036051 -1.9263765 633 0 0 0 22.276096
-1.5796849 6.8443842 -0.47394669 498 0 0 0 22.276096
-0.072641656 5.2909727 -3.187912 739 0 0 0 22.276096
-0.7274127 5.6930571 -2.0915225 700 0 0 0 22.276096
-1.5972571 4.2026267 -4.0928388 464 0 0 0 22.276096
-3.5921211 10.620924 2.4197836 23 0 0 0 22.276096
-0.53030604 4.545743 -4.3530765 6 0 0 0 22.276096
0.030803164 4.2788572 -3.9979374 441 0 0 0 22.276096
-1.8105196 5.1321449 -2.8229373 696 0 0 0 22.276096
-0.094773062 5.4880996 -2.9361997 492 0 0 0 22.276096
-1.2659677 5.3424954 -3.0940046 323 0 0 0 22.276096
-0.11607643 5.6752243 -2.6751139 381 0 0 0 22.276096
-3.4659557 14.90521 5.9440746 52 0 0 0 22.276096
-0.63722855 5.2060051 -3.6102943 248 0 0 0 22.276096
-3.716548 10.656114 5.6151195 53 0 0 0 22.276096
-0.60400939 5.0005956 -3.8682482 257 0 0 0 22.276096
-1.265926 5.3090634 -3.4555714 195 0 0 0 22.276096
-2.1418197 6.3276362 -1.2065411 494 0 0 0 22.276096
-1.3920065 5.9921107 -1.6557939 637 0 0 0 22.276096
-1.6382469 4.3945189 -3.8364584 451 0 0 0 22.276096
-1.7685121 4.9598789 -3.0820682 621 0 0 0 22.276096
-0.022598686 4.8155265 -3.6288435 532 0 0 0 22.276096
-3.6711981 10.694305 4.2747226 71 0 0 0 22.276096
-0.66873026 5.392302 -3.3431051 283 0 0 0 22.276096
-1.6816771 4.5877094 -3.583863 581 0 0 0 22.276096
-3.7483766 11.160709 0.76896971 7 0 0 0 22.276096
-1.9600644 5.7004304 -2.047262 698 0 0 0 22.276096
-0.0401971 5.2938776 -3.1894772 682 0 0 0 22.363136
-0.74297076 6.0589824 -1.5630164 709 0 0 0 22.363136
-0.63394016 5.3819814 -3.3341041 275 0 0 0 22.363136
-3.0458212 9.2544556 -0.31835002 7 0 0 0 22.363136
-1.4875667 6.6250277 -0.79297578 590 0 0 0 22.363136
-0.2235375 8.7264318 0.037698667 5 0 0 0 22.363136
-1.7335172 4.9576507 -3.0738924 678 0 0 0 22.363136
-1.7781299 5.1406488 -2.8215377 686 0 0 0 22.363136
-1.3537284 5.993957 -1.6539303 664 0 0 0 22.363136
-1.6104604 4.4023175 -3.8345444 425 0 0 0 22.363136
-3.4514387 10.445449 1.8115568 6 0 0 0 22.363136
-0.77327502 6.2874432 -1.2954885 578 0 0 0 22.363136
-0.69167399 5.6909013 -2.0890801 727 0 0 0 22.363136
-1.8756173 5.5267887 -2.3133669 549 0 0 0 22.363136
-0.10903096 5.7210965 -2.0206401 632 0 0 0 22.363136
-3.4228656 15.177541 5.1704893 20 0 0 0 22.363136
-0.79724383 6.4726396 -1.0040778 614 0 0 0 22.363136
-1.2395884 5.3780746 -3.1103947 188 0 0 0 22.363136
-2.0249171 9.0352116 -0.18621236 6 0 0 0 22.363136
-0.66703421 5.5127544 -2.3441694 671 0 0 0 22.363136
-1.276899 5.6167002 -2.1829257 554 0 0 0 22.363136
-1.6507875 4.5903878 -3.5778966 550 0 0 0 22.363136
-1.9214375 5.7016039 -2.0433273 683 0 0 0 22.363136
-1.3960465 6.2017803 -1.3811971 580 0 0 0 22.363136
-3.6228452 10.687638 4.9234943 78 0 0 0 22.363136
-0.66534024 5.5889931 -3.0799079 279 0 0 0 22.363136
-2.0388596 6.1218181 -1.4970663 538 0 0 0 22.363136
-1.192046 5.1059389 -3.710712 233 0 0 0 22.363136
-0.85740298 6.9302444 -0.38679847 366 0 0 0 22.363136
-1.1246179 4.7339754 -4.2715921 190 0 0 0 22.363136
-3.6464601 10.665149 5.6080174 56 0 0 0 22.363136
0.057136621 4.2851262 -4.0041213 489 0 0 0 22.363136
-0.71886319 5.88834 -1.8353418 640 0 0 0 22.363136
-1.3074819 5.7327547 -2.5715427 228 0 0 0 22.363136
-1.5275517 4.0035844 -4.3477654 308 0 0 0 22.363136
-0.017971057 5.0986323 -3.4410567 1009 0 0 0 22.363136
-3.6916015 11.107838 3.1393809 45 0 0 0 22.363136
0.031077715 4.462153 -3.7447817 550 0 0 0 22.363136
-0.092902951 5.5452538 -2.2772586 579 0 0 0 22.363136
-3.5241187 10.634408 2.4179077 23 0 0 0 22.363136
-0.1580296 6.5213227 -0.92999846 513 0 0 0 22.363136
-0.06108645 5.4876995 -2.9357221 472 0 0 0 22.363136
-0.13699827 6.1060829 -1.495856 579 0 0 0 22.363136
-1.4428582 6.409945 -1.0940672 616 0 0 0 22.363136
-1.6890721 4.7708535 -3.3240457 582 0 0 0 22.363136
-3.6913366 11.042388 3.7483232 62 0 0 0 22.363136
0.0068738866 4.6510649 -3.5032029 574 0 0 0 22.363136
-0.17676887 7.0756483 -0.65882099 136 0 0 0 22.363136
-1.2692841 5.5337052 -2.8318708 279 0 0 0 22.363136
-1.9812858 5.9139137 -1.7765743 524 0 0 0 22.363136
-0.57367539 5.0073442 -3.8707037 230 0 0 0 22.363136
-1.3152382 5.8043871 -1.9238645 603 0 0 0 22.363136
-1.5711839 4.211659 -4.0921612 480 0 0 0 22.363136
-1.5367862 6.8500552 -0.47365582 485 0 0 0 22.363136
-3.3793678 14.94803 5.9527302 29 0 0 0 22.363136
-0.5430429 4.8304148 -4.1502333 222 0 0 0 22.363136
-0.12315723 5.9109707 -1.762437 714 0 0 0 22.363136
-0.14713256 6.3053637 -1.2187238 585 0 0 0 22.363136
-3.6603746 10.879905 4.3394313 60 0 0 0 22.363136
-1.8250306 5.3342023 -2.5701706 657 0 0 0 22.363136
-2.3581905 7.1537938 -0.6085183 80 0 0 0 22.363136
-0.82257569 6.6587462 -0.69915783 4 0 0 0 22.363136
-2.166749 6.5526462 -0.89812565 460 0 0 0 22.363136
-1.159077 4.9254208 -3.9935536 200 0 0 0 22.363136
-0.081210941 5.6731253 -2.6738167 381 0 0 0 22.363136
-1.2316171 5.3093529 -3.4507093 201 0 0 0 22.363136
-0.23362353 9.1132145 -0.41149262 7 0 0 0 22.363136
-0.60508329 5.2081876 -3.6091502 220 0 0 0 22.363136
-2.0977027 6.3247943 -1.2034198 519 0 0 0 22.363136
-0.69487679 5.7848096 -2.8161452 243 0 0 0 22.363136
-0.7056675 6.0624666 -1.5627619 688 0 0 0 22.4704
-1.7437208 5.1430836 -2.8168724 676 0 0 0 22.4704
-0.6821698 5.8879051 -1.8338317 604 0 0 0 22.4704
-0.54379296 5.0186181 -3.8768425 221 0 0 0 22.4704
-3.5746951 10.668628 5.5982528 63 0 0 0 22.4704
-0.81381363 6.9264531 -0.38625216 341 0 0 0 22.4704
-1.3563007 6.2026029 -1.3794492 561 0 0 0 22.4704
-1.4441413 6.6214228 -0.7913937 560 0 0 0 22.4704
-0.63246125 5.5103559 -2.3414016 657 0 0 0 22.4704
-0.65845269 5.7809391 -2.812176 220 0 0 0 22.4704
-0.058781676 5.5374188 -2.2737811 564 0 0 0 22.4704
-3.6281571 11.144985 3.1434896 24 0 0 0 22.4704
-3.327985 15.152508 6.0255809 10 0 0 0 22.4704
-0.569969 5.18327 -3.5891252 267 0 0 0 22.4704
-1.1969825 5.3077793 -3.4447668 236 0 0 0 22.4704
-1.9413764 5.9150119 -1.7732123 586 0 0 0 22.4704
-1.6972262 4.9511132 -3.0631616 574 0 0 0 22.4704
-1.5029573 4.0128818 -4.3477654 317 0 0 0 22.4704
-0.63034672 5.5868902 -3.0765078 259 0 0 0 22.4704
-1.2310132 5.4948421 -3.1744654 248 0 0 0 22.4704
-1.2347246 5.5387774 -2.830514 264 0 0 0 22.4704
-2.3124177 7.1624389 -0.60800475 87 0 0 0 22.4704
-0.046432015 5.6771231 -2.6755464 355 0 0 0 22.4704
-1.6188636 4.5898314 -3.5695436 562 0 0 0 22.4704
-0.73308986 6.2784643 -1.2925969 551 0 0 0 22.4704
-0.073937766 5.7225981 -2.0209796 684 0 0 0 22.4704
-3.3851233 15.451465 5.2561636 22 0 0 0 22.4704
-1.5803056 4.4034157 -3.826889 420 0 0 0 22.4704
-0.600905 5.3857698 -3.3341041 269 0 0 0 22.4704
-1.6570451 4.7732639 -3.3185 546 0 0 0 22.4704
-0.75923693 6.4921198 -1.0064502 514 0 0 0 22.4704
-0.13325359 7.0716248 -0.6583305 146 0 0 0 22.4704
-0.027403221 5.4862137 -2.9347668 430 0 0 0 22.4704
-1.0926915 4.7283998 -4.2603054 173 0 0 0 22.4704
-1.2740588 5.7486968 -2.5752034 225 0 0 0 22.4704
-1.9958386 6.1175642 -1.4928887 523 0 0 0 22.4704
-1.2789867 5.809566 -1.9229225 607 0 0 0 22.4704
-2.9632595 9.1930628 -0.31528661 4 0 0 0 22.4704
-1.3158929 5.9974427 -1.6525991 668 0 0 0 22.4704
-1.5425394 4.2136197 -4.0847087 455 0 0 0 22.4704
-1.3992945 6.3994236 -1.0906631 578 0 0 0 22.4704
-0.10854577 6.3120308 -1.2198994 570 0 0 0 22.4704
0.083375439 4.2817893 -4.0013728 470 0 0 0 22.4704
-0.086768076 5.903965 -1.7600993 685 0 0 0 22.4704
0.058428951 4.4595928 -3.7428384 499 0 0 0 22.4704
-0.007707817 5.2914658 -3.187912 710 0 0 0 22.4704
0.035328306 4.6382198 -3.4934916 533 0 0 0 22.4704
-3.6500444 11.073771 4.4073052 53 0 0 0 22.4704
-1.1274409 4.9263468 -3.9885604 237 0 0 0 22.4704
-3.6213191 10.902958 5.0118747 48 0 0 0 22.4704
-1.1606942 5.1131568 -3.710712 203 0 0 0 22.4704
-1.8846436 5.7079029 -2.0413601 710 0 0 0 22.4704
-1.839043 5.5302734 -2.309994 498 0 0 0 22.4704
-0.51243162 4.824626 -4.1423888 179 0 0 0 22.4704
0.012823652 4.8114734 -3.2444983 608 0 0 0 22.4704
-3.6827383 11.245901 3.8091962 61 0 0 0 22.4704
-1.7893893 5.3366981 -2.5659602 614 0 0 0 22.4704
-2.1228447 6.5545034 -0.89650953 465 0 0 0 22.4704
-2.0543079 6.3235202 -1.2006656 498 0 0 0 22.4704
-1.4936652 6.8544831 -0.47329226 436 0 0 0 22.4704
-0.11792 6.5172248 -0.92926288 544 0 0 0 22.4704
-0.65598917 5.6885214 -2.086638 751 0 0 0 22.4704
-1.2412059 5.6189651 -2.1807609 531 0 0 0 22.4704
-0.099513009 6.1058388 -1.4956118 568 0 0 0 22.4704
0.0062606637 5.4880357 -2.9357221 447 0 0 0 22.559744
-1.5149213 4.2181573 -4.0799661 459 0 0 0 22.559744
-1.2009606 5.5192547 -3.1843989 240 0 0 0 22.559744
-1.7532213 5.3372335 -2.5609078 624 0 0 0 22.559744
0.085722297 4.4553418 -3.7395999 484 0 0 0 22.559744
0.10962869 4.2804708 -4.0006857 419 0 0 0 22.559744
-0.56838197 5.3944178 -3.337281 235 0 0 0 22.559744
-0.44781461 4.567646 -4.3655529 3 0 0 0 22.559744
-3.5971575 11.056711 5.0719891 59 0 0 0 22.559744
-1.5883166 4.5928497 -3.5641737 569 0 0 0 22.559744
-0.51226485 5.0147924 -3.8713176 221 0 0 0 22.559744
-0.011617191 5.6845145 -2.6790056 366 0 0 0 22.559744
-0.62248755 5.7804089 -2.8099709 231 0 0 0 22.559744
-3.5083289 10.687806 5.5969214 42 0 0 0 22.559744
0.023652861 5.0022159 -3.0110373 572 0 0 0 22.559744
-1.6269237 4.7809777 -3.3168364 540 0 0 0 22.559744
-0.53849387 5.1899323 -3.5914137 242 0 0 0 22.559744
-1.5507079 4.4057627 -3.8205094 435 0 0 0 22.559744
-1.4708662 4.0017085 -4.3255677 209 0 0 0 22.559744
-1.2358819 5.7430091 -2.5691025 202 0 0 0 22.559744
-1.0958372 4.9270701 -3.9835672 198 0 0 0 22.559744
-1.0616944 4.7262592 -4.2523384 179 0 0 0 22.559744
-1.2333241 5.6970592 -2.9087582 202 0 0 0 22.559744
-3.3246019 15.633544 5.3107696 24 0 0 0 22.559744
0.06373664 4.6339426 -3.4904568 511 0 0 0 22.559744
-0.59843969 5.5123067 -2.340611 611 0 0 0 22.559744
-3.6470807 11.372609 3.8441982 80 0 0 0 22.559744
-1.6665417 4.960619 -3.0626507 631 0 0 0 22.559744
-1.7090707 5.1444502 -2.8117404 715 0 0 0 22.559744
-0.59521824 5.5828304 -3.0721362 251 0 0 0 22.559744
-0.4807784 4.8073487 -4.1247396 205 0 0 0 22.559744
0.042384889 4.8162551 -3.2478871 665 0 0 0 22.559744
-1.1282498 5.1154203 -3.707216 226 0 0 0 22.559744
-1.2433158 5.8173041 -1.9229225 641 0 0 0 22.559744
-0.98459524 8.8588562 -0.069282614 15 0 0 0 22.559744
-0.069859736 6.3165002 -1.2206832 521 0 0 0 22.559744
-0.7166658 6.4721212 -1.0024962 614 0 0 0 22.559744
-1.8036427 5.5370445 -2.30812 472 0 0 0 22.559744
-1.315788 6.1993527 -1.3768274 566 0 0 0 22.559744
-0.76897621 6.9104838 -0.38497746 295 0 0 0 22.559744
-1.3595933 6.405961 -1.0903226 570 0 0 0 22.559744
-1.2770627 5.995976 -1.6499369 618 0 0 0 22.559744
-3.5567725 11.157828 3.1409218 34 0 0 0 22.559744
-1.8992275 8.9899321 -0.18450245 5 0 0 0 22.559744
-0.64561296 5.8881898 -1.8326235 687 0 0 0 22.559744
-1.3997893 6.6126795 -0.78920317 571 0 0 0 22.559744
-1.9535377 6.1148677 -1.4891753 527 0 0 0 22.559744
-0.66845566 6.0666823 -1.5627619 656 0 0 0 22.559744
-0.050558109 5.9062986 -1.7606837 661 0 0 0 22.559744
-3.6179366 11.207328 4.4512649 65 0 0 0 22.559744
-0.73046547 6.5754766 -0.68887544 4 0 0 0 22.559744
-0.062067423 6.108274 -1.4961003 588 0 0 0 22.559744
-1.1638526 5.3125577 -3.443146 216 0 0 0 22.559744
-0.089715086 7.0613632 -0.65725136 157 0 0 0 22.559744
-1.8481346 5.7148638 -2.0397208 608 0 0 0 22.559744
-2.2582338 7.1441875 -0.60509467 91 0 0 0 22.559744
-0.024822965 5.5413647 -2.2753267 540 0 0 0 22.559744
-0.69196689 6.2595043 -1.2876397 612 0 0 0 22.559744
-0.077841759 6.5109024 -0.92823303 598 0 0 0 22.559744
-0.62015581 5.6840549 -2.0834978 693 0 0 0 22.559744
-1.2065098 5.6255631 -2.1803999 541 0 0 0 22.559744
-0.038801964 5.7201223 -2.0199609 647 0 0 0 22.559744
-2.0130897 6.3285108 -1.1991968 500 0 0 0 22.559744
-2.0772057 6.5504007 -0.89408529 556 0 0 0 22.559744
-1.9041667 5.9240704 -1.7723719 544 0 0 0 22.559744
-1.4521974 6.8664465 -0.47351041 463 0 0 0 22.559744
-1.9145322 6.1220965 -1.4880149 549 0 0 0 22.664703
-0.7262463 6.9120941 -0.38479537 288 0 0 0 22.664703
-2.0360947 6.5601835 -0.89368129 490 0 0 0 22.664703
-3.5967247 11.380182 4.5106988 54 0 0 0 22.664703
-0.45098823 4.8071942 -4.1221247 179 0 0 0 22.664703
-1.1696923 5.6219029 -2.1760702 576 0 0 0 22.664703
0.071936078 4.8159041 -3.2478871 607 0 0 0 22.664703
-0.93032432 8.8657246 -0.069294482 8 0 0 0 22.664703
-3.4402184 10.701452 5.5929265 45 0 0 0 22.664703
-1.1321074 5.3237147 -3.445847 222 0 0 0 22.664703
-1.4882799 4.2252913 -4.0779333 518 0 0 0 22.664703
-0.56451178 5.5149612 -2.3402154 636 0 0 0 22.664703
-0.014319777 5.907454 -1.760976 687 0 0 0 22.664703
-1.7173914 5.3383899 -2.5562766 665 0 0 0 22.664703
-1.5583073 4.597187 -3.5599971 495 0 0 0 22.664703
-0.45320687 4.9327698 -4.7155938 15 0 0 0 22.664703
0.11311363 4.4570169 -3.7415431 528 0 0 0 22.664703
-1.5936197 4.7790251 -3.3085182 489 0 0 0 22.664703
-1.0645964 4.9291186 -3.9798222 218 0 0 0 22.664703
-1.4920653 4.1381049 -4.4644828 104 0 0 0 22.664703
0.023262553 5.6844788 -2.6790056 305 0 0 0 22.664703
-1.2070206 5.8220344 -1.9219806 594 0 0 0 22.664703
-1.1654606 5.5188766 -3.1799288 258 0 0 0 22.664703
-1.811896 5.7224927 -2.0384092 651 0 0 0 22.664703
-0.024577484 6.1066003 -1.4956118 597 0 0 0 22.664703
0.0091803158 5.5432572 -2.2760994 559 0 0 0 22.664703
-0.0036928393 5.712728 -2.0172446 704 0 0 0 22.664703
-1.1968793 5.6975365 -2.9051399 247 0 0 0 22.664703
-1.6339282 4.9642172 -3.0585625 613 0 0 0 22.664703
-3.6305254 11.564741 3.9011147 47 0 0 0 22.664703
-1.8654813 5.9283156 -1.7701305 584 0 0 0 22.664703
-1.2375209 5.9904828 -1.6462096 617 0 0 0 22.664703
-0.046399899 7.0637712 -0.65744758 163 0 0 0 22.664703
-3.5420408 11.118786 5.090302 68 0 0 0 22.664703
-1.3567955 6.6094761 -0.78774279 624 0 0 0 22.664703
-0.56068879 5.5837684 -3.0706789 253 0 0 0 22.664703
-0.037871037 6.5082898 -0.92779166 582 0 0 0 22.664703
-1.4216492 6.9318967 -0.47772792 214 0 0 0 22.664703
-1.2769386 6.203486 -1.3759534 559 0 0 0 22.664703
0.038046125 5.1962156 -2.7771525 546 0 0 0 22.664703
-0.58517128 5.686821 -2.083149 733 0 0 0 22.664703
0.054285929 4.9960051 -3.007385 685 0 0 0 22.664703
-0.53577542 5.4028683 -3.3404577 253 0 0 0 22.664703
-0.50759745 5.2029338 -3.5982795 241 0 0 0 22.664703
-1.7665422 5.5382891 -2.3039978 520 0 0 0 22.664703
-0.48035026 5.0060549 -3.8621094 254 0 0 0 22.664703
-3.4721396 11.127771 3.1265411 16 0 0 0 22.664703
-1.3186737 6.4064608 -1.088961 598 0 0 0 22.664703
0.13611311 4.2869802 -4.0075569 475 0 0 0 22.664703
-1.5211411 4.4079127 -3.8141298 450 0 0 0 22.664703
-0.58700788 5.7841196 -2.8099709 232 0 0 0 22.664703
-2.2055371 7.1293497 -0.6025269 97 0 0 0 22.664703
-0.03105196 6.3079844 -1.2189198 579 0 0 0 22.664703
-1.0956515 5.116684 -3.7031372 231 0 0 0 22.664703
-0.60917664 5.8891954 -1.8317174 793 0 0 0 22.664703
-1.0318788 4.7290311 -4.2490187 182 0 0 0 22.664703
-0.67735153 6.4803252 -1.0031289 546 0 0 0 22.664703
-1.1955849 5.7263379 -2.5581205 232 0 0 0 22.664703
-0.63051695 6.0639362 -1.5609809 661 0 0 0 22.664703
0.092288718 4.6398211 -3.4953125 573 0 0 0 22.664703
-0.6529358 6.2577939 -1.2864006 638 0 0 0 22.664703
-1.6761076 5.1506333 -2.8094077 671 0 0 0 22.664703
-1.9736373 6.3388662 -1.1988295 428 0 0 0 22.664703
0.012886789 6.1027575 -1.4946346 600 0 0 0 22.757889
0.16246827 4.2875161 -4.0089307 472 0 0 0 22.757889
-1.2367532 6.2006769 -1.3735502 574 0 0 0 22.757889
-1.8254058 5.9277215 -1.7664884 615 0 0 0 22.757889
0.031377766 5.7164054 -2.0186028 690 0 0 0 22.757889
0.14045924 4.4562387 -3.7415431 552 0 0 0 22.757889
-1.16978 5.8218842 -1.9194686 580 0 0 0 22.757889
-0.68441123 6.92238 -0.38515958 319 0 0 0 22.757889
-1.4775479 4.1781259 -4.4981375 125 0 0 0 22.757889
-1.3827788 6.9590764 -0.47910953 111 0 0 0 22.757889
-0.45004961 5.0136251 -3.8657928 243 0 0 0 22.757889
0.084953554 4.9964309 -3.0079067 679 0 0 0 22.757889
-0.55044746 5.6921701 -2.0838466 700 0 0 0 22.757889
-1.9897695 6.5526385 -0.89085305 482 0 0 0 22.757889
0.069563203 5.166894 -2.7613912 707 0 0 0 22.757889
-1.1615417 5.7030249 -2.9042354 235 0 0 0 22.757889
-0.5254302 5.5766606 -3.0648503 254 0 0 0 22.757889
-0.50159001 5.3950739 -3.3335745 263 0 0 0 22.757889
0.0020628884 6.5113673 -0.92823303 560 0 0 0 22.757889
0.10138497 4.8104219 -3.2444983 621 0 0 0 22.757889
-1.3152479 6.6128092 -0.78713435 659 0 0 0 22.757889
-1.6813415 5.3384428 -2.551224 691 0 0 0 22.757889
-1.128967 5.5131688 -3.1724787 233 0 0 0 22.757889
0.021899158 5.8978672 -1.7580539 680 0 0 0 22.757889
-1.728943 5.5375166 -2.2991257 491 0 0 0 22.757889
-0.53048569 5.5164928 -2.3394248 623 0 0 0 22.757889
-1.1979057 5.9837852 -1.6422162 630 0 0 0 22.757889
-1.4671121 4.2482538 -4.0914836 253 0 0 0 22.757889
-1.0635753 5.1201272 -3.7008064 221 0 0 0 22.757889
-0.87472689 8.8593254 -0.069152065 13 0 0 0 22.757889
-1.0987414 5.3272643 -3.4436862 213 0 0 0 22.757889
-0.57247484 5.8871298 -1.8299052 696 0 0 0 22.757889
-0.47498947 5.1986003 -3.5931301 254 0 0 0 22.757889
-0.55125004 5.7849326 -2.8086476 228 0 0 0 22.757889
-3.3758342 10.726634 5.5951457 33 0 0 0 22.757889
-2.1562769 7.1246271 -0.60090071 96 0 0 0 22.757889
-1.5611742 4.7792187 -3.3018634 496 0 0 0 22.757889
0.0076536895 6.3080564 -1.2189198 598 0 0 0 22.757889
0.043147575 5.5366402 -2.2733948 595 0 0 0 22.757889
-1.5285568 4.6020913 -3.5564172 507 0 0 0 22.757889
-1.931561 6.3405113 -1.1968099 489 0 0 0 22.757889
-3.4862974 11.180599 5.1086149 63 0 0 0 22.757889
-0.0030415584 7.048995 -0.655976 112 0 0 0 22.757889
-1.0335319 4.9317346 -3.9767015 215 0 0 0 22.757889
-1.2774142 6.4047675 -1.0872588 615 0 0 0 22.757889
-0.61481375 6.2646036 -1.2870202 622 0 0 0 22.757889
0.055110659 5.3641467 -2.5255034 598 0 0 0 22.757889
-0.43473282 5.0726228 -4.8479857 32 0 0 0 22.757889
-1.4938201 4.4164333 -3.8134918 448 0 0 0 22.757889
-1.7750753 5.7280869 -2.036442 668 0 0 0 22.757889
-1.0017598 4.7301526 -4.2443714 172 0 0 0 22.757889
-1.1573493 5.7183437 -2.5512061 215 0 0 0 22.757889
-1.8743755 6.1253557 -1.4859262 551 0 0 0 22.757889
-0.63622069 6.470602 -1.0009147 587 0 0 0 22.757889
-0.42128441 4.8076096 -4.1201639 203 0 0 0 22.757889
-0.59263718 6.0609536 -1.5591999 638 0 0 0 22.757889
-3.5917628 11.612225 4.5933433 46 0 0 0 22.757889
0.12081599 4.6415505 -3.4971333 539 0 0 0 22.757889
-3.5748649 11.636886 3.9178548 33 0 0 0 22.757889
-1.6423296 5.1540771 -2.8056753 727 0 0 0 22.757889
-1.6029116 4.9725127 -3.0575407 568 0 0 0 22.757889
-1.1320446 5.6134315 -2.1699364 516 0 0 0 22.757889
-0.55570197 6.0673652 -1.5599632 608 0 0 0 22.860289
-1.6458889 5.3399887 -2.5470138 672 0 0 0 22.860289
-1.2360386 6.4018416 -1.0853865 606 0 0 0 22.860289
-1.6083097 5.156456 -2.8014765 700 0 0 0 22.860289
-1.4666932 4.4255161 -3.8134918 438 0 0 0 22.860289
-0.57618368 6.2663093 -1.286607 608 0 0 0 22.860289
-0.51526475 5.7828422 -2.8060014 204 0 0 0 22.860289
0.16771604 4.4530091 -3.7395999 539 0 0 0 22.860289
-0.81942773 8.8545694 -0.069033384 13 0 0 0 22.860289
-1.0934309 5.5114779 -3.1675119 232 0 0 0 22.860289
-1.1604346 5.9872375 -1.6411513 596 0 0 0 22.860289
0.13083427 4.8072348 -3.2428038 624 0 0 0 22.860289
0.077167504 5.5399604 -2.2749403 553 0 0 0 22.860289
-1.5305561 4.7847438 -3.2990906 475 0 0 0 22.860289
-1.4628229 4.2187829 -4.5325084 89 0 0 0 22.860289
-1.5697907 4.9740548 -3.0524306 557 0 0 0 22.860289
-0.53582132 5.8848357 -1.8280929 702 0 0 0 22.860289
-0.59559792 6.4645519 -0.99933308 568 0 0 0 22.860289
-0.97211653 4.7332797 -4.2417159 185 0 0 0 22.860289
-2.1164718 7.1511006 -0.60209894 143 0 0 0 22.860289
-1.5000426 4.61062 -3.5558207 468 0 0 0 22.860289
-3.4304628 11.2439 5.1277242 63 0 0 0 22.860289
-1.2742728 6.6188054 -0.78689092 600 0 0 0 22.860289
0.058052391 5.8937969 -1.7568851 738 0 0 0 22.860289
-3.4968233 11.636705 3.9105499 12 0 0 0 22.860289
-0.39239445 4.8176465 -4.1267004 208 0 0 0 22.860289
-0.4961319 5.5141549 -2.3370523 663 0 0 0 22.860289
-1.0963302 5.6138639 -2.1674109 543 0 0 0 22.860289
-1.0322989 5.1273537 -3.7013891 260 0 0 0 22.860289
0.10136417 5.1716404 -2.764257 679 0 0 0 22.860289
-0.6397081 6.902596 -0.38370275 253 0 0 0 22.860289
0.06648311 5.7189269 -2.0196214 630 0 0 0 22.860289
0.046378769 6.310832 -1.2195076 585 0 0 0 22.860289
-1.7344257 5.7207856 -2.0298843 593 0 0 0 22.860289
0.087812364 5.350184 -2.5190175 686 0 0 0 22.860289
-1.127044 5.7126698 -2.9055922 244 0 0 0 22.860289
0.040276717 7.0618181 -0.65725136 112 0 0 0 22.860289
-0.51534116 5.693574 -2.083149 724 0 0 0 22.860289
-3.311007 10.750572 5.5969214 43 0 0 0 22.860289
0.1884307 4.2784538 -4.0013728 481 0 0 0 22.860289
-1.1318625 5.8177681 -1.9157007 594 0 0 0 22.860289
-1.690339 5.5329447 -2.2927547 540 0 0 0 22.860289
-1.0015434 4.9295607 -3.9698358 219 0 0 0 22.860289
-1.0657039 5.3322554 -3.4426057 245 0 0 0 22.860289
-1.8895388 6.3418794 -1.1947901 518 0 0 0 22.860289
-0.41848609 5.0068526 -3.8584263 218 0 0 0 22.860289
0.14931847 4.6415162 -3.4977403 562 0 0 0 22.860289
-1.7818167 5.9149075 -1.7592041 629 0 0 0 22.860289
-0.399124 5.0191512 -4.7939196 19 0 0 0 22.860289
-0.46634316 5.3735409 -3.3182199 290 0 0 0 22.860289
-1.1217139 5.7226477 -2.5499859 192 0 0 0 22.860289
0.042038918 6.5151882 -0.9288215 532 0 0 0 22.860289
-3.5572751 11.755913 4.6411715 86 0 0 0 22.860289
-0.49166384 5.5850043 -3.0677648 257 0 0 0 22.860289
-1.9447398 6.5485735 -0.88856351 525 0 0 0 22.860289
-1.1972051 6.2004833 -1.3718022 530 0 0 0 22.860289
-0.44301265 5.2005997 -3.5925579 283 0 0 0 22.860289
-1.8311895 6.1181006 -1.4812844 594 0 0 0 22.860289
0.050295629 6.0977149 -1.4934131 668 0 0 0 22.860289
-1.3389236 6.9615536 -0.47867325 114 0 0 0 22.860289
0.11553361 4.992404 -3.0058198 647 0 0 0 22.860289
-1.464286 4.3261728 -4.1585579 209 0 0 0 22.860289
0.083752245 7.0743747 -0.65852672 108 0 0 0 22.955008
-1.8445551 6.3325868 -1.1907508 532 0 0 0 22.955008
-0.38836849 5.0171967 -3.8645649 260 0 0 0 22.955008
-0.36847845 5.0236621 -4.7959991 28 0 0 0 22.955008
-1.0904672 5.7115932 -2.9015217 237 0 0 0 22.955008
-1.0945657 5.816206 -1.9128748 627 0 0 0 22.955008
-0.97022307 4.9302464 -3.9654667 238 0 0 0 22.955008
-1.0604802 5.6131535 -2.1645243 563 0 0 0 22.955008
-1.5349406 4.9696274 -3.0437438 573 0 0 0 22.955008
-3.4237468 11.652458 3.9087238 8 0 0 0 22.955008
-1.7906166 6.1189508 -1.4787314 517 0 0 0 22.955008
0.11126539 5.5449157 -2.2772586 550 0 0 0 22.955008
-3.4946265 11.809837 4.653832 90 0 0 0 22.955008
-1.5026562 4.798811 -3.302418 552 0 0 0 22.955008
-0.76490933 8.8574381 -0.069009647 13 0 0 0 22.955008
0.1024176 9.1575842 -0.41355896 11 0 0 0 22.955008
-1.0323272 5.3353891 -3.4404447 243 0 0 0 22.955008
-1.6555634 5.5405464 -2.2916303 481 0 0 0 22.955008
0.17791393 4.6436896 -3.5001681 537 0 0 0 22.955008
-0.48015943 5.6938272 -2.0821021 691 0 0 0 22.955008
-1.1960117 6.4054303 -1.0847057 612 0 0 0 22.955008
-0.53755581 6.267777 -1.286194 598 0 0 0 22.955008
-1.5753527 5.1619964 -2.7991438 641 0 0 0 22.955008
-1.6112642 5.3439069 -2.5440664 776 0 0 0 22.955008
-0.51805031 6.0658426 -1.558691 691 0 0 0 22.955008
-1.6088908 8.6613054 -0.17537491 29 0 0 0 22.955008
-0.49873251 5.8766141 -1.8244685 719 0 0 0 22.955008
-2.0628805 7.1304493 -0.59910327 127 0 0 0 22.955008
-0.55541235 6.462182 -0.99838412 593 0 0 0 22.955008
-0.94305539 4.7391553 -4.2417159 168 0 0 0 22.955008
-1.4712385 4.6182075 -3.5546274 506 0 0 0 22.955008
-3.3600969 11.260342 5.1257334 50 0 0 0 22.955008
0.14609164 4.9890432 -3.0042546 631 0 0 0 22.955008
0.094273418 5.8971543 -1.7580539 744 0 0 0 22.955008
-1.4476542 4.2594156 -4.5668793 89 0 0 0 22.955008
-1.455153 4.48279 -3.8555973 226 0 0 0 22.955008
0.21432361 4.2699599 -3.9945021 463 0 0 0 22.955008
-0.47895393 5.7760568 -2.8011501 193 0 0 0 22.955008
0.085037485 6.3055263 -1.2185278 619 0 0 0 22.955008
-1.2321849 6.6186929 -0.7859174 586 0 0 0 22.955008
-1.901765 6.5508652 -0.88721675 552 0 0 0 22.955008
-1.1243852 5.998035 -1.6422162 639 0 0 0 22.955008
-1.0879393 5.7366033 -2.5532396 228 0 0 0 22.955008
0.10157254 5.7184114 -2.0196214 677 0 0 0 22.955008
-1.696344 5.7213545 -2.0262778 579 0 0 0 22.955008
0.19513357 4.4541798 -3.7415431 545 0 0 0 22.955008
-0.36311185 4.8237367 -4.1299691 205 0 0 0 22.955008
0.12077603 5.3558545 -2.5220442 679 0 0 0 22.955008
-1.0591022 5.5155263 -3.1660221 216 0 0 0 22.955008
-1.0015949 5.1375799 -3.7043025 249 0 0 0 22.955008
-0.46213448 5.515265 -2.3362617 643 0 0 0 22.955008
0.16038188 4.807991 -3.2439334 669 0 0 0 22.955008
-0.43295258 5.3712277 -3.315043 285 0 0 0 22.955008
-3.2527256 10.796429 5.6102371 52 0 0 0 22.955008
-0.59699774 6.9024134 -0.38345996 261 0 0 0 22.955008
0.081990898 6.5128298 -0.92852724 513 0 0 0 22.955008
-1.7387245 5.9027038 -1.7522 640 0 0 0 22.955008
-1.1582425 6.2029161 -1.3707099 610 0 0 0 22.955008
-0.41096437 5.2015848 -3.5914137 265 0 0 0 22.955008
-1.293997 6.957871 -0.47780064 128 0 0 0 22.955008
0.087749444 6.1002002 -1.494146 615 0 0 0 22.955008
-1.4596351 4.4014215 -4.2229223 197 0 0 0 22.955008
0.13309485 5.1709213 -2.764257 693 0 0 0 22.955008
-0.45802948 5.5957565 -3.0721362 284 0 0 0 22.955008
-1.1906728 6.621244 -0.7853089 539 0 0 0 23.056128
0.17675996 4.989758 -3.0052979 614 0 0 0 23.056128
0.13661456 5.7157998 -2.0189424 682 0 0 0 23.056128
-1.0520617 5.7395763 -2.5516129 235 0 0 0 23.056128
0.22227433 4.4490938 -3.7383044 544 0 0 0 23.056128
-0.33188176 4.8024702 -4.109705 182 0 0 0 23.056128
0.15363666 5.3550124 -2.5220442 691 0 0 0 23.056128
-0.48059145 6.0660152 -1.5579277 671 0 0 0 23.056128
-1.5046666 4.979775 -3.0442548 549 0 0 0 23.056128
0.14519244 5.5404406 -2.275713 561 0 0 0 23.056128
-1.7506361 6.1214042 -1.4766426 502 0 0 0 23.056128
-3.4332683 11.869729 4.6689539 56 0 0 0 23.056128
-1.4722108 4.8047576 -3.3001997 504 0 0 0 23.056128
0.15848753 9.1497936 -0.41321456 4 0 0 0 23.056128
-1.0253978 5.5227742 -3.1665187 263 0 0 0 23.056128
-1.0865314 5.9991298 -1.6406188 589 0 0 0 23.056128
-0.44178125 5.756516 -2.7901242 190 0 0 0 23.056128
-1.4538919 4.5745912 -3.9276869 194 0 0 0 23.056128
0.12370726 6.3039055 -1.2183319 553 0 0 0 23.056128
-1.6583207 5.7216725 -2.0226712 571 0 0 0 23.056128
-0.94039112 4.9384093 -3.9673393 209 0 0 0 23.056128
-3.1940055 10.841974 5.6235523 46 0 0 0 23.056128
-1.05767 5.8162737 -1.9106768 633 0 0 0 23.056128
-1.0526528 5.7032657 -2.8938329 231 0 0 0 23.056128
-0.35667476 5.006887 -3.854743 242 0 0 0 23.056128
0.12707162 7.0687528 -0.65803617 111 0 0 0 23.056128
-1.5604784 8.6975832 -0.17602515 91 0 0 0 23.056128
-0.99601579 5.322597 -3.4280193 279 0 0 0 23.056128
0.20626578 4.6393347 -3.4977403 598 0 0 0 23.056128
-0.49877599 6.267056 -1.2853677 644 0 0 0 23.056128
-1.6186835 5.5408092 -2.2875078 541 0 0 0 23.056128
-1.5416313 5.1647835 -2.7954113 639 0 0 0 23.056128
0.19016618 4.8143377 -3.2490168 665 0 0 0 23.056128
-0.40055603 5.3813972 -3.3198082 287 0 0 0 23.056128
-1.1545895 6.401011 -1.0826632 620 0 0 0 23.056128
-1.0238439 5.6076274 -2.1598337 539 0 0 0 23.056128
-0.91409993 4.7455869 -4.2423797 184 0 0 0 23.056128
-0.444994 5.6938634 -2.0810554 790 0 0 0 23.056128
-1.8032477 6.3352752 -1.1890984 496 0 0 0 23.056128
-0.71006626 8.8559847 -0.068938442 4 0 0 0 23.056128
0.12200504 6.5151711 -0.92896861 511 0 0 0 23.056128
-1.5753742 5.3432503 -2.5390139 600 0 0 0 23.056128
-1.8582957 6.5509696 -0.88560063 609 0 0 0 23.056128
-1.4520769 4.4704752 -4.281189 152 0 0 0 23.056128
-0.4232226 5.59236 -3.0687361 316 0 0 0 23.056128
-0.46221486 5.8738618 -1.8226563 726 0 0 0 23.056128
-2.0177376 7.1381783 -0.59867531 126 0 0 0 23.056128
-1.4435884 4.629447 -3.5564172 338 0 0 0 23.056128
-0.51575071 6.4654684 -0.99838412 560 0 0 0 23.056128
-3.2973564 11.302766 5.1356864 66 0 0 0 23.056128
-1.4234699 4.2741809 -4.5733237 93 0 0 0 23.056128
-0.55447388 6.9039569 -0.38333857 302 0 0 0 23.056128
-1.7011485 5.908648 -1.7507992 690 0 0 0 23.056128
0.24039951 4.2663879 -3.9924407 485 0 0 0 23.056128
-1.118257 6.1993418 -1.3683065 610 0 0 0 23.056128
-0.37826264 5.1933751 -3.5839758 252 0 0 0 23.056128
-1.250047 6.9588079 -0.47729164 120 0 0 0 23.056128
0.12521641 6.1014862 -1.4946346 672 0 0 0 23.056128
0.16468428 5.1656165 -2.7618687 734 0 0 0 23.056128
-0.96975178 5.1420312 -3.7031372 242 0 0 0 23.056128
-0.42821342 5.5170808 -2.3358662 604 0 0 0 23.056128
0.13072217 5.908895 -1.7618525 691 0 0 0 23.056128
-2.5602858 9.0737047 -0.30686221 9 0 0 0 23.056128
0.20754652 4.9928412 -3.0079067 611 0 0 0 23.151615
0.17154571 5.7101531 -2.0172446 663 0 0 0 23.151615
0.24965297 4.4491677 -3.7395999 502 0 0 0 23.151615
-0.30193013 4.796864 -4.103168 202 0 0 0 23.151615
0.18621555 5.3458586 -2.5181525 666 0 0 0 23.151615
-1.8159528 6.5546079 -0.88452315 527 0 0 0 23.151615
-0.40950862 5.6890087 -2.0782642 750 0 0 0 23.151615
-1.761714 6.3367481 -1.1872622 533 0 0 0 23.151615
-1.5415571 5.349329 -2.5373299 704 0 0 0 23.151615
-0.88496435 4.7511067 -4.2423797 167 0 0 0 23.151615
-1.4277295 4.4891171 -4.2906742 151 0 0 0 23.151615
0.16188319 6.5103445 -0.92838013 598 0 0 0 23.151615
-1.1490062 6.6225572 -0.78457874 588 0 0 0 23.151615
-1.4735972 4.9872646 -3.0432329 532 0 0 0 23.151615
-1.7112151 6.1254716 -1.475018 508 0 0 0 23.151615
-3.3674922 11.915798 4.6788011 52 0 0 0 23.151615
-0.65460438 8.8452168 -0.068760425 12 0 0 0 23.151615
-0.40435919 5.7295752 -2.7755699 187 0 0 0 23.151615
-1.4424385 4.6371207 -3.9742582 195 0 0 0 23.151615
0.16236034 6.3020473 -1.218136 613 0 0 0 23.151615
-1.6213845 5.7253757 -2.020376 550 0 0 0 23.151615
-2.0268333 11.615675 3.9252245 16 0 0 0 23.151615
-0.90993071 4.9433184 -3.9667151 200 0 0 0 23.151615
-3.1355917 10.889788 5.6381998 35 0 0 0 23.151615
-1.0193397 5.8076911 -1.905653 679 0 0 0 23.151615
-1.0167007 5.7043486 -2.8911192 235 0 0 0 23.151615
0.17039542 7.0658498 -0.65783995 123 0 0 0 23.151615
-1.510148 8.7247257 -0.17645866 18 0 0 0 23.151615
-1.39657 4.2808433 -4.5711756 107 0 0 0 23.151615
-0.39435321 5.5196047 -2.3358662 654 0 0 0 23.151615
-1.1137731 6.3992372 -1.0811313 616 0 0 0 23.151615
-0.32589486 5.0081935 -3.8541291 219 0 0 0 23.151615
-0.47556087 6.4616179 -0.99727702 564 0 0 0 23.151615
-0.42630318 5.8784885 -1.8232603 682 0 0 0 23.151615
-0.44307929 6.064992 -1.55691 622 0 0 0 23.151615
-1.507935 5.1673512 -2.7916791 682 0 0 0 23.151615
-0.46024081 6.2690229 -1.2851613 689 0 0 0 23.151615
0.23468895 4.637188 -3.4971333 608 0 0 0 23.151615
-0.34644437 5.1964164 -3.584548 268 0 0 0 23.151615
-0.28239065 4.6299553 -4.4126873 6 0 0 0 23.151615
0.1625261 6.0957561 -1.4934131 657 0 0 0 23.151615
0.21400599 9.1216879 -0.41188622 10 0 0 0 23.151615
-0.36805099 5.3913708 -3.3245735 293 0 0 0 23.151615
0.17915609 5.5385232 -2.2753267 571 0 0 0 23.151615
-0.98796201 5.6055369 -2.1565864 589 0 0 0 23.151615
-1.0166656 5.7450242 -2.5512061 218 0 0 0 23.151615
-1.5808474 5.537262 -2.2818863 576 0 0 0 23.151615
0.26666197 4.266283 -3.9938149 482 0 0 0 23.151615
-1.4412726 4.8089161 -3.2968724 524 0 0 0 23.151615
-1.4354649 4.7050166 -3.6083255 233 0 0 0 23.151615
-1.9728422 7.1465821 -0.59833294 144 0 0 0 23.151615
-0.99057359 5.5238361 -3.1635387 247 0 0 0 23.151615
-1.048375 5.9980874 -1.638489 603 0 0 0 23.151615
0.21999754 4.8196754 -3.2535355 677 0 0 0 23.151615
-0.51232356 6.9102154 -0.38352066 329 0 0 0 23.151615
-1.6653804 5.9208231 -1.7513596 597 0 0 0 23.151615
-0.38823131 5.5852599 -3.0633931 285 0 0 0 23.151615
-0.96109617 5.3161864 -3.4199157 256 0 0 0 23.151615
-1.2040926 6.9476752 -0.47591004 111 0 0 0 23.151615
0.19631155 5.1627526 -2.7609136 726 0 0 0 23.151615
-0.93600059 5.1358914 -3.6943967 275 0 0 0 23.151615
0.16705506 5.9108496 -1.7627292 773 0 0 0 23.151615
-3.2452731 11.383662 5.1631556 49 0 0 0 23.151615
-1.0791948 6.2003183 -1.3669956 598 0 0 0 23.151615
-1.6712996 6.127409 -1.4729292 493 0 0 0 23.2512
0.26973867 9.1122169 -0.41149262 8 0 0 0 23.2512
-1.4208361 4.8488216 -3.3185 250 0 0 0 23.2512
-1.1576657 6.9323063 -0.47423756 101 0 0 0 23.2512
-3.3012798 11.961505 4.6886477 48 0 0 0 23.2512
0.22832809 5.1693506 -2.7652121 748 0 0 0 23.2512
-0.59896219 8.829114 -0.068523064 15 0 0 0 23.2512
0.29263872 4.2616668 -3.9910667 477 0 0 0 23.2512
-0.92687029 5.3128643 -3.4139729 281 0 0 0 23.2512
-0.98308355 5.7610602 -2.55568 236 0 0 0 23.2512
0.26287243 4.6308994 -3.4934916 653 0 0 0 23.2512
-1.0730219 6.3972039 -1.0795994 567 0 0 0 23.2512
-0.81183678 4.4487338 -4.4226203 3 0 0 0 23.2512
-0.43557099 6.4594884 -0.99648619 563 0 0 0 23.2512
-0.42143685 6.2668476 -1.2841285 645 0 0 0 23.2512
-1.4723306 5.1628938 -2.7842145 607 0 0 0 23.2512
-0.29511234 5.0093107 -3.8535154 270 0 0 0 23.2512
-0.98092604 5.7060847 -2.8888578 219 0 0 0 23.2512
-0.98305249 5.8100915 -1.904397 681 0 0 0 23.2512
0.21334507 5.54285 -2.2776451 551 0 0 0 23.2512
-0.31505102 5.2066307 -3.5902693 275 0 0 0 23.2512
-1.0401627 6.2010489 -1.3656847 633 0 0 0 23.2512
-0.95339245 5.6105742 -2.1562257 554 0 0 0 23.2512
-1.4014651 4.502008 -4.2947392 144 0 0 0 23.2512
-1.3677372 4.2813497 -4.562583 103 0 0 0 23.2512
-1.5143312 9.1000509 0.26417464 7 0 0 0 23.2512
-1.7720865 6.5522337 -0.88263768 509 0 0 0 23.2512
0.2774595 4.4559169 -3.7467248 560 0 0 0 23.2512
-0.27214614 4.792582 -4.0979385 230 0 0 0 23.2512
0.21944791 5.3554268 -2.5233414 725 0 0 0 23.2512
0.24952447 4.8174105 -3.2529707 718 0 0 0 23.2512
-0.2530627 4.6150479 -4.3967447 29 0 0 0 23.2512
-0.90334523 5.1351342 -3.6897352 247 0 0 0 23.2512
0.20114847 6.304853 -1.2189198 610 0 0 0 23.2512
-0.33480477 5.3909874 -3.3229852 290 0 0 0 23.2512
0.20173675 6.5062623 -0.92793876 593 0 0 0 23.2512
-0.87849015 4.9426541 -3.9617219 227 0 0 0 23.2512
-1.9575684 11.640065 3.9293044 5 0 0 0 23.2512
-1.9268849 7.1508555 -0.59764826 146 0 0 0 23.2512
-0.85420948 4.7476149 -4.2344127 178 0 0 0 23.2512
-1.5060086 5.3490806 -2.5326984 601 0 0 0 23.2512
-1.5458481 5.5432844 -2.2803872 537 0 0 0 23.2512
-1.4667727 8.7949667 -0.17795181 11 0 0 0 23.2512
-1.4415414 4.9912562 -3.0401669 550 0 0 0 23.2512
-1.5844654 5.7288418 -2.0180809 528 0 0 0 23.2512
-1.0109121 6.0006051 -1.6374241 658 0 0 0 23.2512
-1.7184321 6.3313084 -1.1841409 500 0 0 0 23.2512
-1.4385899 4.8214264 -3.6918557 181 0 0 0 23.2512
-0.35362053 5.582303 -3.0604787 292 0 0 0 23.2512
-0.35993749 5.5136714 -2.3323078 526 0 0 0 23.2512
-0.95533174 5.5221128 -3.1590686 263 0 0 0 23.2512
-0.40546831 6.0618067 -1.5553834 586 0 0 0 23.2512
-0.38978204 5.8743353 -1.8211461 709 0 0 0 23.2512
0.20001931 6.0975518 -1.494146 676 0 0 0 23.2512
0.21401322 7.0736241 -0.65872294 122 0 0 0 23.2512
0.20661265 5.7099328 -2.0175841 696 0 0 0 23.2512
0.23813823 4.9906216 -3.007385 642 0 0 0 23.2512
-0.46984574 6.9122329 -0.38345996 277 0 0 0 23.2512
-1.107205 6.6226296 -0.78372687 567 0 0 0 23.2512
-0.37459379 5.6914144 -2.0782642 672 0 0 0 23.2512
-0.36612624 5.6844802 -2.7521951 197 0 0 0 23.2512
-1.420886 4.6687288 -3.994035 149 0 0 0 23.2512
-1.6262296 5.9207463 -1.7482777 641 0 0 0 23.2512
-3.186914 11.4449 5.1818666 43 0 0 0 23.2512
0.20306249 5.9020667 -1.7603915 726 0 0 0 23.2512
-1.8845934 11.642485 3.9261661 7 0 0 0 23.347712
-0.84735554 4.9433308 -3.9579768 245 0 0 0 23.347712
-1.3721066 4.5048919 -4.289319 175 0 0 0 23.347712
-0.89453232 5.3201113 -3.4150534 262 0 0 0 23.347712
0.25255436 5.3593841 -2.5259359 750 0 0 0 23.347712
0.24179904 6.5088558 -0.92852724 606 0 0 0 23.347712
0.29088935 4.6228538 -3.4886358 577 0 0 0 23.347712
-0.92185819 5.5304389 -3.1605587 226 0 0 0 23.347712
-0.91909903 5.617239 -2.1565864 498 0 0 0 23.347712
-1.0332787 6.4007487 -1.0790888 551 0 0 0 23.347712
-0.28318733 5.2101035 -3.5914137 289 0 0 0 23.347712
0.31899574 4.2626896 -3.9938149 489 0 0 0 23.347712
0.25737649 7.0711832 -0.65862483 107 0 0 0 23.347712
-0.94723147 5.8150773 -1.904083 653 0 0 0 23.347712
-0.54428279 8.8246393 -0.068428122 6 0 0 0 23.347712
-0.94589567 5.7119961 -2.8888578 251 0 0 0 23.347712
-0.36820728 6.0632153 -1.5551289 656 0 0 0 23.347712
-1.6314248 6.1290874 -1.4708405 470 0 0 0 23.347712
0.24727049 5.5395937 -2.2768722 601 0 0 0 23.347712
-0.42686829 6.9060192 -0.38291368 304 0 0 0 23.347712
0.23757778 6.1000857 -1.4951231 699 0 0 0 23.347712
-1.4375476 5.1607513 -2.7781494 614 0 0 0 23.347712
0.26889098 4.9916224 -3.0089502 645 0 0 0 23.347712
-0.35384548 5.8785195 -1.8217502 741 0 0 0 23.347712
-0.32872406 5.6436138 -2.7310252 199 0 0 0 23.347712
-0.94697624 5.7624764 -2.5536463 222 0 0 0 23.347712
0.27907884 4.8157887 -3.2529707 716 0 0 0 23.347712
0.24176152 5.7113771 -2.0186028 696 0 0 0 23.347712
-1.0657612 6.6243987 -0.78311837 475 0 0 0 23.347712
-0.33988905 5.6973476 -2.0796599 764 0 0 0 23.347712
-0.31941167 5.5852404 -3.0609646 299 0 0 0 23.347712
-1.4658874 9.1555672 0.26533937 9 0 0 0 23.347712
-1.8789271 7.1471243 -0.59627879 154 0 0 0 23.347712
0.30500001 4.4571714 -3.7493157 564 0 0 0 23.347712
-0.87005621 5.1301637 -3.6821601 250 0 0 0 23.347712
-1.4197432 8.8472338 -0.17901148 12 0 0 0 23.347712
0.23975724 6.3015404 -1.2185278 638 0 0 0 23.347712
-0.82519019 4.7535038 -4.2350764 191 0 0 0 23.347712
-1.7283179 6.5495682 -0.88075221 507 0 0 0 23.347712
-1.471001 5.350348 -2.5289092 651 0 0 0 23.347712
-0.7846477 4.4543319 -4.4233232 7 0 0 0 23.347712
-1.4108884 5.0000076 -3.0401669 443 0 0 0 23.347712
0.26034617 5.173995 -2.7685554 765 0 0 0 23.347712
-1.5465825 5.7284212 -2.0144742 537 0 0 0 23.347712
-0.97345769 6.0028887 -1.6363592 689 0 0 0 23.347712
-1.6740279 6.3208246 -1.1801015 544 0 0 0 23.347712
-0.39574635 6.4590831 -0.99601173 589 0 0 0 23.347712
-0.3826769 6.2644324 -1.2830958 649 0 0 0 23.347712
-0.30057704 5.3726125 -3.3102777 268 0 0 0 23.347712
-1.4224192 4.8763995 -3.7276545 184 0 0 0 23.347712
-0.32588169 5.5121083 -2.3307264 578 0 0 0 23.347712
-1.5137665 9.4442844 0.74157482 5 0 0 0 23.347712
-0.26386818 5.0015674 -3.8461487 219 0 0 0 23.347712
-0.24377449 4.8145676 -4.1155877 191 0 0 0 23.347712
0.32483461 9.0874319 -0.41036105 7 0 0 0 23.347712
-1.4164064 4.9462705 -3.3800557 244 0 0 0 23.347712
-1.1152662 6.9402637 -0.47431028 113 0 0 0 23.347712
-3.2390106 12.023119 4.7048249 55 0 0 0 23.347712
-1.0020943 6.2073145 -1.3656847 658 0 0 0 23.347712
-1.3399887 4.284996 -4.5575705 87 0 0 0 23.347712
-1.5101058 5.546402 -2.2777638 616 0 0 0 23.347712
-1.5881344 5.9241214 -1.7463166 673 0 0 0 23.347712
-0.22007926 4.5214834 -4.3052487 266 0 0 0 23.347712
-3.1274443 11.504077 5.1997819 25 0 0 0 23.347712
0.23919691 5.8987985 -1.7598071 732 0 0 0 23.347712
-1.3939641 4.6832657 -3.9991386 188 0 0 0 23.347712
-1.4372066 5.3557682 -2.527225 587 0 0 0 23.445761
-0.2678602 5.3794394 -3.3134546 268 0 0 0 23.445761
-1.4739087 5.5474977 -2.2743909 545 0 0 0 23.445761
0.27483061 6.0946379 -1.494146 668 0 0 0 23.445761
-1.4126209 5.0502572 -3.4460475 201 0 0 0 23.445761
-1.4551823 9.4494524 0.74127978 13 0 0 0 23.445761
-1.3632722 4.6850743 -3.993397 194 0 0 0 23.445761
-0.33120883 6.0692229 -1.5561467 647 0 0 0 23.445761
0.37963662 9.0623159 -0.40922949 13 0 0 0 23.445761
-0.99473935 6.4118376 -1.0799398 570 0 0 0 23.445761
-0.20999227 4.7214718 -4.0338774 332 0 0 0 23.445761
-0.31766555 5.8786764 -1.8211461 755 0 0 0 23.445761
0.29179558 5.167037 -2.7656898 734 0 0 0 23.445761
-0.79502279 4.7525768 -4.2297649 166 0 0 0 23.445761
-1.3132644 4.2918019 -4.5561385 7 0 0 0 23.445761
-0.28495613 5.5836029 -3.0590217 299 0 0 0 23.445761
-0.23302616 4.9999385 -3.8436933 277 0 0 0 23.445761
-1.8137044 11.657582 3.9274213 6 0 0 0 23.445761
0.33262217 4.4590149 -3.7525542 497 0 0 0 23.445761
-0.91026938 5.714169 -2.8870487 246 0 0 0 23.445761
0.27529886 5.895309 -1.7592226 687 0 0 0 23.445761
0.27693588 5.7126045 -2.0196214 728 0 0 0 23.445761
-0.19186839 4.5119467 -4.2948518 281 0 0 0 23.445761
-1.59208 6.1323905 -1.4692158 487 0 0 0 23.445761
-1.4027188 5.090631 -3.0907552 280 0 0 0 23.445761
-3.1751585 12.080796 4.7195954 50 0 0 0 23.445761
-1.4078602 9.1525326 0.26504198 8 0 0 0 23.445761
-1.7419651 6.7946157 -0.56401104 386 0 0 0 23.445761
-0.29205391 5.5140042 -2.3307264 582 0 0 0 23.445761
-0.30492437 5.699326 -2.0796599 715 0 0 0 23.445761
-1.5500591 5.9272523 -1.7443554 622 0 0 0 23.445761
-0.2931979 5.6284957 -2.7226458 225 0 0 0 23.445761
-1.0728126 6.9479618 -0.474383 119 0 0 0 23.445761
-0.91103095 5.7645693 -2.5520196 230 0 0 0 23.445761
-0.35588852 6.4574461 -0.99537909 594 0 0 0 23.445761
-0.93660635 6.008749 -1.6363592 667 0 0 0 23.445761
0.28121006 5.5370507 -2.2764859 635 0 0 0 23.445761
0.34554979 4.2657218 -3.9986246 464 0 0 0 23.445761
0.30050921 7.0635052 -0.65803617 112 0 0 0 23.445761
-0.91050637 5.8142138 -1.901885 633 0 0 0 23.445761
-1.4040035 5.1626453 -2.7744172 560 0 0 0 23.445761
-0.83816957 5.1329994 -3.6804121 264 0 0 0 23.445761
-0.88374674 5.6172447 -2.1544216 584 0 0 0 23.445761
-1.3721274 8.8992529 -0.18007113 7 0 0 0 23.445761
-1.3926907 4.8858075 -3.7282512 238 0 0 0 23.445761
-1.0247917 6.6288514 -0.782875 473 0 0 0 23.445761
0.27893019 6.3117065 -1.2208792 623 0 0 0 23.445761
-0.25037909 5.19454 -3.5793986 289 0 0 0 23.445761
-0.96339041 6.2094889 -1.3648108 640 0 0 0 23.445761
-1.5102046 5.7332344 -2.0128348 548 0 0 0 23.445761
-0.86388493 5.3379607 -3.423157 255 0 0 0 23.445761
-1.6871125 6.5562105 -0.8802135 546 0 0 0 23.445761
-0.48968092 8.8198252 -0.068333171 13 0 0 0 23.445761
-0.81713492 4.9492078 -3.958601 219 0 0 0 23.445761
0.31973484 4.6281176 -3.4940984 570 0 0 0 23.445761
-2.3422751 9.1551065 -0.30766451 10 0 0 0 23.445761
-0.88776946 5.5351343 -3.1600618 254 0 0 0 23.445761
0.29961464 4.9915814 -3.0099938 617 0 0 0 23.445761
-1.3396271 4.4970083 -4.273736 179 0 0 0 23.445761
-0.34412411 6.264709 -1.2826827 617 0 0 0 23.445761
0.28529245 5.355032 -2.5246387 731 0 0 0 23.445761
-0.38415176 6.9025288 -0.38254946 283 0 0 0 23.445761
0.28143689 6.5003324 -0.92749745 600 0 0 0 23.445761
0.30831069 4.8090444 -3.2495818 647 0 0 0 23.445761
-1.6330055 6.3224096 -1.178449 557 0 0 0 23.445761
-0.30591753 6.2715888 -1.2837154 590 0 0 0 23.543297
-1.3594677 4.8826613 -3.7193015 195 0 0 0 23.543297
-1.335129 4.6955738 -3.9953108 215 0 0 0 23.543297
-1.4759351 5.7460537 -2.0141463 516 0 0 0 23.543297
-0.26985911 5.6992173 -2.0789621 722 0 0 0 23.543297
-1.4015011 5.2112293 -3.1597393 247 0 0 0 23.543297
-1.4044541 9.5075321 0.74496782 10 0 0 0 23.543297
-1.4370594 5.5456653 -2.2698936 557 0 0 0 23.543297
-2.2889524 9.1809425 -0.30810216 5 0 0 0 23.543297
-0.83098644 5.3423295 -3.4226167 256 0 0 0 23.543297
0.33747023 4.8021226 -3.2461927 646 0 0 0 23.543297
0.32122043 6.4965072 -0.92720318 632 0 0 0 23.543297
-1.3547361 9.1817675 0.26556239 6 0 0 0 23.543297
0.31814492 5.3531809 -2.5246387 685 0 0 0 23.543297
-0.8518104 5.5276098 -3.152612 281 0 0 0 23.543297
0.3483029 4.6284466 -3.4959195 628 0 0 0 23.543297
0.3303479 4.9913516 -3.0110373 613 0 0 0 23.543297
-1.6444478 6.5568261 -0.87886673 596 0 0 0 23.543297
-0.8719483 5.7456632 -2.5410376 256 0 0 0 23.543297
-0.23521979 5.3894567 -3.3187492 291 0 0 0 23.543297
-0.25080869 5.5878663 -3.0604787 279 0 0 0 23.543297
-0.25834468 5.518445 -2.3319125 573 0 0 0 23.543297
-0.80552608 5.1308193 -3.675168 254 0 0 0 23.543297
0.35949188 4.4508142 -3.7473726 522 0 0 0 23.543297
-1.3173506 8.9065161 -0.18004705 5 0 0 0 23.543297
0.31765285 6.3098764 -1.2208792 597 0 0 0 23.543297
-0.98366231 6.6320691 -0.78250986 500 0 0 0 23.543297
-1.5937023 6.3304038 -1.1780819 556 0 0 0 23.543297
-0.16370344 4.5000734 -4.2823749 271 0 0 0 23.543297
-0.31645367 6.4634528 -0.99601173 600 0 0 0 23.543297
-0.29391554 6.0701752 -1.5558922 650 0 0 0 23.543297
-1.5094033 5.9199052 -1.7393124 640 0 0 0 23.543297
0.31191483 5.9021044 -1.7618525 714 0 0 0 23.543297
-0.89858061 6.0067558 -1.6342293 679 0 0 0 23.543297
-1.6934947 6.7781072 -0.56161451 502 0 0 0 23.543297
-1.384666 5.0700707 -3.4538112 237 0 0 0 23.543297
0.67148131 13.670943 2.0679407 5 0 0 0 23.543297
-3.7789118 14.749087 5.7468476 16 0 0 0 23.543297
-1.0278251 6.9386277 -0.47321954 137 0 0 0 23.543297
-0.43525755 8.8166723 -0.068261966 17 0 0 0 23.543297
-1.402714 5.3583422 -2.5242777 614 0 0 0 23.543297
-0.25865656 5.6301889 -2.7226458 269 0 0 0 23.543297
-1.7414402 11.663795 3.9258523 15 0 0 0 23.543297
-0.92354977 6.2037005 -1.3621889 624 0 0 0 23.543297
0.31538638 5.5389047 -2.2780313 550 0 0 0 23.543297
-0.78589576 4.9487267 -3.954232 221 0 0 0 23.543297
-0.34208864 6.9107375 -0.38291368 222 0 0 0 23.543297
-0.76489782 4.7514586 -4.2244534 179 0 0 0 23.543297
-0.95421922 6.4100227 -1.0785782 593 0 0 0 23.543297
-0.2815887 5.8805146 -1.8211461 718 0 0 0 23.543297
-0.84884614 5.6197948 -2.1533391 526 0 0 0 23.543297
0.4336203 9.0258951 -0.40755674 14 0 0 0 23.543297
-0.18043293 4.7075477 -4.0208035 588 0 0 0 23.543297
-0.21791133 5.1820488 -3.5696721 265 0 0 0 23.543297
0.37240201 4.2714844 -4.0061827 451 0 0 0 23.543297
-0.87213665 5.8018517 -1.8959192 703 0 0 0 23.543297
0.34312692 7.046618 -0.65656459 113 0 0 0 23.543297
-1.3331126 4.5779018 -4.3435206 61 0 0 0 23.543297
0.62321413 12.158215 3.0920227 7 0 0 0 23.543297
-0.1988049 4.9145117 -3.7761674 587 0 0 0 23.543297
-1.5525181 6.1344991 -1.4673591 570 0 0 0 23.543297
0.31172946 5.7061019 -2.0179236 678 0 0 0 23.543297
-0.87478673 5.7170019 -2.8856919 262 0 0 0 23.543297
0.32322356 5.1607647 -2.7633016 707 0 0 0 23.543297
-1.3856435 5.2216134 -2.8019431 230 0 0 0 23.543297
0.31197655 6.0879946 -1.4929246 720 0 0 0 23.543297
-3.7570345 15.080063 0.23384124 4 0 0 0 23.543297
-0.69602388 4.426568 -4.381845 7 0 0 0 23.642879
-1.3987035 5.5372963 -2.262773 544 0 0 0 23.642879
-0.73458838 4.748672 -4.2178144 172 0 0 0 23.642879
-0.79732293 5.3415017 -3.4188352 267 0 0 0 23.642879
-0.20201819 5.3874078 -3.3166313 296 0 0 0 23.642879
-0.15166761 4.712348 -4.0240722 568 0 0 0 23.642879
-1.3755877 5.2430162 -3.174047 204 0 0 0 23.642879
-2.2436392 9.2404623 -0.30981621 5 0 0 0 23.642879
-1.650228 6.7815933 -0.56101537 446 0 0 0 23.642879
-1.3034179 4.6932869 -3.9863794 152 0 0 0 23.642879
-1.4399639 5.7522521 -2.0131626 545 0 0 0 23.642879
-1.353744 5.0792756 -3.4543657 229 0 0 0 23.642879
-0.83234429 5.7210712 -2.5276153 208 0 0 0 23.642879
-0.29950503 6.9087176 -0.38267088 279 0 0 0 23.642879
-3.6806402 14.741115 5.7348909 51 0 0 0 23.642879
-1.5127581 6.1354084 -1.4652703 520 0 0 0 23.642879
0.34845757 5.905808 -1.7636057 701 0 0 0 23.642879
-0.81724411 5.528439 -3.1501286 276 0 0 0 23.642879
-1.6670188 11.654523 3.9192619 12 0 0 0 23.642879
-1.3911335 5.3756166 -2.8812549 221 0 0 0 23.642879
-0.13611048 4.5017138 -4.2830682 305 0 0 0 23.642879
0.34954557 6.0898385 -1.4939017 656 0 0 0 23.642879
-1.3062013 4.5902414 -4.3475857 49 0 0 0 23.642879
-0.75445813 4.9465041 -3.9486146 229 0 0 0 23.642879
-0.2770009 6.4702058 -0.99680251 587 0 0 0 23.642879
-0.91348106 6.4060016 -1.076876 609 0 0 0 23.642879
-0.8604781 6.0035686 -1.6318333 730 0 0 0 23.642879
0.34662279 5.7022038 -2.0172446 659 0 0 0 23.642879
