# .PCD v0.7 - Point Cloud Data file format
VERSION 0.7
FIELDS x y z intensity normal_x normal_y normal_z curvature
SIZE 4 4 4 4 4 4 4 4
TYPE F F F F F F F F
COUNT 1 1 1 1 1 1 1 1
WIDTH 944
HEIGHT 1
VIEWPOINT 0 0 0 1 0 0 0
POINTS 944
DATA ascii
7.5167274 -5.1000805 -5.1781087 98 0 0 0 56.61824
3.4465342 -0.84615785 -2.9427581 242 0 0 0 56.61824
25.175919 -10.983282 0.28740096 27 0 0 0 56.61824
3.0044012 -0.70295161 -2.840467 294 0 0 0 56.61824
26.382811 -8.6707563 2.8189402 14 0 0 0 56.61824
4.164372 -1.6073105 -3.2498324 318 0 0 0 56.61824
7.3784828 -2.06604 -4.0903125 89 0 0 0 56.61824
11.945702 -8.0922298 -7.3042827 19 0 0 0 56.61824
6.7710743 -3.5888276 -4.4086165 106 0 0 0 56.61824
3.992789 -1.0210922 -3.0726833 327 0 0 0 56.61824
4.9967408 -1.9565717 -3.5076277 232 0 0 0 56.61824
23.979252 -13.172258 -3.5210238 30 0 0 0 56.61824
23.788019 -16.349207 -2.0795696 14 0 0 0 56.61824
5.7529101 -1.5700445 -3.5741744 63 0 0 0 56.61824
24.673748 -17.194136 2.2718551 14 0 0 0 56.61824
25.621902 -11.240427 1.663556 21 0 0 0 56.61824
23.801361 -12.894068 -7.6515121 17 0 0 0 56.61824
13.240143 -3.8753891 -5.6953621 26 0 0 0 56.61824
11.613473 -4.7185135 -5.7603846 28 0 0 0 56.61824
24.212961 -13.363048 -2.1953127 22 0 0 0 56.61824
23.514442 -16.108427 -3.4626431 17 0 0 0 56.61824
24.635084 -10.602389 -2.3352652 31 0 0 0 56.61824
25.156792 -7.923039 -3.8376696 35 0 0 0 56.61824
24.59761 -17.248375 3.759254 22 0 0 0 56.61824
25.839676 -8.370574 0.080258943 23 0 0 0 56.61824
8.5027561 -3.4144902 -4.7709713 59 0 0 0 56.61824
4.7277479 -1.2529131 -3.2765343 309 0 0 0 56.61824
5.6072454 -3.8120282 -4.3273363 152 0 0 0 56.61824
24.068174 -16.614502 -0.66196203 18 0 0 0 56.61824
24.837242 -7.7336187 -5.1086178 12 0 0 0 56.61824
23.2416 -15.874145 -4.8378596 18 0 0 0 56.61824
10.093596 -5.3710938 -5.8518891 40 0 0 0 56.61824
22.229898 -15.059926 -10.382536 29 0 0 0 56.61824
23.686951 -12.95485 -4.8329258 27 0 0 0 56.61824
24.871853 -13.865381 0.52124274 13 0 0 0 56.61824
24.159985 -10.248195 -4.9082155 32 0 0 0 56.61824
6.1729364 -2.450032 -3.8829415 164 0 0 0 56.61824
23.882751 -10.064916 -6.1782722 29 0 0 0 56.61824
24.603388 -7.5623221 -6.3900423 33 0 0 0 56.61824
24.400715 -10.431213 -3.6304221 29 0 0 0 56.61824
5.2999091 -2.7977021 -3.8566012 71 0 0 0 56.61824
24.990191 -14.012514 1.9188968 29 0 0 0 56.61824
22.699429 -15.396773 -9.0603638 10 0 0 0 56.61824
24.294828 -16.843931 0.77797538 13 0 0 0 56.61824
23.28433 -12.672443 -6.1026964 33 0 0 0 56.61824
24.472254 -13.580005 -0.85269219 28 0 0 0 56.61824
25.152065 -14.174336 3.3533998 19 0 0 0 56.61824
25.908157 -11.423921 3.0692823 15 0 0 0 56.61824
9.4838181 -2.7209911 -4.6538119 56 0 0 0 56.61824
24.340635 -7.3684988 -7.6700501 31 0 0 0 56.61824
26.214615 -8.5590839 1.4461731 17 0 0 0 56.61824
7.4035225 -2.1222322 -4.1141658 75 0 0 0 56.711937
6.2086906 -2.5086796 -3.9176583 167 0 0 0 56.711937
23.917889 -13.328715 -3.5298572 27 0 0 0 56.711937
8.5296574 -3.4864542 -4.8011026 57 0 0 0 56.711937
24.571892 -7.7170515 -6.4009633 39 0 0 0 56.711937
23.92277 -10.16713 -7.5700459 9 0 0 0 56.711937
4.7350597 -1.2861677 -3.289062 274 0 0 0 56.711937
24.14292 -10.415061 -4.9240432 27 0 0 0 56.711937
23.203531 -16.056576 -4.8559098 15 0 0 0 56.711937
26.35515 -8.8384228 2.8145528 18 0 0 0 56.711937
23.279518 -12.854786 -6.1280599 14 0 0 0 56.711937
24.496189 -17.398481 3.7539492 9 0 0 0 56.711937
25.133675 -11.146537 0.28123114 17 0 0 0 56.711937
11.997897 -8.2361574 -7.3710995 12 0 0 0 56.711937
23.131638 -12.602657 -10.361236 23 0 0 0 56.711937
24.831266 -10.936618 -1.0453886 26 0 0 0 56.711937
11.753177 -4.8596673 -5.8487468 31 0 0 0 56.711937
25.483614 -11.364004 1.652578 10 0 0 0 56.711937
4.1408772 -1.6278018 -3.2408042 300 0 0 0 56.711937
24.56164 -17.33736 2.2654138 22 0 0 0 56.711937
7.511313 -5.1646295 -5.1988144 72 0 0 0 56.711937
24.174395 -13.534039 -2.2052598 16 0 0 0 56.711937
24.03488 -16.807619 -0.66953307 17 0 0 0 56.711937
22.206661 -15.244302 -10.421394 13 0 0 0 56.711937
24.938362 -14.182239 1.9153014 21 0 0 0 56.711937
24.446762 -13.760454 -0.86077064 23 0 0 0 56.711937
23.848108 -10.222239 -6.1918621 29 0 0 0 56.711937
25.836647 -11.57919 3.0623765 23 0 0 0 56.711937
25.120378 -8.0798969 -3.8463924 32 0 0 0 56.711937
24.366882 -10.592609 -3.6413205 32 0 0 0 56.711937
26.349352 -8.7798395 1.4492581 7 0 0 0 56.711937
25.481817 -8.2863092 -2.566813 27 0 0 0 56.711937
6.7715092 -3.6428611 -4.4258733 129 0 0 0 56.711937
9.5679798 -2.8088393 -4.7071385 52 0 0 0 56.711937
25.117603 -14.355248 3.3540146 11 0 0 0 56.711937
3.0013778 -0.72190791 -2.8433383 283 0 0 0 56.711937
13.33943 -3.9933915 -5.7531166 21 0 0 0 56.711937
25.628557 -8.4091101 -1.2525553 28 0 0 0 56.711937
21.593519 -9.0961456 -8.1058826 11 0 0 0 56.711937
24.244921 -17.027514 0.77395111 25 0 0 0 56.711937
24.276831 -7.5114274 -7.6713133 26 0 0 0 56.711937
4.9915023 -1.9902072 -3.5144465 223 0 0 0 56.711937
22.660677 -15.596243 -7.5978203 12 0 0 0 56.711937
23.75176 -16.537655 -2.0908065 14 0 0 0 56.711937
25.809397 -8.5338783 0.073446132 27 0 0 0 56.711937
26.549826 -8.9465876 4.2355065 20 0 0 0 56.711937
10.14438 -5.4786696 -5.9043708 31 0 0 0 56.711937
3.9956429 -1.0481726 -3.0816183 342 0 0 0 56.711937
3.4419589 -0.86766034 -2.9449849 186 0 0 0 56.711937
24.601645 -10.765637 -2.3446453 28 0 0 0 56.711937
5.6166916 -3.869638 -4.3552194 130 0 0 0 56.711937
24.727484 -13.981823 0.51401889 30 0 0 0 56.711937
5.7298951 -1.6017336 -3.5679328 95 0 0 0 56.711937
24.792164 -7.8856034 -5.1160016 17 0 0 0 56.711937
5.3024058 -2.8411698 -3.8731985 55 0 0 0 56.711937
23.515697 -16.320494 -3.4831216 25 0 0 0 56.711937
22.176714 -15.425222 -10.457573 12 0 0 0 56.812286
24.148577 -13.712831 -2.2163603 26 0 0 0 56.812286
4.7238302 -1.3144622 -3.2886367 267 0 0 0 56.812286
23.730433 -13.177327 -9.1595316 16 0 0 0 56.812286
25.075512 -8.2340479 -3.8538446 28 0 0 0 56.812286
24.412237 -13.936522 -0.86842316 23 0 0 0 56.812286
24.764853 -8.0433168 -5.1271739 19 0 0 0 56.812286
25.788549 -8.7005129 0.066749103 26 0 0 0 56.812286
24.122068 -10.580845 -4.9392056 18 0 0 0 56.812286
21.817799 -6.792984 -8.1658211 8 0 0 0 56.812286
2.9847867 -0.73752993 -2.8332045 228 0 0 0 56.812286
24.190338 -7.6468859 -7.6654868 17 0 0 0 56.812286
5.7239718 -1.6381501 -3.5725746 89 0 0 0 56.812286
25.371189 -11.49813 1.6434499 22 0 0 0 56.812286
5.6022191 -3.9111946 -4.364625 126 0 0 0 56.812286
23.45929 -16.49371 -3.4950187 28 0 0 0 56.812286
24.211685 -17.223724 0.77064389 19 0 0 0 56.812286
25.722635 -11.714899 3.0507319 19 0 0 0 56.812286
23.251322 -16.300127 -4.8922844 10 0 0 0 56.812286
23.255558 -13.027489 -6.1485558 16 0 0 0 56.812286
24.361032 -10.766707 -3.6565003 21 0 0 0 56.812286
22.569017 -15.716167 -9.0962944 17 0 0 0 56.812286
24.408438 -17.558262 3.7510531 13 0 0 0 56.812286
23.974918 -16.982922 -0.67619026 26 0 0 0 56.812286
10.224622 -5.6037183 -5.9747252 26 0 0 0 56.812286
24.694582 -14.161052 0.50913876 28 0 0 0 56.812286
9.6514101 -2.8978148 -4.7604804 39 0 0 0 56.812286
24.88546 -14.351707 1.9118593 29 0 0 0 56.812286
11.883208 -4.9991813 -5.9329257 25 0 0 0 56.812286
26.520739 -9.1151018 4.2324467 11 0 0 0 56.812286
26.31411 -8.9451618 1.4433514 11 0 0 0 56.812286
4.0029345 -1.0765814 -3.0941691 311 0 0 0 56.812286
23.702759 -16.718122 -2.1008523 9 0 0 0 56.812286
7.4340606 -2.1805465 -4.1413398 80 0 0 0 56.812286
4.125515 -1.6513624 -3.2382905 288 0 0 0 56.812286
6.2192903 -2.5577221 -3.9365659 206 0 0 0 56.812286
25.106873 -14.55055 3.3580775 10 0 0 0 56.812286
23.695206 -13.214201 -7.6813684 11 0 0 0 56.812286
24.511757 -7.8627281 -6.4044995 26 0 0 0 56.812286
24.483673 -17.50465 2.2623518 18 0 0 0 56.812286
22.645811 -15.791174 -7.6307845 26 0 0 0 56.812286
23.852123 -13.482878 -3.5380228 27 0 0 0 56.812286
13.489834 -4.128684 -5.83358 19 0 0 0 56.812286
8.6082926 -3.5806246 -4.8610301 51 0 0 0 56.812286
5.318563 -2.8923798 -3.9001513 32 0 0 0 56.812286
7.538847 -5.2525778 -5.2429266 62 0 0 0 56.812286
4.9821897 -2.0222957 -3.5184796 230 0 0 0 56.812286
22.793848 -12.60087 -10.250246 8 0 0 0 56.812286
6.7685151 -3.6953893 -4.4410853 148 0 0 0 56.812286
3.4276404 -0.88665581 -2.9388144 164 0 0 0 56.812286
26.339645 -9.0104246 2.8116608 23 0 0 0 56.812286
21.533934 -9.2267437 -8.1106663 11 0 0 0 56.812286
25.586283 -8.5674 -1.2597289 24 0 0 0 56.812286
23.816051 -10.381009 -6.2062721 31 0 0 0 56.812286
4.4272876 -3.0994806 -3.8494253 23 0 0 0 56.812286
25.403038 -8.4315748 -2.5706615 21 0 0 0 56.812286
24.800774 -11.103174 -1.0532022 15 0 0 0 56.812286
25.088608 -11.308733 0.27517062 17 0 0 0 56.812286
24.577194 -10.933225 -2.354881 20 0 0 0 56.812286
25.580776 -11.837296 3.0358801 8 0 0 0 56.904961
23.405357 -16.621933 -4.9519444 11 0 0 0 56.904961
6.2779074 -2.6272464 -3.9866071 169 0 0 0 56.904961
24.065933 -10.731656 -4.9473662 31 0 0 0 56.904961
24.774563 -11.272382 -1.0613238 27 0 0 0 56.904961
22.632463 -15.988796 -7.6649427 29 0 0 0 56.904961
9.7703009 -2.9990618 -4.8319788 30 0 0 0 56.904961
23.398981 -13.237487 -7.6172438 11 0 0 0 56.904961
25.033403 -8.389328 -3.8619111 31 0 0 0 56.904961
7.5096259 -2.2529848 -4.194241 72 0 0 0 56.904961
21.812397 -6.9380517 -8.1861515 9 0 0 0 56.904961
25.077475 -14.736349 3.3597574 9 0 0 0 56.904961
22.626467 -12.690543 -10.216066 12 0 0 0 56.904961
4.0100193 -1.1051191 -3.1067295 365 0 0 0 56.904961
24.656006 -14.338027 0.50408036 15 0 0 0 56.904961
4.7267351 -1.3467537 -3.2983458 297 0 0 0 56.904961
5.5956612 -3.9585319 -4.3805695 114 0 0 0 56.904961
8.6363449 -3.6548676 -4.8925924 45 0 0 0 56.904961
5.3166642 -2.9341941 -3.9140186 20 0 0 0 56.904961
5.7325649 -1.6788881 -3.5865808 72 0 0 0 56.904961
25.329987 -8.5785522 -2.5752039 33 0 0 0 56.904961
4.4112673 -3.1293995 -3.8539553 22 0 0 0 56.904961
24.312319 -17.712526 3.7469487 14 0 0 0 56.904961
24.155769 -17.405109 0.76657116 12 0 0 0 56.904961
25.550541 -8.7282104 -1.2673216 24 0 0 0 56.904961
23.784666 -10.540647 -6.22121 24 0 0 0 56.904961
26.487724 -9.282794 4.2288995 15 0 0 0 56.904961
12.107764 -8.5335236 -7.5106359 11 0 0 0 56.904961
24.565165 -11.10719 -2.3665175 23 0 0 0 56.904961
20.520882 -14.462168 -9.7209139 4 0 0 0 56.904961
24.755116 -8.2072687 -5.1422815 9 0 0 0 56.904961
11.98105 -5.1272836 -6.0016308 23 0 0 0 56.904961
4.1360703 -1.6854081 -3.2566035 217 0 0 0 56.904961
23.209957 -13.188915 -6.1637077 20 0 0 0 56.904961
23.442007 -13.205977 -9.085289 14 0 0 0 56.904961
26.402826 -9.2106018 2.8171391 14 0 0 0 56.904961
23.929045 -17.169315 -0.68342364 20 0 0 0 56.904961
21.473518 -9.3570185 -8.1154871 13 0 0 0 56.904961
6.7651095 -3.7480228 -4.4563246 133 0 0 0 56.904961
25.318758 -11.659449 1.6381423 18 0 0 0 56.904961
24.831331 -14.521211 1.908329 18 0 0 0 56.904961
25.036972 -11.468441 0.26899856 27 0 0 0 56.904961
24.110167 -13.885463 -2.2265024 23 0 0 0 56.904961
7.5428772 -5.3250837 -5.2711201 85 0 0 0 56.904961
4.9865232 -2.0600719 -3.5324769 217 0 0 0 56.904961
24.473764 -8.0156031 -6.4141331 41 0 0 0 56.904961
24.391958 -14.121823 -0.8767519 29 0 0 0 56.904961
23.697788 -16.931183 -2.1151407 17 0 0 0 56.904961
2.9815524 -0.75639141 -2.8360648 156 0 0 0 56.904961
25.758064 -8.8644285 0.059998997 29 0 0 0 56.904961
22.491615 -7.2612462 -7.1446047 18 0 0 0 56.904961
26.368357 -9.1419573 1.4422412 8 0 0 0 56.904961
23.42095 -16.680763 -3.5099649 20 0 0 0 56.904961
10.283463 -5.7187443 -6.0332255 37 0 0 0 56.904961
13.572959 -4.2453184 -5.8852782 23 0 0 0 56.904961
23.182913 -16.421507 -6.363266 8 0 0 0 56.904961
3.4338939 -0.91100699 -2.950707 102 0 0 0 56.904961
22.470699 -15.853436 -9.1014957 19 0 0 0 56.904961
24.430326 -17.690502 2.2615387 10 0 0 0 56.904961
6.2797155 -2.6736751 -4.0004215 173 0 0 0 57.006847
8.7727089 -3.7764544 -4.9866047 35 0 0 0 57.006847
4.7381544 -1.3816894 -3.3142331 264 0 0 0 57.006847
7.5442224 -2.3140404 -4.224299 79 0 0 0 57.006847
23.663744 -17.124786 -2.1267147 15 0 0 0 57.006847
4.1344905 -1.7147347 -3.2653785 195 0 0 0 57.006847
4.0092449 -1.1316289 -3.1132319 302 0 0 0 57.006847
25.058798 -14.929228 3.3632166 13 0 0 0 57.006847
5.7793322 -1.7313339 -3.6250131 152 0 0 0 57.006847
26.464888 -9.4541788 4.2272625 13 0 0 0 57.006847
12.12185 -5.2759409 -6.0926437 19 0 0 0 57.006847
24.526657 -11.26963 -2.3755162 18 0 0 0 57.006847
23.263367 -10.306889 -8.8259573 7 0 0 0 57.006847
4.986752 -2.0963748 -3.5436845 211 0 0 0 57.006847
24.364971 -8.1448469 -6.4051399 12 0 0 0 57.006847
23.748745 -10.698607 -6.235064 22 0 0 0 57.006847
24.112818 -14.082623 -2.2404437 17 0 0 0 57.006847
24.581839 -14.494569 0.49856305 19 0 0 0 57.006847
7.5738268 -5.4174914 -5.318728 62 0 0 0 57.006847
3.4259791 -0.93166453 -2.9503276 63 0 0 0 57.006847
24.375744 -17.876152 2.2609582 12 0 0 0 57.006847
13.888108 -4.4375696 -6.0390339 26 0 0 0 57.006847
24.669107 -8.3458309 -5.1414657 13 0 0 0 57.006847
23.15354 -13.286312 -7.5692725 30 0 0 0 57.006847
22.596495 -16.17165 -7.6916671 28 0 0 0 57.006847
22.533318 -12.820917 -10.215512 13 0 0 0 57.006847
4.3832092 -3.150754 -3.8479049 19 0 0 0 57.006847
25.501446 -11.987806 3.028646 18 0 0 0 57.006847
25.285309 -8.7348919 -2.5826185 28 0 0 0 57.006847
9.778965 -3.0675402 -4.8487563 49 0 0 0 57.006847
23.714308 -10.596252 -7.5837994 7 0 0 0 57.006847
25.738867 -9.0324221 0.053389207 24 0 0 0 57.006847
24.353188 -14.297115 -0.88424951 25 0 0 0 57.006847
24.759077 -11.446973 -1.0698195 30 0 0 0 57.006847
23.346701 -16.842884 -3.5194228 18 0 0 0 57.006847
5.6037841 -4.0167031 -4.4084082 140 0 0 0 57.006847
22.394827 -16.006603 -9.1159372 17 0 0 0 57.006847
10.320402 -5.8229256 -6.0792856 28 0 0 0 57.006847
21.838301 -7.09373 -8.2185774 20 0 0 0 57.006847
24.793329 -14.700568 1.9062954 19 0 0 0 57.006847
23.86816 -17.345633 -0.69001561 21 0 0 0 57.006847
24.990395 -8.5442781 -3.8698447 25 0 0 0 57.006847
23.186972 -13.363806 -6.1850252 23 0 0 0 57.006847
24.109156 -10.927501 -4.9762235 13 0 0 0 57.006847
25.515736 -8.8894014 -1.2748781 30 0 0 0 57.006847
24.098661 -17.586275 0.76272887 18 0 0 0 57.006847
12.120397 -8.6549864 -7.5551429 15 0 0 0 57.006847
24.554646 -11.211393 -3.7188668 6 0 0 0 57.006847
22.109554 -15.785575 -10.528506 10 0 0 0 57.006847
23.007908 -13.147957 -8.9535217 12 0 0 0 57.006847
2.9746783 -0.77433574 -2.8354907 124 0 0 0 57.006847
24.997093 -11.633671 0.26311013 14 0 0 0 57.006847
25.268097 -11.821629 1.6331775 22 0 0 0 57.006847
6.7929773 -3.818532 -4.4926629 136 0 0 0 57.006847
25.223516 -11.987258 1.6285738 23 0 0 0 57.098751
26.289413 -9.4722691 1.4303621 12 0 0 0 57.098751
23.289383 -16.970673 -4.9818139 6 0 0 0 57.098751
25.487375 -9.0533438 -1.2828887 30 0 0 0 57.098751
23.342546 -17.056952 -3.5399652 9 0 0 0 57.098751
26.406038 -9.570941 2.8156323 19 0 0 0 57.098751
7.5640621 -2.371141 -4.2462974 69 0 0 0 57.098751
24.09547 -11.098912 -4.9936519 12 0 0 0 57.098751
24.097195 -17.80975 0.76043874 19 0 0 0 57.098751
26.42321 -9.6194372 4.2227488 17 0 0 0 57.098751
6.2614403 -2.711688 -4.0015035 148 0 0 0 57.098751
5.7709417 -1.7676427 -3.6286244 231 0 0 0 57.098751
24.314865 -18.058426 2.2597666 15 0 0 0 57.098751
23.825209 -17.536234 -0.69736522 29 0 0 0 57.098751
23.105295 -13.447352 -7.5863667 18 0 0 0 57.098751
22.559795 -16.355314 -7.7188201 22 0 0 0 57.098751
23.722311 -10.861491 -6.251821 20 0 0 0 57.098751
6.7961736 -3.8758419 -4.5129375 136 0 0 0 57.098751
23.163454 -13.539504 -6.2066998 21 0 0 0 57.098751
24.295897 -14.462406 -0.89122504 17 0 0 0 57.098751
25.724155 -9.2027245 0.046708323 18 0 0 0 57.098751
24.489656 -11.362402 -3.7257173 27 0 0 0 57.098751
7.5919399 -5.5018439 -5.3579173 80 0 0 0 57.098751
3.4105828 -0.95019984 -2.9434958 15 0 0 0 57.098751
25.031782 -15.11853 3.3656199 15 0 0 0 57.098751
24.649021 -8.5068264 -5.1547527 10 0 0 0 57.098751
3.0113523 -0.80391437 -2.8773603 52 0 0 0 57.098751
25.419342 -12.137156 3.0211184 20 0 0 0 57.098751
9.8283691 -3.1494837 -4.8862667 58 0 0 0 57.098751
24.753094 -14.879687 1.9040586 24 0 0 0 57.098751
24.221502 -8.2615948 -6.3871479 24 0 0 0 57.098751
4.002934 -1.1566184 -3.1155093 311 0 0 0 57.098751
23.94544 -8.0552273 -7.653863 6 0 0 0 57.098751
22.327032 -16.166182 -9.1343117 17 0 0 0 57.098751
21.805906 -7.231102 -8.229393 14 0 0 0 57.098751
23.574938 -10.707501 -7.5663643 28 0 0 0 57.098751
8.8081675 -3.8562298 -5.0233455 66 0 0 0 57.098751
5.6276841 -4.086946 -4.4493284 112 0 0 0 57.098751
4.7453508 -1.415634 -3.3273215 252 0 0 0 57.098751
22.452225 -12.958126 -10.220941 8 0 0 0 57.098751
22.839172 -13.238081 -8.9252787 15 0 0 0 57.098751
24.54566 -11.459558 -2.3904138 23 0 0 0 57.098751
12.157537 -5.3806615 -6.1311049 19 0 0 0 57.098751
23.222008 -10.459305 -8.8410444 12 0 0 0 57.098751
24.065828 -14.252047 -2.2499704 30 0 0 0 57.098751
4.1386166 -1.7466015 -3.2789323 158 0 0 0 57.098751
24.373783 -14.312375 -5.0921884 9 0 0 0 57.098751
23.844484 -17.477301 -2.158386 17 0 0 0 57.098751
24.953836 -8.7017689 -3.8790078 31 0 0 0 57.098751
24.558918 -14.682218 0.49390471 23 0 0 0 57.098751
24.728731 -11.615593 -1.0778116 19 0 0 0 57.098751
23.081161 -16.776819 -6.4022794 20 0 0 0 57.098751
24.966888 -11.804156 0.25722006 30 0 0 0 57.098751
25.244297 -8.8928213 -2.5905793 23 0 0 0 57.098751
10.325555 -5.9101458 -6.1070457 36 0 0 0 57.098751
22.046658 -15.946394 -10.550966 16 0 0 0 57.098751
4.9859405 -2.1324313 -3.5543594 211 0 0 0 57.098751
25.458973 -9.2174253 -1.2907996 23 0 0 0 57.201408
5.6177907 -4.1333022 -4.4635863 128 0 0 0 57.201408
23.170296 -10.607222 -8.8523359 18 0 0 0 57.201408
24.495855 -11.61796 -2.3984444 18 0 0 0 57.201408
22.741341 -13.368323 -8.9247789 23 0 0 0 57.201408
6.7742682 -3.9190824 -4.5165353 138 0 0 0 57.201408
24.157202 -11.306255 -5.0269699 38 0 0 0 57.201408
10.358487 -6.0141444 -6.1517339 28 0 0 0 57.201408
25.692427 -9.3671474 0.040168557 22 0 0 0 57.201408
24.39427 -11.498961 -3.7278087 9 0 0 0 57.201408
4.0071669 -1.1847539 -3.1262367 336 0 0 0 57.201408
7.6446118 -2.4481626 -4.3030586 70 0 0 0 57.201408
23.140438 -13.716311 -6.2286305 30 0 0 0 57.201408
23.491817 -10.843506 -7.5670514 28 0 0 0 57.201408
26.370852 -9.7385769 2.8112879 29 0 0 0 57.201408
4.7388864 -1.4456259 -3.3308115 250 0 0 0 57.201408
12.151906 -5.4677768 -6.148849 18 0 0 0 57.201408
23.027899 -13.591612 -7.5939145 31 0 0 0 57.201408
9.9697361 -3.2624578 -4.9703574 31 0 0 0 57.201408
26.387064 -9.7866726 4.219429 14 0 0 0 57.201408
25.196835 -12.161668 1.6253542 31 0 0 0 57.201408
24.026808 -17.983337 0.75637221 23 0 0 0 57.201408
6.2287965 -2.7433503 -3.9933467 168 0 0 0 57.201408
23.809818 -17.74827 -0.70535541 12 0 0 0 57.201408
24.133474 -8.396245 -6.3838377 40 0 0 0 57.201408
12.098637 -8.8672667 -7.6164885 15 0 0 0 57.201408
25.354351 -12.294381 3.0159087 13 0 0 0 57.201408
24.909836 -8.8566704 -3.8869948 30 0 0 0 57.201408
3.0393274 -0.83167547 -2.9110205 7 0 0 0 57.201408
4.1329203 -1.7744795 -3.2847219 91 0 0 0 57.201408
24.024616 -14.425363 -2.2599323 19 0 0 0 57.201408
22.37763 -13.099022 -10.229465 17 0 0 0 57.201408
23.699266 -11.026402 -6.2695856 21 0 0 0 57.201408
23.292904 -17.238995 -3.5535073 15 0 0 0 57.201408
24.268761 -18.252377 2.2603104 7 0 0 0 57.201408
8.8510761 -3.9401789 -5.0647159 55 0 0 0 57.201408
24.698244 -11.784513 -1.0856653 28 0 0 0 57.201408
23.915733 -8.2082214 -7.6670065 24 0 0 0 57.201408
24.513254 -8.6273851 -5.1436396 15 0 0 0 57.201408
21.800333 -7.3776422 -8.250596 20 0 0 0 57.201408
5.7713017 -1.8067307 -3.6379304 243 0 0 0 57.201408
24.25815 -14.639739 -0.89876568 25 0 0 0 57.201408
22.024847 -16.137844 -10.593513 11 0 0 0 57.201408
22.265141 -16.330536 -9.1552801 17 0 0 0 57.201408
22.977335 -16.916843 -6.4072852 18 0 0 0 57.201408
24.929319 -11.97147 0.25145736 29 0 0 0 57.201408
23.920231 -17.757002 -2.1804702 5 0 0 0 57.201408
24.515928 -14.858518 0.48911136 29 0 0 0 57.201408
4.9757257 -2.1645837 -3.5583601 238 0 0 0 57.201408
24.710011 -15.057593 1.9019173 23 0 0 0 57.201408
24.992495 -15.301058 3.3667746 16 0 0 0 57.201408
7.5813923 -5.5661521 -5.3770537 64 0 0 0 57.201408
22.543564 -16.555023 -7.7532525 15 0 0 0 57.201408
25.201431 -9.0500765 -2.598289 29 0 0 0 57.201408
31.344481 -18.662384 -6.5913506 12 0 0 0 57.201408
24.146214 -11.481153 -5.0454988 39 0 0 0 57.292801
25.156305 -12.330273 1.6212136 25 0 0 0 57.292801
6.2328658 -2.7912316 -4.0092125 179 0 0 0 57.292801
6.8086886 -3.9954007 -4.5584736 135 0 0 0 57.292801
4.0127168 -1.2134435 -3.1381891 284 0 0 0 57.292801
25.670815 -9.535923 0.033542324 27 0 0 0 57.292801
24.378428 -11.673435 -3.7424593 8 0 0 0 57.292801
4.9713817 -2.1993854 -3.5668113 182 0 0 0 57.292801
4.1299696 -1.8036351 -3.2929115 28 0 0 0 57.292801
24.916595 -12.151686 0.24579312 23 0 0 0 57.292801
24.497984 -15.05127 0.48464176 21 0 0 0 57.292801
25.288277 -12.451515 3.0105867 20 0 0 0 57.292801
24.088516 -8.545826 -6.3922915 39 0 0 0 57.292801
25.155643 -9.2066355 -2.6058779 29 0 0 0 57.292801
26.314026 -9.8986826 2.8046973 29 0 0 0 57.292801
22.956097 -13.739482 -7.6037903 26 0 0 0 57.292801
24.221579 -14.818903 -0.90656668 10 0 0 0 57.292801
24.240875 -18.461763 2.2624705 16 0 0 0 57.292801
24.680897 -11.960659 -1.094301 28 0 0 0 57.292801
7.5848942 -5.6413832 -5.4067502 70 0 0 0 57.292801
21.975191 -16.310251 -10.623539 9 0 0 0 57.292801
7.6651416 -2.5068533 -4.3260365 65 0 0 0 57.292801
24.195663 -14.607498 -5.1035867 12 0 0 0 57.292801
24.674038 -15.240996 1.9002546 27 0 0 0 57.292801
23.996538 -14.607687 -2.2714431 24 0 0 0 57.292801
22.207273 -16.498772 -9.1786394 22 0 0 0 57.292801
23.418257 -10.983892 -7.5712113 29 0 0 0 57.292801
24.373974 -14.773966 -3.7116892 5 0 0 0 57.292801
23.666212 -11.187406 -6.2851171 27 0 0 0 57.292801
21.785719 -7.5217056 -8.2688208 27 0 0 0 57.292801
8.9166031 -4.0353827 -5.1196928 38 0 0 0 57.292801
22.475346 -16.71788 -7.7704201 26 0 0 0 57.292801
24.955158 -15.486008 3.3682122 20 0 0 0 57.292801
24.407335 -8.7576866 -5.1390147 25 0 0 0 57.292801
5.7738237 -1.8466763 -3.6488173 286 0 0 0 57.292801
5.5617042 -4.1456113 -4.4409423 132 0 0 0 57.292801
23.271149 -17.443232 -3.5718014 17 0 0 0 57.292801
24.486208 -11.796242 -2.4107144 19 0 0 0 57.292801
26.345144 -9.9523478 4.2152867 21 0 0 0 57.292801
10.067247 -3.3629999 -5.0329695 35 0 0 0 57.292801
23.096165 -10.745034 -8.8554802 22 0 0 0 57.292801
23.094307 -13.880418 -6.2448101 22 0 0 0 57.292801
22.87096 -17.05518 -6.4120154 21 0 0 0 57.292801
24.002853 -18.193161 0.75354391 14 0 0 0 57.292801
23.873247 -8.3571558 -7.6764269 24 0 0 0 57.292801
23.200735 -17.34325 -5.0185685 19 0 0 0 57.292801
12.522437 -5.7273788 -6.3594213 19 0 0 0 57.292801
4.7314353 -1.4753464 -3.3337488 223 0 0 0 57.292801
22.306849 -13.242404 -10.240328 12 0 0 0 57.292801
24.824814 -8.9970274 -3.888726 22 0 0 0 57.292801
22.645111 -13.499407 -8.9253626 7 0 0 0 57.292801
10.402715 -6.1259866 -6.2038674 38 0 0 0 57.292801
25.425692 -9.380311 -1.2985988 27 0 0 0 57.292801
23.749718 -18.082094 -2.1954074 5 0 0 0 57.394432
22.781792 -17.20628 -6.421556 27 0 0 0 57.394432
10.123778 -3.4511619 -5.0752831 21 0 0 0 57.394432
10.450562 -6.2413321 -6.2587013 30 0 0 0 57.394432
22.596043 -13.658655 -8.9447384 20 0 0 0 57.394432
5.785821 -1.8899122 -3.6659305 263 0 0 0 57.394432
24.752073 -9.1413431 -3.8923504 23 0 0 0 57.394432
12.408706 -9.3322802 -7.8922415 21 0 0 0 57.394432
23.372526 -11.137332 -7.5845132 15 0 0 0 57.394432
24.470228 -15.238871 0.48022413 15 0 0 0 57.394432
23.975788 -18.401943 0.75091463 12 0 0 0 57.394432
24.877604 -12.319568 0.24009264 19 0 0 0 57.394432
26.02652 -9.9144306 1.4057144 25 0 0 0 57.394432
23.049469 -10.895598 -8.8693333 16 0 0 0 57.394432
26.328108 -10.12756 4.2154121 9 0 0 0 57.394432
5.5908604 -4.221571 -4.4872456 116 0 0 0 57.394432
24.457491 -11.965927 -2.4210212 29 0 0 0 57.394432
6.8216577 -4.0599408 -4.5862584 135 0 0 0 57.394432
24.349625 -8.9047623 -5.1446075 24 0 0 0 57.394432
24.940166 -15.685637 3.3730254 15 0 0 0 57.394432
25.080982 -9.3523865 -2.6103594 17 0 0 0 57.394432
23.607533 -8.3129711 -8.9901495 13 0 0 0 57.394432
25.64069 -9.7017517 0.027063882 28 0 0 0 57.394432
23.977509 -11.580607 -5.0307493 14 0 0 0 57.394432
25.248007 -12.621405 3.0086102 11 0 0 0 57.394432
26.242355 -10.052877 2.7968063 13 0 0 0 57.394432
12.472542 -5.7975874 -6.3557162 18 0 0 0 57.394432
25.385832 -9.5408497 -1.3059521 20 0 0 0 57.394432
6.2358174 -2.8389189 -4.0245314 192 0 0 0 57.394432
23.614637 -11.33991 -6.2957783 20 0 0 0 57.394432
7.6885858 -2.5670035 -4.3508968 65 0 0 0 57.394432
4.1972938 -1.8641208 -3.3582776 5 0 0 0 57.394432
23.225761 -17.630917 -3.5864053 15 0 0 0 57.394432
22.489206 -16.943037 -7.8163762 26 0 0 0 57.394432
23.847919 -8.5122356 -7.6915507 25 0 0 0 57.394432
24.059111 -8.7010155 -6.4049993 30 0 0 0 57.394432
23.080406 -14.064649 -6.2698808 14 0 0 0 57.394432
24.649864 -12.130678 -1.1021868 24 0 0 0 57.394432
22.139967 -16.660599 -9.1982784 13 0 0 0 57.394432
4.0043883 -1.2380202 -3.1392279 280 0 0 0 57.394432
22.245613 -13.391618 -10.255776 15 0 0 0 57.394432
7.5947146 -5.7220902 -5.4413762 68 0 0 0 57.394432
22.885101 -13.887913 -7.6140013 26 0 0 0 57.394432
23.08209 -17.474947 -5.0209556 19 0 0 0 57.394432
4.7285323 -1.5065477 -3.3400452 205 0 0 0 57.394432
24.146713 -18.621328 2.258913 12 0 0 0 57.394432
25.14246 -12.512409 1.6190054 21 0 0 0 57.394432
14.459714 -5.0143447 -6.3591561 18 0 0 0 57.394432
8.9306946 -4.1082606 -5.1452208 50 0 0 0 57.394432
24.617409 -15.412123 1.8973364 24 0 0 0 57.394432
24.118748 -14.762409 -5.1119876 21 0 0 0 57.394432
21.922882 -16.481516 -10.652605 17 0 0 0 57.394432
4.9637766 -2.2328622 -3.5730145 196 0 0 0 57.394432
23.960453 -14.785863 -2.2820916 15 0 0 0 57.394432
23.073311 -14.254432 -6.2973423 19 0 0 0 57.487873
23.169399 -17.811548 -3.5996623 25 0 0 0 57.487873
23.575119 -11.498685 -6.3100367 19 0 0 0 57.487873
24.613127 -12.29867 -1.109948 26 0 0 0 57.487873
22.124233 -16.862518 -9.2401972 22 0 0 0 57.487873
7.7198749 -2.6303821 -4.3805599 68 0 0 0 57.487873
12.585347 -5.9444618 -6.4360542 18 0 0 0 57.487873
24.02866 -8.8562613 -6.4177561 27 0 0 0 57.487873
10.538346 -6.3823276 -6.33846 23 0 0 0 57.487873
6.8436732 -4.13059 -4.6206408 126 0 0 0 57.487873
25.609432 -9.8677235 0.020529205 21 0 0 0 57.487873
24.300556 -12.001876 -3.7648449 19 0 0 0 57.487873
4.9915175 -2.2825963 -3.6052783 135 0 0 0 57.487873
22.537724 -13.812928 -8.9609833 23 0 0 0 57.487873
6.2352796 -2.8853085 -4.0378304 218 0 0 0 57.487873
22.716324 -17.375971 -6.4382806 22 0 0 0 57.487873
22.98727 -11.039117 -8.8776369 17 0 0 0 57.487873
26.284056 -10.293022 4.2113709 11 0 0 0 57.487873
5.6039081 -4.2863269 -4.5210953 107 0 0 0 57.487873
5.7910132 -1.9312075 -3.6788936 278 0 0 0 57.487873
20.055616 -15.271925 -11.283083 6 0 0 0 57.487873
24.91519 -15.880491 3.3765867 18 0 0 0 57.487873
23.559441 -8.4585686 -8.9982443 24 0 0 0 57.487873
23.950422 -11.748189 -5.0461702 22 0 0 0 57.487873
3.9989402 -1.2635006 -3.1426935 282 0 0 0 57.487873
23.824234 -8.6683826 -7.7076001 21 0 0 0 57.487873
24.388012 -15.191428 -3.7535329 22 0 0 0 57.487873
24.65715 -9.2772169 -3.8926091 22 0 0 0 57.487873
24.294651 -9.0529394 -5.151021 34 0 0 0 57.487873
23.266159 -11.261869 -7.5783677 31 0 0 0 57.487873
25.340235 -9.6996098 -1.3131069 27 0 0 0 57.487873
8.99786 -4.2065582 -5.2020969 49 0 0 0 57.487873
22.813068 -14.036067 -7.6242986 14 0 0 0 57.487873
25.042633 -9.5118399 -2.6188204 40 0 0 0 57.487873
24.446272 -12.145134 -2.4333048 23 0 0 0 57.487873
22.451263 -17.131086 -7.8450022 21 0 0 0 57.487873
10.164239 -3.5348246 -5.1098704 39 0 0 0 57.487873
4.7285562 -1.5387943 -3.3486071 228 0 0 0 57.487873
26.187332 -10.213624 2.7907324 19 0 0 0 57.487873
7.6037869 -5.8031311 -5.4760561 73 0 0 0 57.487873
24.06711 -18.792873 2.2566838 13 0 0 0 57.487873
23.894064 -18.57012 0.74655843 16 0 0 0 57.487873
25.930988 -10.058097 1.3972448 26 0 0 0 57.487873
23.01264 -17.644295 -5.0344777 18 0 0 0 57.487873
25.188787 -12.78244 3.0044577 15 0 0 0 57.487873
22.198387 -13.549829 -10.27832 10 0 0 0 57.487873
25.144178 -12.703549 1.6177689 25 0 0 0 57.487873
23.937361 -14.973251 -2.2942495 26 0 0 0 57.487873
24.592377 -15.604136 1.8968017 23 0 0 0 57.487873
23.770731 -14.749526 -5.0625157 9 0 0 0 57.487873
21.975203 -16.73348 -10.733781 14 0 0 0 57.487873
23.504328 -8.6015854 -9.0038328 25 0 0 0 57.58976
23.909067 -11.90921 -5.0586314 26 0 0 0 57.58976
24.554541 -15.643267 -0.9474054 10 0 0 0 57.58976
23.959827 -18.94293 2.2522292 16 0 0 0 57.58976
24.001804 -9.0130892 -6.4316149 29 0 0 0 57.58976
5.2731323 -3.216326 -3.9944053 27 0 0 0 57.58976
7.6025825 -5.8771067 -5.5036736 67 0 0 0 57.58976
22.202402 -17.123178 -10.902086 13 0 0 0 57.58976
22.392151 -17.303949 -7.8664269 21 0 0 0 57.58976
22.641258 -17.538868 -6.4523559 34 0 0 0 57.58976
5.8088498 -1.9770488 -3.7001774 238 0 0 0 57.58976
5.0158176 -2.3313627 -3.6353116 85 0 0 0 57.58976
3.9986391 -1.2906872 -3.1503818 230 0 0 0 57.58976
4.7315054 -1.5721509 -3.3594074 230 0 0 0 57.58976
22.755672 -14.193472 -7.6396403 17 0 0 0 57.58976
9.0801277 -4.3134193 -5.2683067 40 0 0 0 57.58976
6.8459401 -4.1899624 -4.6418705 134 0 0 0 57.58976
22.578955 -14.029393 -9.0173817 24 0 0 0 57.58976
23.160364 -18.029827 -3.6203723 22 0 0 0 57.58976
23.028528 -14.421843 -6.31462 24 0 0 0 57.58976
23.486717 -11.633602 -6.3111877 17 0 0 0 57.58976
25.277887 -9.8518572 -1.3192736 24 0 0 0 57.58976
25.872822 -10.215836 1.3909403 24 0 0 0 57.58976
26.122133 -10.370202 2.783834 24 0 0 0 57.58976
22.942873 -17.813961 -5.0479512 20 0 0 0 57.58976
19.953051 -15.389147 -11.283626 10 0 0 0 57.58976
24.916094 -9.6372976 -2.6178465 16 0 0 0 57.58976
23.655045 -18.468222 -2.2177284 17 0 0 0 57.58976
24.561556 -9.4121695 -3.8927088 38 0 0 0 57.58976
7.7589803 -2.6971297 -4.4149799 71 0 0 0 57.58976
23.229809 -11.420169 -7.5952511 24 0 0 0 57.58976
24.148659 -15.247065 -3.7362185 14 0 0 0 57.58976
24.524885 -15.769789 1.893332 12 0 0 0 57.58976
23.928118 -15.170382 -2.3077166 24 0 0 0 57.58976
10.246553 -3.6341858 -5.1660547 33 0 0 0 57.58976
24.394728 -12.304786 -2.4414678 14 0 0 0 57.58976
12.722159 -6.1050816 -6.5294738 17 0 0 0 57.58976
25.155243 -12.900459 1.6173469 17 0 0 0 57.58976
23.549644 -14.81195 -5.0398469 22 0 0 0 57.58976
24.223722 -12.147788 -3.7702127 19 0 0 0 57.58976
24.247089 -9.2038183 -5.1590681 35 0 0 0 57.58976
10.645233 -6.5371742 -6.4306183 30 0 0 0 57.58976
23.860012 -18.776148 0.74388725 17 0 0 0 57.58976
24.902224 -16.084044 3.3821311 15 0 0 0 57.58976
22.998903 -11.218657 -8.9148655 7 0 0 0 57.58976
6.2561984 -2.9420452 -4.065413 187 0 0 0 57.58976
5.602447 -4.3406386 -4.5434842 108 0 0 0 57.58976
25.178274 -12.850408 0.23166721 6 0 0 0 57.58976
23.800482 -8.8248329 -7.7238255 23 0 0 0 57.58976
26.248213 -10.461771 4.2089372 11 0 0 0 57.58976
25.140995 -12.949404 3.001941 16 0 0 0 57.58976
22.18255 -13.727994 -10.315829 9 0 0 0 57.58976
24.578009 -12.467877 -1.1176771 18 0 0 0 57.58976
25.563204 -10.028033 0.014140056 23 0 0 0 57.58976
22.076166 -17.041077 -9.268939 13 0 0 0 57.58976
25.206369 -13.119837 1.6194042 34 0 0 0 57.681664
24.353573 -12.470318 -2.4509106 18 0 0 0 57.681664
7.785933 -2.7603526 -4.442759 71 0 0 0 57.681664
22.034836 -17.22617 -9.3013334 20 0 0 0 57.681664
23.434803 -11.786758 -6.3225546 16 0 0 0 57.681664
24.145042 -12.292903 -3.7755289 23 0 0 0 57.681664
23.153288 -18.251858 -3.6418955 13 0 0 0 57.681664
23.799952 -18.963316 0.74030524 6 0 0 0 57.681664
24.219557 -9.3627157 -5.1717052 30 0 0 0 57.681664
24.868456 -16.275723 3.3849299 17 0 0 0 57.681664
10.663861 -6.6396461 -6.4699349 22 0 0 0 57.681664
24.79167 -9.7628231 -2.6171989 27 0 0 0 57.681664
25.517752 -10.189078 0.0076757916 24 0 0 0 57.681664
4.7482772 -1.610381 -3.3803861 248 0 0 0 57.681664
22.706041 -14.35644 -7.6581388 27 0 0 0 57.681664
23.886221 -15.348178 -2.3182824 17 0 0 0 57.681664
24.445293 -15.928317 1.8888981 25 0 0 0 57.681664
23.208611 -11.586677 -7.6176157 19 0 0 0 57.681664
23.820919 -15.243867 -3.7050462 16 0 0 0 57.681664
25.816391 -10.374563 1.3847121 20 0 0 0 57.681664
23.897871 -18.967216 -0.75195301 12 0 0 0 57.681664
24.474964 -15.802173 -0.95370978 10 0 0 0 57.681664
9.0936995 -4.3888035 -5.2948484 33 0 0 0 57.681664
26.0716 -10.53293 2.7785203 20 0 0 0 57.681664
24.548752 -12.640942 -1.1258544 21 0 0 0 57.681664
10.28983 -3.720902 -5.202848 36 0 0 0 57.681664
22.555796 -14.20761 -9.0487661 23 0 0 0 57.681664
5.3086214 -3.2833042 -4.0389137 47 0 0 0 57.681664
25.101698 -13.121544 3.0004592 12 0 0 0 57.681664
21.999929 -13.802835 -10.27592 10 0 0 0 57.681664
22.864014 -17.977463 -5.0598636 18 0 0 0 57.681664
23.466291 -14.960125 -5.0470891 11 0 0 0 57.681664
22.979168 -14.587255 -6.3311205 28 0 0 0 57.681664
5.8053675 -2.0159009 -3.7079279 223 0 0 0 57.681664
23.861584 -19.100679 2.2485518 18 0 0 0 57.681664
7.5870667 -5.940619 -5.5213466 93 0 0 0 57.681664
22.123718 -17.280725 -10.921129 15 0 0 0 57.681664
23.969339 -9.1682987 -6.4443202 30 0 0 0 57.681664
12.45192 -9.731472 -8.0442839 21 0 0 0 57.681664
22.323292 -17.470285 -7.8850541 28 0 0 0 57.681664
25.22105 -10.00646 -1.3258548 27 0 0 0 57.681664
22.95245 -11.37076 -8.9300594 12 0 0 0 57.681664
23.76223 -8.9763441 -7.7357297 20 0 0 0 57.681664
4.0041876 -1.3199109 -3.1629303 232 0 0 0 57.681664
24.526897 -9.5705385 -3.9027734 30 0 0 0 57.681664
6.8359623 -4.2422414 -4.6550703 112 0 0 0 57.681664
23.540482 -18.610201 -2.2227283 16 0 0 0 57.681664
23.842888 -12.058321 -5.0661259 25 0 0 0 57.681664
22.612505 -17.738909 -6.4803123 18 0 0 0 57.681664
6.2975593 -3.009151 -4.1068482 154 0 0 0 57.681664
19.932369 -15.570262 -11.331471 7 0 0 0 57.681664
24.735918 -16.034918 0.47316152 7 0 0 0 57.681664
5.5833192 -4.3816342 -4.5517778 94 0 0 0 57.681664
26.214872 -10.632191 4.2070041 12 0 0 0 57.681664
4.9870067 -2.3556383 -3.6265624 53 0 0 0 57.681664
24.642731 -16.187029 0.46778643 15 0 0 0 57.784576
23.861546 -15.537824 -2.3304369 21 0 0 0 57.784576
23.383724 -11.9405 -6.3341994 19 0 0 0 57.784576
25.153454 -13.285979 1.6151881 23 0 0 0 57.784576
12.848994 -6.3616648 -6.6425543 16 0 0 0 57.784576
21.893436 -13.924297 -10.271574 6 0 0 0 57.784576
24.470589 -16.156055 1.8927598 8 0 0 0 57.784576
7.8264585 -2.8290889 -4.4786329 69 0 0 0 57.784576
23.094097 -18.434103 -3.6550994 23 0 0 0 57.784576
23.775406 -19.105947 -0.75662833 16 0 0 0 57.784576
25.770168 -10.537288 1.3792448 26 0 0 0 57.784576
23.765921 -9.1441221 -7.761548 28 0 0 0 57.784576
4.0080285 -1.348758 -3.1742487 204 0 0 0 57.784576
12.538479 -9.9245129 -8.143507 17 0 0 0 57.784576
6.317472 -3.0667539 -4.1344428 127 0 0 0 57.784576
22.339516 -17.686199 -9.4815416 12 0 0 0 57.784576
28.674755 -14.425006 -11.209517 12 0 0 0 57.784576
24.475674 -9.7224846 -3.9101565 32 0 0 0 57.784576
4.7569671 -1.6461847 -3.3957012 282 0 0 0 57.784576
24.515747 -12.812537 -1.1337095 27 0 0 0 57.784576
10.699694 -6.7539639 -6.5202236 27 0 0 0 57.784576
22.977898 -14.784112 -6.3610826 14 0 0 0 57.784576
23.803839 -12.221304 -5.0794301 25 0 0 0 57.784576
22.572365 -17.931274 -6.5051312 21 0 0 0 57.784576
19.845247 -15.700234 -11.341748 12 0 0 0 57.784576
22.08646 -17.471437 -10.961012 14 0 0 0 57.784576
22.835028 -18.181036 -5.082902 17 0 0 0 57.784576
23.40444 -15.12213 -5.0589442 20 0 0 0 57.784576
23.940466 -9.3251085 -6.4580989 34 0 0 0 57.784576
5.575767 -4.4319692 -4.5697966 72 0 0 0 57.784576
24.859915 -16.4849 3.3915539 9 0 0 0 57.784576
6.8468285 -4.3078914 -4.6828475 108 0 0 0 57.784576
26.033947 -10.700847 2.774842 24 0 0 0 57.784576
4.9536133 -2.3775029 -3.6144366 22 0 0 0 57.784576
26.170456 -10.79816 4.2036424 11 0 0 0 57.784576
23.459478 -18.778723 -2.2307327 23 0 0 0 57.784576
25.458397 -10.34446 0.0014030669 30 0 0 0 57.784576
24.730452 -9.9125824 -2.623204 21 0 0 0 57.784576
24.187418 -9.5200615 -5.1834016 31 0 0 0 57.784576
5.8056645 -2.0562184 -3.718255 196 0 0 0 57.784576
21.808508 -8.2851095 -8.4018097 8 0 0 0 57.784576
24.070875 -12.440098 -3.7814691 32 0 0 0 57.784576
25.129086 -10.146713 -1.330394 17 0 0 0 57.784576
24.296391 -12.627833 -2.458611 30 0 0 0 57.784576
22.570501 -14.410969 -9.0957689 22 0 0 0 57.784576
5.2874932 -3.3157785 -4.0400987 59 0 0 0 57.784576
23.698187 -19.117609 0.73581499 18 0 0 0 57.784576
23.708027 -15.375726 -3.7072899 15 0 0 0 57.784576
23.219702 -11.770184 -7.6508579 30 0 0 0 57.784576
9.2043295 -4.5123668 -5.378881 25 0 0 0 57.784576
23.746189 -19.244522 2.2436666 22 0 0 0 57.784576
10.3519 -3.81545 -5.2495618 38 0 0 0 57.784576
22.741179 -14.574227 -7.7056437 11 0 0 0 57.784576
7.5697484 -6.0031071 -5.5379305 69 0 0 0 57.784576
22.277536 -17.655495 -7.9120331 16 0 0 0 57.784576
23.679874 -19.266815 -0.7624681 18 0 0 0 57.874687
23.622438 -15.525461 -3.7141755 16 0 0 0 57.874687
24.308681 -16.115896 -0.96581995 22 0 0 0 57.874687
19.878138 -15.926654 -11.422006 3 0 0 0 57.874687
23.926706 -9.4884815 -6.4764032 35 0 0 0 57.874687
5.2781429 -3.3557343 -4.0506401 87 0 0 0 57.874687
22.011902 -17.633875 -10.983285 15 0 0 0 57.874687
7.572824 -6.0823932 -5.5701141 70 0 0 0 57.874687
22.517862 -18.071684 -8.0425272 10 0 0 0 57.874687
22.538143 -18.130043 -6.5324068 22 0 0 0 57.874687
23.40888 -18.972876 -2.2420654 12 0 0 0 57.874687
6.3307133 -3.1216779 -4.1579938 147 0 0 0 57.874687
28.589462 -14.60252 -11.218773 12 0 0 0 57.874687
10.448582 -3.9242384 -5.3145418 37 0 0 0 57.874687
24.388506 -16.314476 1.8883704 12 0 0 0 57.874687
12.881156 -6.4766321 -6.683742 23 0 0 0 57.874687
25.098436 -13.451754 1.6107599 9 0 0 0 57.874687
24.256567 -12.795071 -2.4683688 23 0 0 0 57.874687
24.031645 -12.605883 -3.7932782 11 0 0 0 57.874687
23.666481 -19.329769 0.73319554 14 0 0 0 57.874687
24.163269 -9.6811705 -5.1971779 27 0 0 0 57.874687
23.817825 -15.716406 -2.3410552 21 0 0 0 57.874687
10.767342 -6.8900194 -6.5909014 21 0 0 0 57.874687
24.80587 -16.665482 3.3920281 20 0 0 0 57.874687
25.278933 -13.605113 3.0284681 10 0 0 0 57.874687
23.212242 -11.945596 -7.6785936 20 0 0 0 57.874687
23.738316 -12.371253 -5.0874262 30 0 0 0 57.874687
5.8112807 -2.0986502 -3.7322619 185 0 0 0 57.874687
24.44359 -9.8824997 -3.9209085 22 0 0 0 57.874687
7.8606253 -2.8963099 -4.5112171 78 0 0 0 57.874687
24.491142 -12.989564 -1.142192 34 0 0 0 57.874687
4.0154114 -1.3789904 -3.1886184 210 0 0 0 57.874687
26.002451 -10.872055 2.7718167 18 0 0 0 57.874687
25.410007 -10.504711 -0.0049941796 34 0 0 0 57.874687
22.315763 -17.891487 -9.5235023 18 0 0 0 57.874687
23.320314 -12.088381 -6.3429132 21 0 0 0 57.874687
21.881445 -14.106455 -10.312478 7 0 0 0 57.874687
24.676527 -10.065543 -2.6302037 33 0 0 0 57.874687
23.09511 -18.666359 -3.6784801 16 0 0 0 57.874687
22.978296 -14.87061 -9.3036156 6 0 0 0 57.874687
22.771126 -14.79099 -7.7522655 14 0 0 0 57.874687
9.1815968 -4.5716867 -5.3848619 35 0 0 0 57.874687
25.720968 -10.699333 1.3735672 20 0 0 0 57.874687
24.558439 -16.345491 0.46239823 25 0 0 0 57.874687
5.5658016 -4.4807892 -4.5862422 58 0 0 0 57.874687
26.144033 -10.97233 4.203218 9 0 0 0 57.874687
25.046642 -13.36229 0.21447055 5 0 0 0 57.874687
23.346281 -15.287323 -5.0720663 27 0 0 0 57.874687
4.7700438 -1.6838046 -3.4144311 243 0 0 0 57.874687
21.765125 -8.4216042 -8.4110661 11 0 0 0 57.874687
22.973303 -14.98056 -6.3907962 10 0 0 0 57.874687
25.007614 -10.274673 -1.3334496 30 0 0 0 57.874687
22.806532 -18.386921 -5.1067085 18 0 0 0 57.874687
6.8578262 -4.3742986 -4.711195 117 0 0 0 57.874687
23.550093 -15.68389 -3.7229939 32 0 0 0 57.978622
23.978308 -12.764495 -3.8027461 26 0 0 0 57.978622
6.9030995 -4.4634957 -4.7637196 93 0 0 0 57.978622
24.165632 -16.232718 -0.96921831 23 0 0 0 57.978622
7.5954199 -6.1783385 -5.6172199 72 0 0 0 57.978622
25.037207 -13.6142 1.6062636 15 0 0 0 57.978622
7.9246979 -2.975486 -4.5614605 64 0 0 0 57.978622
23.715387 -12.543666 -5.1045914 14 0 0 0 57.978622
25.307255 -10.642005 -0.011078623 19 0 0 0 57.978622
5.8198142 -2.1424162 -3.748322 187 0 0 0 57.978622
22.545551 -18.321972 -8.0975323 7 0 0 0 57.978622
25.686495 -10.867496 1.3689193 30 0 0 0 57.978622
5.2966619 -3.4138269 -4.0830526 119 0 0 0 57.978622
4.7867308 -1.7230592 -3.4359629 230 0 0 0 57.978622
24.147234 -9.8458872 -5.2127419 22 0 0 0 57.978622
28.51663 -14.786393 -11.233031 12 0 0 0 57.978622
23.323063 -19.139082 -2.2497244 13 0 0 0 57.978622
24.464201 -16.579699 1.8963783 10 0 0 0 57.978622
26.095642 -11.137295 4.1996617 6 0 0 0 57.978622
5.5385752 -4.515914 -4.5884542 43 0 0 0 57.978622
22.267687 -18.078564 -9.5553083 16 0 0 0 57.978622
25.96262 -11.039838 2.7682312 14 0 0 0 57.978622
22.002916 -17.849995 -11.03874 4 0 0 0 57.978622
13.003633 -6.6387696 -6.7726512 17 0 0 0 57.978622
24.782759 -16.867498 3.3971653 9 0 0 0 57.978622
12.626226 -10.250402 -8.28971 16 0 0 0 57.978622
23.301069 -15.461465 -5.0879636 19 0 0 0 57.978622
9.2326565 -4.6683779 -5.4347663 36 0 0 0 57.978622
23.300816 -12.259336 -6.3636761 25 0 0 0 57.978622
24.457508 -13.162272 -1.1500499 23 0 0 0 57.978622
23.03981 -18.854527 -3.6927094 15 0 0 0 57.978622
23.787888 -15.904796 -2.3528798 22 0 0 0 57.978622
19.783085 -16.051836 -11.4289 15 0 0 0 57.978622
23.598898 -19.439707 -0.76846218 15 0 0 0 57.978622
24.228031 -12.968664 -2.4791594 23 0 0 0 57.978622
24.94644 -10.426725 -1.3396168 21 0 0 0 57.978622
23.938904 -9.6627922 -6.5019007 22 0 0 0 57.978622
23.583187 -19.500586 0.72944677 7 0 0 0 57.978622
22.854366 -14.990101 -9.2960148 16 0 0 0 57.978622
10.832279 -7.026197 -6.6605682 18 0 0 0 57.978622
24.448425 -16.486494 0.45690218 20 0 0 0 57.978622
24.641062 -10.226021 -2.6390927 36 0 0 0 57.978622
22.519913 -18.343111 -6.5644569 13 0 0 0 57.978622
6.3450799 -3.177659 -4.1825199 167 0 0 0 57.978622
23.965988 -12.519486 -7.9607282 27 0 0 0 57.978622
22.708691 -14.948857 -7.7674432 14 0 0 0 57.978622
24.406906 -10.040799 -3.930871 36 0 0 0 57.978622
25.248508 -13.785656 3.0287809 20 0 0 0 57.978622
10.624293 -4.0649519 -5.4206557 31 0 0 0 57.978622
21.403034 -13.985096 -10.131964 4 0 0 0 57.978622
22.83074 -18.637199 -5.1424837 8 0 0 0 57.978622
23.003054 -15.200994 -6.4303031 14 0 0 0 57.978622
4.0188336 -1.4080651 -3.1999331 209 0 0 0 57.978622
23.265034 -19.329363 -2.2605305 10 0 0 0 58.068481
23.720825 -19.857426 0.73195827 12 0 0 0 58.068481
24.43569 -13.342471 -1.1587361 21 0 0 0 58.068481
24.613613 -10.390528 -2.6491139 17 0 0 0 58.068481
24.525057 -16.838243 1.9031526 12 0 0 0 58.068481
22.7969 -18.80176 -6.6844568 13 0 0 0 58.068481
24.369631 -16.649025 0.45174724 8 0 0 0 58.068481
22.742569 -15.171692 -7.816535 12 0 0 0 58.068481
22.989544 -15.394863 -6.4583964 21 0 0 0 58.068481
21.679392 -8.6952906 -8.4306965 7 0 0 0 58.068481
23.946445 -12.935351 -3.81603 27 0 0 0 58.068481
4.0100613 -1.4329407 -3.20156 171 0 0 0 58.068481
6.3780966 -3.2436671 -4.2199078 142 0 0 0 58.068481
10.788333 -7.0927863 -6.6634998 21 0 0 0 58.068481
22.81638 -15.166342 -9.3241854 9 0 0 0 58.068481
24.201643 -13.144501 -2.4905 31 0 0 0 58.068481
7.638433 -6.2923779 -5.6804643 56 0 0 0 58.068481
23.753895 -16.091938 -2.3646894 17 0 0 0 58.068481
25.614109 -11.020131 1.3622271 23 0 0 0 58.068481
23.506113 -15.862161 -3.7367773 17 0 0 0 58.068481
23.258541 -12.419207 -6.3787012 18 0 0 0 58.068481
4.782187 -1.7548969 -3.4422622 273 0 0 0 58.068481
24.876877 -10.575531 -1.345497 31 0 0 0 58.068481
22.980585 -19.041 -3.7068419 13 0 0 0 58.068481
19.823774 -16.288744 -11.515713 15 0 0 0 58.068481
23.96769 -9.8451214 -6.5324645 27 0 0 0 58.068481
22.753077 -18.806433 -5.1558547 14 0 0 0 58.068481
24.840986 -13.641568 0.20250458 18 0 0 0 58.068481
21.880365 -17.975119 -11.037983 10 0 0 0 58.068481
23.66428 -12.702031 -5.1160913 26 0 0 0 58.068481
21.146105 -14.003644 -10.056171 6 0 0 0 58.068481
25.192308 -13.953146 3.0260031 15 0 0 0 58.068481
24.371834 -10.200361 -3.9414082 32 0 0 0 58.068481
7.9494996 -3.0408111 -4.5892911 68 0 0 0 58.068481
23.259336 -15.639081 -5.1051655 19 0 0 0 58.068481
25.189867 -10.772808 -0.017238718 24 0 0 0 58.068481
25.01325 -13.797905 1.6040027 12 0 0 0 58.068481
5.8200216 -2.1833715 -3.7591932 235 0 0 0 58.068481
10.709581 -4.1732817 -5.4809704 35 0 0 0 58.068481
24.108252 -10.001924 -5.2236953 38 0 0 0 58.068481
6.9185948 -4.5345006 -4.7961211 111 0 0 0 58.068481
23.925686 -9.7132807 -7.8908615 7 0 0 0 58.068481
22.209177 -18.258581 -9.5835695 21 0 0 0 58.068481
23.890774 -12.667012 -7.9675918 17 0 0 0 58.068481
9.3354721 -4.7929101 -5.51615 24 0 0 0 58.068481
12.621999 -10.377162 -8.3325691 16 0 0 0 58.068481
24.084684 -16.391365 -0.97544539 17 0 0 0 58.068481
5.2936139 -3.4585569 -4.0990715 142 0 0 0 58.068481
25.925238 -11.209433 2.7648888 16 0 0 0 58.068481
28.428282 -14.96258 -11.241843 9 0 0 0 58.068481
22.529177 -18.539125 -8.1377211 17 0 0 0 58.068481
23.520327 -19.615761 -0.7748639 10 0 0 0 58.068481
23.697319 -16.264376 -2.3740113 19 0 0 0 58.173183
24.336746 -10.360064 -3.9518814 27 0 0 0 58.173183
5.8255415 -2.2265518 -3.77368 220 0 0 0 58.173183
24.674704 -17.232962 3.3994765 6 0 0 0 58.173183
24.470785 -17.01919 1.9015819 15 0 0 0 58.173183
23.227898 -19.53804 -2.2731576 14 0 0 0 58.173183
21.607449 -8.8204288 -8.4294519 12 0 0 0 58.173183
23.907457 -13.102773 -3.8280733 19 0 0 0 58.173183
22.926233 -19.232367 -3.7215962 18 0 0 0 58.173183
23.647734 -20.04059 0.72869098 9 0 0 0 58.173183
4.7882652 -1.7908084 -3.4564431 312 0 0 0 58.173183
25.169847 -14.139607 3.0276406 18 0 0 0 58.173183
9.3705359 -4.8841734 -5.5576601 19 0 0 0 58.173183
23.465147 -19.811964 -0.78172332 17 0 0 0 58.173183
10.916857 -7.274188 -6.7742381 25 0 0 0 58.173183
22.495651 -18.743727 -8.1718893 22 0 0 0 58.173183
25.126963 -10.926235 -0.023264738 21 0 0 0 58.173183
22.158974 -18.446383 -9.6156015 18 0 0 0 58.173183
12.711872 -10.583374 -8.4386835 15 0 0 0 58.173183
23.06411 -15.649664 -6.5116038 17 0 0 0 58.173183
22.733311 -15.313011 -9.3339291 7 0 0 0 58.173183
8.0220861 -3.125371 -4.6453152 55 0 0 0 58.173183
23.230698 -12.587217 -6.3977365 43 0 0 0 58.173183
23.90761 -9.9913902 -6.5387259 37 0 0 0 58.173183
22.804316 -19.043142 -6.7256045 17 0 0 0 58.173183
24.406614 -13.519254 -1.16686 17 0 0 0 58.173183
24.582447 -10.553681 -2.6586215 29 0 0 0 58.173183
13.219839 -6.9556384 -6.9380078 16 0 0 0 58.173183
25.852253 -11.363416 2.7581301 11 0 0 0 58.173183
3.9929419 -1.4547832 -3.1964774 157 0 0 0 58.173183
6.3647833 -3.2865744 -4.2265024 150 0 0 0 58.173183
23.460192 -16.039732 -3.7501149 24 0 0 0 58.173183
7.6378293 -6.3717484 -5.7115397 68 0 0 0 58.173183
23.605368 -12.856321 -5.1258183 24 0 0 0 58.173183
22.695105 -15.341581 -7.8377132 9 0 0 0 58.173183
22.758255 -19.045403 -5.1881061 11 0 0 0 58.173183
25.517145 -11.161569 1.3545508 25 0 0 0 58.173183
24.014402 -16.557322 -0.98182136 19 0 0 0 58.173183
5.2874622 -3.5015545 -4.1128306 149 0 0 0 58.173183
10.7546 -4.2671661 -5.5208654 47 0 0 0 58.173183
23.217291 -15.817158 -5.1222396 15 0 0 0 58.173183
24.150604 -13.3073 -2.4991071 31 0 0 0 58.173183
24.820295 -10.729574 -1.3519101 31 0 0 0 58.173183
6.920579 -4.5972919 -4.8193464 82 0 0 0 58.173183
24.095472 -10.169124 -5.240376 27 0 0 0 58.173183
24.729216 -13.775554 0.19669531 22 0 0 0 58.173183
24.279257 -16.803534 0.44675463 19 0 0 0 58.173183
24.968967 -13.970784 1.6008091 15 0 0 0 58.173183
19.774841 -16.453884 -11.55087 12 0 0 0 58.173183
8.0645027 -3.1992826 -4.684186 41 0 0 0 58.262527
5.8505812 -2.2776241 -3.8012741 217 0 0 0 58.262527
23.831741 -10.016444 -7.9125338 12 0 0 0 58.262527
22.432278 -18.92514 -8.1960983 19 0 0 0 58.262527
23.220253 -12.765804 -6.422183 30 0 0 0 58.262527
9.3992996 -4.973166 -5.5959873 15 0 0 0 58.262527
24.676641 -13.942915 0.19108488 20 0 0 0 58.262527
23.970039 -12.994072 -9.5470009 12 0 0 0 58.262527
24.780005 -10.89122 -1.3594482 24 0 0 0 58.262527
23.845634 -10.137077 -6.5448728 27 0 0 0 58.262527
25.135508 -14.320739 3.0278149 10 0 0 0 58.262527
24.37265 -13.694476 -1.1750242 26 0 0 0 58.262527
23.105742 -15.88514 -6.5564084 21 0 0 0 58.262527
25.369986 -11.280635 1.3441964 13 0 0 0 58.262527
22.20389 -18.703264 -11.328149 10 0 0 0 58.262527
23.212393 -19.767241 -2.2884676 14 0 0 0 58.262527
22.68033 -15.534931 -7.8710299 22 0 0 0 58.262527
23.448647 -16.242363 -3.7695312 17 0 0 0 58.262527
10.969906 -7.4078064 -6.8390055 21 0 0 0 58.262527
22.936235 -19.433601 -5.2611561 12 0 0 0 58.262527
22.099115 -18.627625 -9.6444368 11 0 0 0 58.262527
5.2892742 -3.5501845 -4.1332321 142 0 0 0 58.262527
