# .PCD v0.7 - Point Cloud Data file format
VERSION 0.7
FIELDS x y z intensity normal_x normal_y normal_z curvature
SIZE 4 4 4 4 4 4 4 4
TYPE F F F F F F F F
COUNT 1 1 1 1 1 1 1 1
WIDTH 933
HEIGHT 1
VIEWPOINT 0 0 0 1 0 0 0
POINTS 933
DATA ascii
2.0907824 2.3422711 -0.075950742 5 0 0 0 21.542955
0.87951046 5.22124 -0.075038262 5 0 0 0 21.550261
2.2210281 2.4791903 0.015081518 47 0 0 0 21.557798
0.96805829 5.4222908 0.017056184 3 0 0 0 21.5651
2.2630572 2.5122967 0.11295407 42 0 0 0 21.572639
0.98877782 5.2145166 0.10200419 5 0 0 0 21.579941
1.6781409 2.1940343 -0.14486285 25 0 0 0 21.587481
0.44315019 5.2031674 -0.14850931 103 0 0 0 21.594782
1.7930219 2.317271 -0.067945287 8 0 0 0 21.60232
0.50599223 5.2163978 -0.067039326 105 0 0 0 21.609625
1.9229738 2.4674523 0.01405651 52 0 0 0 21.617163
0.56082135 5.226644 0.013486972 101 0 0 0 21.624464
1.9448689 2.4746711 0.10090535 13 0 0 0 21.632004
0.62059826 5.2369308 0.088962622 107 0 0 0 21.639303
1.4832674 2.2561088 -0.13430201 5 0 0 0 21.646845
0.077346779 5.3463297 -0.13351335 150 0 0 0 21.654146
3.488389 5.2286925 -0.13861606 96 0 0 0 21.661684
0.14106499 5.3086329 -0.060504317 150 0 0 0 21.668987
3.5341187 5.2471819 0.029095568 103 0 0 0 21.676525
0.19271299 5.1939569 0.010948436 99 0 0 0 21.683828
3.5838423 5.2596698 0.19671333 114 0 0 0 21.691368
0.25136644 5.2053509 0.074443832 105 0 0 0 21.698668
1.2353595 2.206177 -0.11919265 3 0 0 0 21.706207
-0.29354742 5.2834368 -0.11329817 47 0 0 0 21.713511
2.9504411 5.1770015 -0.12354015 116 0 0 0 21.721048
-0.22992352 5.2838449 -0.051952552 41 0 0 0 21.728352
3.0019834 5.1956463 0.026110236 95 0 0 0 21.735889
-0.17429306 5.3192749 0.0077847824 116 0 0 0 21.743193
3.0595465 5.21627 0.17771681 115 0 0 0 21.750732
-0.11274408 5.3167472 0.062125888 115 0 0 0 21.758032
2.4000247 5.1095691 -0.25150171 55 0 0 0 21.765572
-0.61262262 4.8554287 -0.086847506 9 0 0 0 21.772875
2.4574752 5.117281 -0.11001053 64 0 0 0 21.780413
-0.55415946 4.859982 -0.041413307 8 0 0 0 21.787716
2.5158596 5.1470628 0.023665555 57 0 0 0 21.795254
-0.50369012 4.8725405 0.0041738576 4 0 0 0 21.802555
2.5612388 5.143837 0.15918395 80 0 0 0 21.810097
-0.45026255 4.8981404 0.04484567 3 0 0 0 21.817396
1.9522042 5.0656948 -0.22530526 63 0 0 0 21.824936
-1.0402994 5.2436604 -0.0750864 95 0 0 0 21.832237
2.016499 5.087543 -0.099761643 67 0 0 0 21.839775
-0.96993667 5.2132683 -0.037084389 150 0 0 0 21.84708
-0.86228174 4.9217415 0.00055088539 87 0 0 0 22.7043
-0.81892437 5.0114422 0.031888437 42 0 0 0 22.719139
-1.414747 5.1986008 -0.056526642 104 0 0 0 22.73398
-1.3534802 5.2123284 -0.030033272 101 0 0 0 22.748821
-1.2972105 5.2150512 -0.0025852087 99 0 0 0 22.763664
-1.2370081 5.2228322 0.017867275 111 0 0 0 22.778503
-1.7966342 5.1556611 -0.037132762 94 0 0 0 22.793344
-1.7354925 5.1624932 -0.02269971 99 0 0 0 22.808186
-1.6743398 5.1553092 -0.0063881744 109 0 0 0 22.823029
-1.6212459 5.1811981 0.0022914826 96 0 0 0 22.837868
-2.0666583 4.8236232 -0.016381795 55 0 0 0 22.852709
-2.0146289 4.8415647 -0.013761621 31 0 0 0 22.86755
-1.9705824 4.870501 -0.0099656964 48 0 0 0 22.882393
-1.9046285 4.8484802 -0.012831916 116 0 0 0 22.897232
-2.6113832 5.0897832 0.0033080149 110 0 0 0 22.912071
-2.5464985 5.0858312 -0.007393315 150 0 0 0 22.926914
-4.1231313 4.529995 -0.032509018 37 0 0 0 22.940861
-2.3706942 4.8467679 -0.014242987 77 0 0 0 22.941755
-4.1158128 4.5725889 -0.1022408 38 0 0 0 22.9557
-2.3048594 4.825851 -0.029099748 22 0 0 0 22.956596
-4.628787 4.3339849 0.11679885 65 0 0 0 22.970539
-3.0282581 5.0148206 0.025742168 100 0 0 0 22.971436
-4.5915823 4.3386421 0.037437469 65 0 0 0 22.985382
-2.9715049 5.0229926 0.0012255659 110 0 0 0 22.986279
-4.5583272 4.3442578 -0.036875546 73 0 0 0 23.000223
-2.9187136 5.0281329 -0.019277167 96 0 0 0 23.00112
-4.5391717 4.3639755 -0.12192646 72 0 0 0 23.015064
-2.8600032 5.0313392 -0.047855988 100 0 0 0 23.015961
-5.0936694 4.1529899 0.14376384 23 0 0 0 23.029903
-4.0069427 4.9429383 0.073696956 119 0 0 0 23.090164
-3.9564865 4.9523726 0.019249471 130 0 0 0 23.105005
-8.286129 5.9057536 -0.071496733 5 0 0 0 23.118952
-3.7900369 4.8086758 -0.028676543 3 0 0 0 23.119848
-8.2688866 5.9112525 -0.24767527 7 0 0 0 23.133793
-3.8475645 4.95222 -0.08788871 103 0 0 0 23.134687
-4.1380711 4.4428196 0.090576909 45 0 0 0 23.149529
-4.133687 4.4923615 0.026934355 46 0 0 0 23.16437
-8.0146503 4.8924789 -0.070121363 8 0 0 0 23.178316
-7.9834595 4.8720059 -0.25066042 9 0 0 0 23.193155
-6.7712045 3.5189857 0.24061604 1 0 0 0 23.207996
-8.1080494 4.1884546 -0.071433179 13 0 0 0 23.23768
-8.0799704 4.1560774 -0.26304373 8 0 0 0 23.25252
-7.880053 2.1222045 -0.070634022 13 0 0 0 23.270006
-7.4376411 -2.3654737 0.18918937 12 0 0 0 23.281595
-7.8391705 2.0489776 -0.28072107 12 0 0 0 23.284847
-7.3801117 -2.5334361 -0.052873977 13 0 0 0 23.296436
-8.0204401 3.4423163 -0.071892254 13 0 0 0 23.297045
-7.9854245 3.3959868 -0.26969016 11 0 0 0 23.311884
-6.4015951 -2.3528266 0.38900676 2 0 0 0 23.32612
-7.3777833 -2.9216757 0.19970843 12 0 0 0 23.34096
-7.3213196 -3.1105862 -0.048522502 14 0 0 0 23.355801
-7.9537821 2.7611871 -0.071569458 14 0 0 0 23.356407
-7.2640705 -3.3173156 -0.31791577 11 0 0 0 23.370642
-7.9208274 2.7039099 -0.27543971 11 0 0 0 23.371248
-7.2359142 -3.4639158 0.20954823 4 0 0 0 23.400324
-7.1054673 -3.6338367 -0.042245477 13 0 0 0 23.415165
-7.0402417 -3.8585532 -0.3138687 10 0 0 0 23.430006
-6.9090333 -3.9122081 0.21438596 1 0 0 0 23.459688
-6.7515531 -4.0831676 -0.034677785 12 0 0 0 23.474527
-6.7113194 -4.3428893 -0.30435172 5 0 0 0 23.48937
-6.7541466 -4.4674559 0.22501127 11 0 0 0 23.519053
-6.6847386 -4.7193384 -0.027878186 11 0 0 0 23.533892
-6.6656265 -5.0369644 -0.30784002 2 0 0 0 23.548735
-6.1978202 -4.4347677 0.4547964 1 0 0 0 23.563576
-4.0397825 -3.3018794 -0.011724408 76 0 0 0 23.593256
-3.7333488 -3.2746484 -0.1745218 74 0 0 0 23.608097
-3.9906087 -3.2826779 0.30896935 81 0 0 0 23.62294
-7.5622563 -1.2955468 0.17110822 9 0 0 0 23.631136
-3.7092004 -3.2684166 0.14430803 79 0 0 0 23.637779
-7.5305872 -1.4355928 -0.060450546 17 0 0 0 23.645979
-3.4346256 -3.23929 -0.0041551096 78 0 0 0 23.65262
-7.4590764 -1.5785192 -0.30842555 13 0 0 0 23.66082
-3.1700332 -3.2161756 -0.15057003 71 0 0 0 23.667461
-3.4278023 -3.2287636 0.28188083 84 0 0 0 23.682304
-7.4923983 -1.8247263 0.17878057 14 0 0 0 23.6905
-3.1672094 -3.2046463 0.13551547 72 0 0 0 23.697144
-7.4597816 -1.9807304 -0.057922296 16 0 0 0 23.705341
-2.9314985 -3.1846211 0.0013615261 78 0 0 0 23.711985
-7.3843226 -2.139616 -0.31107017 13 0 0 0 23.720184
-2.700768 -3.1666098 -0.13075918 80 0 0 0 23.726826
-2.9429622 -3.1728339 0.25858814 90 0 0 0 23.741669
-2.7202103 -3.1608396 0.12849253 81 0 0 0 23.768543
-2.5063789 -3.1399062 0.0065666963 91 0 0 0 23.783386
-2.2915165 -3.1179981 -0.11235919 88 0 0 0 23.798227
-2.5360842 -3.1349015 0.23991384 99 0 0 0 23.813068
-2.3272128 -3.1149991 0.12203068 105 0 0 0 23.827908
-2.0992501 -3.0481656 0.011365491 50 0 0 0 23.842751
-1.9112722 -3.0343478 -0.095362142 53 0 0 0 23.857592
-2.1721947 -3.0889502 0.2227423 109 0 0 0 23.872433
-1.9571987 -3.036144 0.11608627 54 0 0 0 23.887272
-1.7841423 -3.0243876 0.01748956 55 0 0 0 23.902115
-1.6271015 -3.0476232 -0.081249595 81 0 0 0 23.916956
-1.8482854 -3.0459945 0.20794442 108 0 0 0 23.931795
-1.6821876 -3.0512764 0.11427217 99 0 0 0 23.946636
-1.5120572 -3.0305777 0.022784431 91 0 0 0 23.961477
-1.3439212 -3.0198863 -0.06776835 94 0 0 0 23.97632
-1.5693586 -3.0310407 0.19635336 106 0 0 0 23.991159
-1.4061761 -3.0253894 0.110807 98 0 0 0 24.006001
-1.2449672 -3.0067544 0.02739219 98 0 0 0 24.020842
-1.0837501 -2.9921277 -0.055055834 97 0 0 0 24.035685
-1.3084183 -3.0100849 0.18599606 106 0 0 0 24.050524
-1.1491525 -2.9954994 0.10856791 102 0 0 0 24.065365
-0.99887794 -2.9849186 0.032194 101 0 0 0 24.080206
-0.84259069 -2.9683487 -0.043186013 99 0 0 0 24.095049
-1.0594712 -2.9761207 0.17587322 113 0 0 0 24.109888
-0.9101311 -2.9715984 0.10645901 103 0 0 0 24.124727
-0.76377511 -2.9550836 0.038177267 110 0 0 0 24.13957
-0.61442065 -2.9425697 -0.030166749 106 0 0 0 24.154411
-0.83051938 -2.954154 0.16684829 110 0 0 0 24.169252
-0.68409705 -2.9416978 0.10553352 100 0 0 0 24.184092
-0.54368591 -2.9342308 0.043235309 108 0 0 0 24.198935
-0.39828122 -2.9197569 -0.020050609 105 0 0 0 24.213776
-0.61354911 -2.9351962 0.15991984 109 0 0 0 24.228617
-0.47182837 -2.9278212 0.104781 112 0 0 0 24.922869
-0.33233878 -2.9154048 0.049558349 116 0 0 0 24.93771
-0.18786465 -2.8929727 -0.007626419 106 0 0 0 24.952553
-0.40434533 -2.9152553 0.15326072 111 0 0 0 24.967392
-0.26378933 -2.9038975 0.10502118 113 0 0 0 24.982231
-0.12724876 -2.8835213 0.054896597 114 0 0 0 24.997074
0.01328779 -2.8751459 0.0046337647 114 0 0 0 25.011915
-0.20037244 -2.8882694 0.14656761 115 0 0 0 25.026756
1.0654227 -2.5843811 0.11012168 118 0 0 0 25.041452
-0.062750362 -2.8799684 0.10533323 117 0 0 0 25.041595
1.2023793 -2.5673726 0.10397408 115 0 0 0 25.056292
0.070853859 -2.8696494 0.062154733 122 0 0 0 25.056438
1.3503443 -2.5523748 0.098706171 113 0 0 0 25.071133
0.21244103 -2.8533154 0.016951956 104 0 0 0 25.07128
1.1274483 -2.568399 0.11069383 134 0 0 0 25.085974
-0.0013927353 -2.8692873 0.14085977 119 0 0 0 25.086121
1.2694963 -2.5614748 0.11441542 109 0 0 0 25.100817
0.13428709 -2.8600352 0.10565478 119 0 0 0 25.10096
1.4145074 -2.5505173 0.11414354 101 0 0 0 25.115656
0.26894855 -2.8497658 0.068468772 118 0 0 0 25.115803
1.668576 -2.6956816 0.12352707 129 0 0 0 25.130495
0.40960315 -2.8314896 0.030294236 99 0 0 0 25.130644
1.3384631 -2.5504422 0.1088825 111 0 0 0 25.145338
0.19359517 -2.8543096 0.13616133 118 0 0 0 25.145485
1.4895753 -2.5475774 0.11948737 105 0 0 0 25.160179
0.32933378 -2.840107 0.1070004 115 0 0 0 25.160324
1.7456912 -2.6947825 0.13383846 120 0 0 0 25.17502
0.46605197 -2.8308873 0.075789027 122 0 0 0 25.175165
1.8987986 -2.6479013 0.1427972 35 0 0 0 25.189859
0.60776323 -2.8136604 0.04359863 112 0 0 0 25.190008
1.6635159 -2.6925876 0.11465383 131 0 0 0 25.204702
0.38858616 -2.8293293 0.13155214 119 0 0 0 25.204847
1.806697 -2.6527708 0.13164818 35 0 0 0 25.219543
0.52638888 -2.8221848 0.10931537 111 0 0 0 25.219688
1.7557538 -2.343724 0.12973724 11 0 0 0 25.234385
0.66215777 -2.8030059 0.083199546 112 0 0 0 25.234529
1.9049217 -2.3118989 0.14560838 14 0 0 0 25.249224
0.80693328 -2.7918367 0.057932369 103 0 0 0 25.249372
1.685481 -2.3464484 0.10039582 14 0 0 0 25.264067
0.58658403 -2.8113546 0.12786087 116 0 0 0 25.264212
1.8307022 -2.3256719 0.12221254 13 0 0 0 25.278908
0.72444534 -2.7982595 0.11167653 113 0 0 0 25.279053
1.9829142 -2.3018885 0.14298946 17 0 0 0 25.293749
0.8652674 -2.7901306 0.091423146 112 0 0 0 25.293894
2.459332 -2.6074507 0.19194947 112 0 0 0 25.308588
0.97910261 -2.6809821 0.070272975 80 0 0 0 25.308737
1.9215069 -2.3124971 0.099497668 13 0 0 0 25.323429
0.7855832 -2.7883778 0.1242074 113 0 0 0 25.323576
2.0738034 -2.2887876 0.12927563 17 0 0 0 25.338272
0.92849934 -2.7803326 0.11393601 112 0 0 0 25.338415
2.5672581 -2.5983839 0.18204865 106 0 0 0 25.353111
1.0043684 -2.5931859 0.09479852 113 0 0 0 25.353258
2.7786455 -2.5767691 0.22125743 79 0 0 0 25.367952
1.1402719 -2.5651219 0.082762249 122 0 0 0 25.368099
2.3355904 -2.4386754 0.10758859 8 0 0 0 25.382793
0.97457659 -2.7213805 0.11902223 78 0 0 0 25.38294
3.2452941 -2.3525054 0.17577295 0 0 0 0 25.396212
1.6566557 -1.5923624 0.098079823 0 0 0 0 25.397636
3.4468973 -2.2980716 0.23735449 1 0 0 0 25.411053
2.7614164 -2.4405017 0.19260232 150 0 0 0 25.412476
3.6625953 -2.2367237 0.30886349 7 0 0 0 25.425894
3.1379945 -2.5431244 0.25422275 97 0 0 0 25.427317
3.4407496 -2.3290331 0.11517549 0 0 0 0 25.440737
1.7024126 -1.544129 0.070077889 8 0 0 0 25.442158
2.4509809 -2.0479238 0.13784333 150 0 0 0 25.457001
3.6220798 -2.0741875 0.24965066 0 0 0 0 25.470415
2.9956107 -2.3046656 0.20759903 8 0 0 0 25.47184
3.9609604 -2.0720439 0.34151247 101 0 0 0 25.485258
3.5443993 -2.4995337 0.29283971 83 0 0 0 25.486679
3.5287681 -2.0389667 0.10884231 1 0 0 0 25.500099
3.805589 -2.0227513 0.19440523 1 0 0 0 25.51494
3.4190364 -1.6629732 0.23605877 1 0 0 0 25.529779
4.0791903 -1.8031771 0.35872537 150 0 0 0 25.544622
3.4057407 -1.6577945 0.097245485 21 0 0 0 25.559464
3.4584751 -1.5414288 0.17274557 30 0 0 0 25.574305
4.1675768 -1.6895955 0.28989461 12 0 0 0 25.589144
4.1984339 -1.5333252 0.37793651 150 0 0 0 25.603987
3.3757398 -1.354689 0.090117685 40 0 0 0 25.618828
4.2408605 -1.5469116 0.20944788 10 0 0 0 25.633669
4.2897468 -1.4096767 0.30116203 11 0 0 0 25.648508
4.3036742 -1.2594688 0.39731127 123 0 0 0 25.663349
4.3049631 -1.3820599 0.10927039 80 0 0 0 25.678192
4.090848 -1.1787554 0.20099068 37 0 0 0 25.693031
4.1777701 -1.0665671 0.2971397 50 0 0 0 25.707872
7.7859168 -1.7311511 0.73699051 105 0 0 0 25.722713
4.1379418 -1.0078939 0.10001795 59 0 0 0 25.737556
7.8426571 -1.678203 0.38593611 88 0 0 0 25.752396
7.0747728 -1.3045146 0.51230955 34 0 0 0 25.767237
6.3070951 -0.45459279 0.31454697 72 0 0 0 25.769348
8.8450441 -1.3699317 0.85735291 143 0 0 0 25.782078
6.4787521 -0.3050805 0.48823714 8 0 0 0 25.784187
6.8505259 -1.1594762 0.1606335 40 0 0 0 25.796921
6.6796117 -0.15075773 0.68369842 23 0 0 0 25.79903
6.1268821 -0.87342179 0.30278629 20 0 0 0 25.81176
5.7824368 -0.14085566 0.13109891 0 0 0 0 25.813871
5.9511819 -0.68748885 0.4390057 5 0 0 0 25.826599
6.4282951 -0.017657068 0.3251645 8 0 0 0 25.828712
6.2048845 -0.54804277 0.61785072 0 0 0 0 25.841442
6.8602443 0.13652411 0.5294801 132 0 0 0 25.843552
6.0184164 -0.57797247 0.13831706 2 0 0 0 25.856283
6.840044 0.2909576 0.71999609 71 0 0 0 25.858395
4.7282462 0.22371177 0.10700488 0 0 0 0 25.873236
6.847682 0.4600389 0.35435537 93 0 0 0 25.888077
6.8324475 0.60149735 0.54171515 150 0 0 0 25.902916
6.7752662 0.73491561 0.73539644 124 0 0 0 25.917759
6.4528193 0.77291697 0.14867774 32 0 0 0 25.9326
6.7898221 0.93307525 0.3599304 119 0 0 0 25.947439
6.7796435 1.0594759 0.55411607 31 0 0 0 25.96228
6.7244987 1.1768535 0.75264239 110 0 0 0 25.977121
6.816062 1.318768 0.16195418 26 0 0 0 25.991964
6.1006041 1.2775524 0.3332614 67 0 0 0 26.006804
6.6988339 1.5194595 0.56678468 4 0 0 0 26.021645
6.6967831 1.630736 0.77576774 22 0 0 0 26.036486
5.4167609 1.4594388 0.13413481 44 0 0 0 26.051329
6.7101789 1.9000546 0.38089755 17 0 0 0 26.066168
6.482893 1.9375783 0.56734234 8 0 0 0 26.081009
6.7691965 2.124481 0.81229496 1 0 0 0 26.09585
6.6773343 2.3248382 0.17378034 40 0 0 0 26.110691
6.4031992 2.3062222 0.37818784 26 0 0 0 26.125532
6.5532546 2.4533706 0.59806448 1 0 0 0 26.140371
9.0634623 3.5163274 1.1308411 36 0 0 0 26.155214
3.2592344 1.4064403 0.090689771 87 0 0 0 26.170055
3.233242 1.427544 0.20012189 47 0 0 0 26.184896
6.6086159 2.9951661 0.62913561 5 0 0 0 26.199736
8.9908724 4.1801376 1.1671306 17 0 0 0 26.214579
3.1262848 1.6234792 0.09375155 105 0 0 0 26.22942
5.9091115 3.1177919 0.38718233 31 0 0 0 26.790024
5.9790225 3.2150609 0.59738171 3 0 0 0 26.804865
2.9632022 1.8217133 0.09719345 25 0 0 0 26.834545
6.1795673 3.8364518 0.43071827 150 0 0 0 26.849388
6.1365099 3.8596966 0.64633018 150 0 0 0 26.864227
8.8383236 5.6242528 1.2574911 73 0 0 0 26.879068
2.8142393 2.0217347 0.10121497 150 0 0 0 26.893909
5.7815566 4.1735749 0.43114752 47 0 0 0 26.908752
8.4745016 6.1709538 0.94531393 69 0 0 0 26.923592
8.0437965 5.9028916 1.2060353 21 0 0 0 26.938433
2.6823025 2.236727 0.1081992 29 0 0 0 26.953274
7.3452063 6.1291118 0.59018558 48 0 0 0 26.968117
7.3117199 6.1288271 0.87052107 56 0 0 0 26.982956
3.0263214 5.2162833 0.41262281 114 0 0 0 26.99753
7.304286 6.1364913 1.1566874 54 0 0 0 26.997795
3.0747521 5.2249703 0.57227123 102 0 0 0 27.012371
2.7554774 2.6546102 0.12499663 11 0 0 0 27.012638
3.12519 5.2286496 0.73286086 101 0 0 0 27.027212
2.7995479 2.6876328 0.24388491 48 0 0 0 27.027479
2.466819 5.1627064 0.25221175 41 0 0 0 27.042051
6.2559609 6.0116434 0.79811662 77 0 0 0 27.04232
2.5281661 5.1644664 0.40268502 95 0 0 0 27.056894
6.2712793 6.0205278 1.0570824 55 0 0 0 27.057159
2.5844693 5.1782675 0.54830259 99 0 0 0 27.071735
2.2663579 2.5227654 0.11733329 38 0 0 0 27.072002
2.6467984 5.1930442 0.6968745 111 0 0 0 27.086576
4.8728404 5.3855872 0.46742383 89 0 0 0 27.086843
2.044868 5.2117 0.26340544 25 0 0 0 27.101416
4.9037099 5.4038787 0.67631966 105 0 0 0 27.101685
2.0720179 5.1036305 0.39328268 70 0 0 0 27.116259
4.9256206 5.4061308 0.89016491 99 0 0 0 27.116524
2.1352215 5.127522 0.52791935 43 0 0 0 27.1311
4.2078547 5.4164772 0.25265622 31 0 0 0 27.131367
2.2596023 5.2822576 0.68108153 19 0 0 0 27.145941
4.3307219 5.5147667 0.46037993 78 0 0 0 27.146208
1.5938303 5.098752 0.26651931 35 0 0 0 27.16078
4.291369 5.429256 0.64605129 89 0 0 0 27.161049
1.6489062 5.051753 0.38764569 64 0 0 0 27.175623
4.2840457 5.3767171 0.83470589 99 0 0 0 27.175888
1.7400826 5.1576734 0.51870286 24 0 0 0 27.190464
3.5137305 5.2626433 0.24764018 96 0 0 0 27.190729
1.9145536 5.477335 0.68076718 13 0 0 0 27.205303
3.5663235 5.2641797 0.42619771 117 0 0 0 27.205572
3.6078715 5.2717581 0.5999037 102 0 0 0 27.220411
1.3751898 5.4955406 0.42172185 4 0 0 0 27.234985
3.6544447 5.2773123 0.77654856 97 0 0 0 27.235252
1.3539306 5.1588278 0.50815678 4 0 0 0 27.249828
2.9616792 5.2077303 0.24914534 112 0 0 0 27.250093
1.4289687 5.1918674 0.62476009 6 0 0 0 27.264668
0.84598678 5.2136469 0.29512483 2 0 0 0 27.279509
0.96110976 5.4306202 0.41987392 2 0 0 0 27.29435
1.0300616 5.4297352 0.52725214 2 0 0 0 27.309193
1.0497322 5.1760912 0.60500163 1 0 0 0 27.324032
0.471071 5.2265759 0.31055555 95 0 0 0 27.338873
-0.18587776 5.3336754 0.431301 94 0 0 0 27.348436
0.5519433 5.2387633 0.40893289 107 0 0 0 27.353714
-0.10824739 5.2720776 0.50309986 113 0 0 0 27.363276
0.62479872 5.2619677 0.50547224 88 0 0 0 27.368555
-0.030519001 5.3584013 0.58510828 133 0 0 0 27.378117
0.67443401 5.0873604 0.57860088 17 0 0 0 27.383396
0.10115109 5.2115011 0.3257021 111 0 0 0 27.398235
0.18292192 5.2077794 0.41294047 97 0 0 0 27.413078
-0.48026264 5.306087 0.50765461 1 0 0 0 27.42264
0.25567594 5.2150745 0.49834958 100 0 0 0 27.427919
-0.36909994 4.9158912 0.52846867 55 0 0 0 27.437481
0.32941183 5.2253866 0.58177489 98 0 0 0 27.44276
-1.003409 5.1771493 0.38422915 84 0 0 0 27.452322
-0.26279441 5.1314392 0.33825457 56 0 0 0 27.4576
-0.92683482 5.2556119 0.44918019 71 0 0 0 27.467163
-0.78071016 4.8374486 0.46545637 64 0 0 0 27.482004
-0.76985431 5.2796822 0.56096363 150 0 0 0 27.496843
-1.3971986 5.2179451 0.41401455 97 0 0 0 27.511686
-1.3057754 5.2325406 0.46231061 99 0 0 0 27.526527
-1.2253621 5.2391448 0.50963986 86 0 0 0 27.541368
-1.1429838 5.2527823 0.55300921 94 0 0 0 27.556208
-1.7830235 5.1867623 0.44013068 116 0 0 0 27.571051
-1.6887001 5.1894479 0.47730303 103 0 0 0 27.585892
-1.6093752 5.2041345 0.51470685 109 0 0 0 27.600733
-1.5280859 5.2218528 0.54811817 111 0 0 0 27.615572
-2.1788321 5.1425591 0.46821898 112 0 0 0 27.630413
-2.0875962 5.1593266 0.4955326 110 0 0 0 27.645256
-2.0053608 5.1710939 0.5228858 111 0 0 0 27.660095
-1.9191886 5.176919 0.54315579 112 0 0 0 27.674936
-2.5925951 5.1023107 0.50148815 119 0 0 0 27.689777
-2.4984667 5.1151752 0.5167433 119 0 0 0 27.70462
-2.4143293 5.1260328 0.53307122 121 0 0 0 27.71946
-3.3940458 5.0258088 0.56991434 126 0 0 0 27.72368
-2.3282628 5.1349549 0.54136628 123 0 0 0 27.734301
-3.3061211 5.0348597 0.5621897 111 0 0 0 27.73852
-3.0323224 5.0620246 0.53897554 117 0 0 0 27.749142
-3.2182577 5.046968 0.54749054 123 0 0 0 27.753363
-2.9343092 5.075995 0.54120427 118 0 0 0 27.763985
-3.9985726 4.9693522 0.62973511 120 0 0 0 27.768204
-2.8452787 5.0799499 0.54543161 120 0 0 0 27.778824
-3.8957894 4.9805326 0.60589433 130 0 0 0 27.783045
-2.7603092 5.0949616 0.54278475 116 0 0 0 27.793665
-3.8029883 4.9876971 0.58410978 113 0 0 0 27.797884
-3.4960058 5.0146923 0.58160555 124 0 0 0 27.808506
-3.7182479 5.0039186 0.55547005 125 0 0 0 27.812725
-4.256516 4.6022353 0.64193767 22 0 0 0 27.827568
-4.3456135 4.8193188 0.63246137 25 0 0 0 27.842407
-4.3438191 4.9304957 0.61032259 128 0 0 0 27.857248
-4.2502117 4.938839 0.56653905 126 0 0 0 27.872089
-4.3336387 4.0852761 0.63232952 20 0 0 0 27.886932
-4.4378428 4.2794566 0.61079735 22 0 0 0 27.901772
-4.5800004 4.5115948 0.59490573 23 0 0 0 27.916613
-4.7732143 4.8017874 0.57293141 28 0 0 0 27.931454
-4.4197149 3.6292808 0.62729961 21 0 0 0 27.946297
-4.5499892 3.8145254 0.59792107 21 0 0 0 27.961136
-4.7242169 4.0347271 0.57421058 22 0 0 0 27.975977
-4.9874983 4.34198 0.5449844 29 0 0 0 27.990818
-4.5007482 3.208251 0.62651283 21 0 0 0 28.005659
-4.6720738 3.3925419 0.59148353 20 0 0 0 28.0205
-4.9303322 3.6397712 0.56472456 39 0 0 0 28.035339
-4.9699135 3.7312939 0.49978375 114 0 0 0 28.050182
-4.5637755 2.8062198 0.62572575 21 0 0 0 28.065023
-4.7871342 2.9915402 0.58715683 21 0 0 0 28.079865
-4.9156046 3.1159616 0.53526181 112 0 0 0 28.094704
-4.899302 3.1515925 0.45637894 110 0 0 0 28.109547
-4.6037984 2.4161882 0.62483823 19 0 0 0 28.124388
-4.8562088 2.5835547 0.58037394 93 0 0 0 28.139229
-4.857861 2.6161444 0.50662482 104 0 0 0 28.154068
-4.8426099 2.6388237 0.42164719 117 0 0 0 28.168909
-4.6377978 2.0471396 0.62607217 19 0 0 0 28.183752
-4.8115492 2.1453884 0.56363493 122 0 0 0 28.716644
-4.7972612 2.1590395 0.48159507 116 0 0 0 28.731483
-4.7810411 2.1687546 0.39150655 130 0 0 0 28.746326
-4.6839347 1.698818 0.63090372 32 0 0 0 28.761168
-4.7656341 1.7394495 0.55090588 113 0 0 0 28.776009
-4.7503872 1.7431407 0.4637787 128 0 0 0 28.790848
-4.7252164 1.7409049 0.36751834 130 0 0 0 28.805691
-4.7048788 1.3557431 0.63526011 58 0 0 0 28.820532
-4.724689 1.3624859 0.54145855 123 0 0 0 28.835373
-4.7144818 1.3582163 0.44931149 129 0 0 0 28.850212
-4.688343 1.3470125 0.34897205 117 0 0 0 28.865053
-4.0229316 -3.2837782 0.67515647 90 0 0 0 29.039421
-3.7473814 -3.2523975 0.5040378 71 0 0 0 29.054264
-3.4917428 -3.2360992 0.34297103 77 0 0 0 29.069103
-4.5052519 -0.85878742 0.67957789 106 0 0 0 29.077728
-3.6859841 -3.2366409 0.78464448 79 0 0 0 29.083944
-4.4823298 -0.92377603 0.55184162 133 0 0 0 29.092569
-3.4304056 -3.2162857 0.61661202 75 0 0 0 29.098785
-4.4543562 -0.98581207 0.43008661 130 0 0 0 29.107412
-3.1916809 -3.1920683 0.46575671 81 0 0 0 29.113628
-2.9619114 -3.1768918 0.31990749 89 0 0 0 29.128468
-4.4680953 -1.1649256 0.69276649 95 0 0 0 29.137093
-3.1714978 -3.1841142 0.72165447 75 0 0 0 29.143309
-4.4481869 -1.2408988 0.56296974 121 0 0 0 29.151934
-2.9417629 -3.1649053 0.57183903 87 0 0 0 29.15815
-4.4142442 -1.3119024 0.43709385 110 0 0 0 29.166777
-2.7348981 -3.1518185 0.43717167 84 0 0 0 29.172993
-2.522016 -3.1327469 0.30450243 97 0 0 0 29.187832
-4.442883 -1.4801122 0.7119903 97 0 0 0 29.196457
-2.7329142 -3.134681 0.6702987 93 0 0 0 29.202671
-4.423996 -1.5700622 0.5790922 123 0 0 0 29.211298
-2.5290396 -3.1236019 0.53664368 98 0 0 0 29.217514
-4.3890834 -1.653034 0.44911429 110 0 0 0 29.226139
-2.3320799 -3.1046035 0.41311234 104 0 0 0 29.232355
-2.1350937 -3.0866287 0.2925742 114 0 0 0 29.247196
-4.4076586 -1.8023044 0.73207867 78 0 0 0 29.255819
-2.3612323 -3.1043406 0.63037056 109 0 0 0 29.262035
-4.3917832 -1.9082391 0.59708047 124 0 0 0 29.270662
-2.1602724 -3.0793409 0.50685561 105 0 0 0 29.276878
-4.3549008 -2.0021789 0.46300024 94 0 0 0 29.285503
-1.982208 -3.0664396 0.39544055 117 0 0 0 29.291719
-1.799135 -3.0505457 0.28500816 118 0 0 0 29.306561
-4.3454394 -2.1244833 0.75094414 58 0 0 0 29.315184
-2.0205245 -3.0600252 0.59382582 110 0 0 0 29.3214
-4.3505406 -2.2574375 0.61791062 108 0 0 0 29.330027
-1.844442 -3.0511394 0.48439801 111 0 0 0 29.336243
-4.3126783 -2.3683534 0.48068902 96 0 0 0 29.344868
-1.6762993 -3.0413105 0.38204652 110 0 0 0 29.351084
-1.5011487 -3.023488 0.28070053 98 0 0 0 29.365925
-4.2741904 -2.4546831 0.77267605 40 0 0 0 29.374548
-1.725745 -3.0357764 0.56551921 119 0 0 0 29.380764
-4.3132486 -2.6286743 0.64360565 120 0 0 0 29.389391
-1.5585673 -3.0309787 0.46713835 97 0 0 0 29.395605
-4.2714071 -2.756566 0.50321758 116 0 0 0 29.404232
-1.3943651 -3.0122054 0.3718949 93 0 0 0 29.410448
-1.2281365 -2.9974551 0.27960369 100 0 0 0 29.425287
-4.1350284 -2.7547905 0.78407979 19 0 0 0 29.433912
-1.4529392 -3.0085523 0.54042971 100 0 0 0 29.440128
-4.2749081 -3.0259492 0.67409182 100 0 0 0 29.448753
-1.2916844 -3.0008261 0.45112589 102 0 0 0 29.454969
-4.2300935 -3.1758084 0.52950668 101 0 0 0 29.463596
-1.136404 -2.9881248 0.36491314 102 0 0 0 29.469812
-4.1323833 -3.3035634 0.37265119 77 0 0 0 29.478436
-0.97710627 -2.9774382 0.28065178 106 0 0 0 29.484652
-4.0477271 -3.1050234 0.81053209 19 0 0 0 29.493277
-1.2040894 -2.9873688 0.52050173 103 0 0 0 29.499493
-1.046731 -2.9757109 0.43828407 111 0 0 0 29.7005
-0.89338881 -2.9530635 0.3591761 96 0 0 0 29.71534
-0.73802751 -2.9434304 0.28194961 99 0 0 0 29.730183
-0.96818191 -2.9622104 0.50274265 107 0 0 0 29.745024
-0.81479645 -2.9466016 0.42858085 105 0 0 0 29.759865
-0.66639388 -2.9290094 0.35647753 109 0 0 0 29.774704
-0.51497287 -2.9204316 0.28627899 103 0 0 0 29.789545
-0.74628896 -2.9380615 0.48808712 108 0 0 0 29.804388
-0.59783483 -2.9275157 0.4219299 103 0 0 0 29.819227
-0.45237324 -2.9079785 0.35686958 100 0 0 0 29.834068
-0.30190113 -2.9004476 0.29267389 105 0 0 0 29.848909
-0.53536981 -2.9189358 0.47648957 106 0 0 0 29.863752
-0.3878659 -2.901437 0.41639817 112 0 0 0 29.878592
-0.24633445 -2.8959622 0.35926294 113 0 0 0 29.893433
-0.095821626 -2.8784699 0.30014849 107 0 0 0 29.908274
-0.33144298 -2.8938174 0.46600312 116 0 0 0 29.923117
-0.18687055 -2.8833811 0.41388366 108 0 0 0 29.937956
-0.044299476 -2.8629451 0.36186051 116 0 0 0 29.952797
0.10428251 -2.8565149 0.31067821 117 0 0 0 29.967638
-0.13349003 -2.8747211 0.4585245 123 0 0 0 29.982479
0.010140842 -2.862339 0.41343123 115 0 0 0 29.99732
0.15176377 -2.8499494 0.36735561 123 0 0 0 30.012159
0.30339512 -2.8385646 0.32219011 117 0 0 0 30.027002
0.059470769 -2.8526313 0.45211616 120 0 0 0 30.041843
0.20416902 -2.8433108 0.41499314 114 0 0 0 30.056684
0.34784192 -2.8299668 0.37491098 116 0 0 0 30.071524
0.50152314 -2.8176279 0.33573908 128 0 0 0 30.086367
0.25245687 -2.8335624 0.44868922 126 0 0 0 30.101208
0.39920571 -2.8272874 0.4175283 126 0 0 0 30.116049
0.54293573 -2.8079977 0.38449541 113 0 0 0 30.130888
0.69966626 -2.7927039 0.35132465 111 0 0 0 30.145729
0.44545934 -2.814507 0.44726732 125 0 0 0 30.160572
0.59239179 -2.8012061 0.42245147 117 0 0 0 30.790752
0.74218404 -2.7889595 0.39633727 129 0 0 0 30.805592
0.90297556 -2.774709 0.37015051 117 0 0 0 30.820435
0.63960004 -2.7923794 0.44715998 115 0 0 0 30.835276
0.79045695 -2.7791939 0.4290466 114 0 0 0 30.850117
0.92119896 -2.7009234 0.39960167 131 0 0 0 30.864956
1.0388877 -2.5766201 0.36561993 119 0 0 0 30.879799
0.83863389 -2.7763338 0.44970331 124 0 0 0 30.89464
0.93227392 -2.5930092 0.4123739 115 0 0 0 30.909479
1.0751506 -2.563849 0.39745235 137 0 0 0 30.92432
1.2410818 -2.5577257 0.38816726 107 0 0 0 30.939161
0.97939223 -2.5860944 0.42607129 120 0 0 0 30.954004
1.1283697 -2.5710237 0.4229936 121 0 0 0 30.968843
1.2813215 -2.5519278 0.41691583 118 0 0 0 30.983685
1.4733653 -2.5748935 0.42019859 150 0 0 0 30.998526
1.1764463 -2.5610683 0.43170908 113 0 0 0 31.013369
1.3324797 -2.5460477 0.43557721 111 0 0 0 31.028208
1.5927936 -2.6962082 0.46632957 126 0 0 0 31.043049
1.7838411 -2.678189 0.47194198 101 0 0 0 31.05789
1.3885338 -2.5440643 0.44116929 116 0 0 0 31.072733
1.6579465 -2.7013125 0.48379809 118 0 0 0 31.087572
1.8350147 -2.6713212 0.49261779 110 0 0 0 31.102411
2.4525213 -2.5996139 0.55622572 117 0 0 0 31.117176
2.0351243 -2.6483591 0.50619942 106 0 0 0 31.117254
7.5893874 -2.0576737 1.2911955 39 0 0 0 31.120808
2.6758454 -2.5728505 0.59665471 111 0 0 0 31.132015
1.7179407 -2.6872718 0.48245633 112 0 0 0 31.132095
7.6795158 -1.7788085 1.4446673 108 0 0 0 31.135651
2.9412746 -2.5541704 0.64968544 101 0 0 0 31.146856
1.9021084 -2.669369 0.50312817 112 0 0 0 31.146936
7.9570789 -1.5292883 1.6504108 19 0 0 0 31.150492
2.5453854 -2.5874324 0.53861302 119 0 0 0 31.161697
2.092257 -2.6424482 0.52182293 96 0 0 0 31.161776
7.7291059 -1.8114306 1.1430588 98 0 0 0 31.165333
2.7748144 -2.5647655 0.59196466 114 0 0 0 31.17654
2.3044529 -2.6155646 0.54634213 102 0 0 0 31.176619
7.8614721 -1.5607713 1.3249754 17 0 0 0 31.180172
3.0322669 -2.5451095 0.6480701 98 0 0 0 31.19138
1.9710629 -2.6582842 0.49669459 107 0 0 0 31.19146
8.7289839 -1.4159232 1.6421899 49 0 0 0 31.195015
3.3097849 -2.5085154 0.71314788 90 0 0 0 31.206221
2.1663091 -2.6374528 0.52730429 109 0 0 0 31.206301
9.4215593 -1.1842259 1.9724829 145 0 0 0 31.209856
2.8886373 -2.5525346 0.56918859 102 0 0 0 31.221062
2.3685358 -2.6076028 0.55592889 127 0 0 0 31.22114
8.774066 -1.408067 1.2789332 53 0 0 0 31.224695
3.1491852 -2.5329688 0.6372723 98 0 0 0 31.235905
2.6008263 -2.5808017 0.59229094 117 0 0 0 31.235983
8.8836679 -1.1326525 1.492228 101 0 0 0 31.239536
3.4187269 -2.4973986 0.70540929 96 0 0 0 31.250744
2.2462225 -2.6263232 0.51578653 115 0 0 0 31.250824
9.5230551 -0.89679331 1.7999837 31 0 0 0 31.254377
3.7344022 -2.4599407 0.79019457 73 0 0 0 31.265585
9.4545517 -0.57136202 2.0040903 7 0 0 0 31.26922
3.2819493 -2.5146737 0.60739642 88 0 0 0 31.280426
9.5827017 -0.84652257 1.3839389 9 0 0 0 31.28406
3.5626032 -2.4832056 0.68941689 94 0 0 0 31.295267
9.5162954 -0.55217451 1.598788 8 0 0 0 31.298901
3.8793108 -2.4507756 0.77815908 75 0 0 0 31.310108
9.4357738 -0.25372368 1.7997791 10 0 0 0 31.313742
4.1860518 -2.3773956 0.87329894 110 0 0 0 31.324947
9.3823957 0.039599743 2.0185132 15 0 0 0 31.328585
3.7321358 -2.4651318 0.6532144 80 0 0 0 31.33979
9.515317 -0.15808557 1.3718094 12 0 0 0 31.343424
4.0619659 -2.4368355 0.7568205 79 0 0 0 31.354631
9.5471601 0.10508446 1.6136301 1 0 0 0 31.358265
4.2375145 -2.2943454 0.83053857 66 0 0 0 31.369473
9.1743183 0.36579362 1.7716579 51 0 0 0 31.373106
4.113574 -1.991518 0.85087937 71 0 0 0 31.384312
9.1110163 0.62707227 1.9962196 28 0 0 0 31.387947
4.2255421 -2.3813689 0.70499414 94 0 0 0 31.399155
9.3058643 0.50914615 1.3457479 51 0 0 0 31.402788
4.1377916 -2.1087062 0.7478137 102 0 0 0 31.413996
9.1745396 0.7364341 1.5665894 56 0 0 0 31.417627
4.1821923 -1.9131285 0.80598605 51 0 0 0 31.428837
9.0761623 0.97277939 1.7812357 20 0 0 0 31.43247
5.5129628 -2.2362995 1.1349328 89 0 0 0 31.443676
9.1692171 1.2277576 2.0505018 32 0 0 0 31.447311
4.1771355 -1.9800743 0.67053902 55 0 0 0 31.458517
9.0344133 1.1463552 1.3199345 39 0 0 0 31.462152
4.7374659 -2.0171697 0.83382022 39 0 0 0 31.47336
9.0072603 1.3555098 1.5618029 41 0 0 0 31.476992
5.0634785 -1.917069 0.96402287 17 0 0 0 31.488199
9.011116 1.5806599 1.8055465 30 0 0 0 31.491835
6.5075846 -2.1565456 1.3387376 35 0 0 0 31.50304
8.9349594 1.7907995 2.0478106 83 0 0 0 31.506676
4.5233216 -1.7651792 0.70151109 22 0 0 0 31.517881
9.1334467 1.8331857 1.3565435 20 0 0 0 31.521517
6.3436527 -2.2006938 1.0947394 35 0 0 0 31.532724
9.1404505 2.0302005 1.6180457 55 0 0 0 31.536356
5.4799638 -1.6644495 1.034742 71 0 0 0 31.547564
9.0783176 2.2253232 1.8630809 47 0 0 0 31.551197
7.6714988 -2.000036 1.5828165 99 0 0 0 31.562405
8.9161234 2.3914819 2.0996866 46 0 0 0 31.56604
5.4803295 -1.7028387 0.82747579 25 0 0 0 31.577246
8.9331865 2.4682152 1.3561217 37 0 0 0 31.580879
8.9222136 2.6422102 1.6216114 49 0 0 0 31.609461
8.9322309 2.8372061 1.88607 44 0 0 0 31.6243
8.7861252 2.9782877 2.1333508 59 0 0 0 31.639139
8.9231997 3.1730151 1.3947386 43 0 0 0 31.653982
9.0044355 3.3588228 1.6865629 30 0 0 0 31.668823
8.7801924 3.449024 1.9150679 55 0 0 0 31.683664
8.8074598 3.6297839 2.2112796 38 0 0 0 31.698503
8.9593372 3.9266782 1.4513313 36 0 0 0 31.713346
8.7542763 3.9777184 1.7013822 33 0 0 0 31.728188
8.8345709 4.1764603 2.0023112 26 0 0 0 31.743029
8.6866055 4.2594142 2.2661538 48 0 0 0 31.757868
8.8734055 4.678359 1.5008621 41 0 0 0 31.772711
8.752532 4.7372394 1.7753054 25 0 0 0 31.787552
8.6145458 4.8012209 2.0359206 56 0 0 0 31.802391
8.6138926 4.9358997 2.341996 49 0 0 0 31.817232
8.8155861 5.4899111 1.5686175 63 0 0 0 31.832073
8.7388487 5.5456715 1.8606867 65 0 0 0 31.846916
8.6820889 5.6344461 2.1518502 68 0 0 0 31.861755
8.6264563 5.718101 2.4589658 74 0 0 0 31.876596
7.9518585 5.7862277 1.5007539 54 0 0 0 31.891438
7.8930135 5.8181028 1.7784941 58 0 0 0 31.906281
7.4924984 5.6135883 1.9611077 43 0 0 0 31.92112
8.2592964 6.2759361 2.4761887 81 0 0 0 31.935961
7.3014274 6.1602926 1.4737833 57 0 0 0 31.950802
7.23948 6.1552744 1.7372615 54 0 0 0 31.965645
7.166441 6.159337 1.9898949 55 0 0 0 31.980484
7.0974803 6.1593251 2.2524652 57 0 0 0 31.995323
6.191433 6.0399013 1.352615 56 0 0 0 32.010166
6.1763067 6.041069 1.5937676 72 0 0 0 32.025009
6.1391149 6.0462899 1.8271235 71 0 0 0 32.039848
6.1169925 6.0504484 2.0693536 53 0 0 0 32.054688
4.8169842 5.4260221 1.1487218 72 0 0 0 32.06953
4.8200188 5.4198952 1.3489649 56 0 0 0 32.685562
4.8024826 5.4124479 1.5410616 30 0 0 0 32.700405
5.2861404 5.9608049 1.9205164 84 0 0 0 32.715244
4.1960907 5.4754901 1.1081758 81 0 0 0 32.730087
4.2135081 5.4631042 1.2939646 40 0 0 0 32.744926
4.3271222 5.5975027 1.514125 32 0 0 0 32.759769
4.566165 5.8864665 1.7994936 101 0 0 0 32.774609
3.4775083 5.2808185 1.0292243 91 0 0 0 32.789452
3.8524573 5.7868395 1.3151861 118 0 0 0 32.804291
3.8888588 5.8014627 1.5010319 106 0 0 0 32.819134
3.9273148 5.8100357 1.6938169 106 0 0 0 32.833973
2.9241669 5.2219176 0.98901719 88 0 0 0 32.848812
3.2549691 5.7190642 1.2562481 118 0 0 0 32.863655
3.3052664 5.7387924 1.4290239 116 0 0 0 32.878494
3.3505926 5.741497 1.60471 106 0 0 0 32.893337
2.4319234 5.1849327 0.96249509 82 0 0 0 32.908176
2.7295847 5.6772017 1.2119405 128 0 0 0 32.923019
2.7807701 5.6860447 1.3696256 115 0 0 0 32.937859
2.8379934 5.6918535 1.5322424 116 0 0 0 32.952702
2.1581402 5.6063809 1.0247458 110 0 0 0 32.967541
2.2342603 5.6212955 1.1742849 120 0 0 0 32.982384
2.272289 5.5843062 1.3087237 83 0 0 0 32.997223
0.82811701 4.8621106 0.9832601 72 0 0 0 33.009148
2.3584781 5.6451359 1.4705324 103 0 0 0 33.012066
0.89483464 4.8594255 1.0787328 68 0 0 0 33.023987
1.5676167 5.1488075 0.93478382 60 0 0 0 33.026905
1.0934535 5.5146089 1.3351496 108 0 0 0 33.03883
1.68369 5.283731 1.0859197 91 0 0 0 33.041748
0.43273628 5.2521009 0.96416891 96 0 0 0 33.053669
1.8420001 5.5823641 1.2789658 102 0 0 0 33.056587
0.53156036 5.3472795 1.0801318 150 0 0 0 33.068508
1.9140265 5.5943689 1.4165138 98 0 0 0 33.071426
0.62141538 5.4564161 1.201268 91 0 0 0 33.083351
1.1153082 4.8839955 0.88421118 58 0 0 0 33.086269
0.70518106 5.47368 1.3047608 103 0 0 0 33.09819
1.1901331 4.8922038 0.99470711 71 0 0 0 33.101112
0.057762329 5.2188787 0.97273076 94 0 0 0 33.113033
1.2509358 4.8984275 1.1022948 64 0 0 0 33.115952
0.1514114 5.2262683 1.0600728 97 0 0 0 33.127872
1.4926616 5.5565176 1.374406 111 0 0 0 33.130791
0.23207311 5.238636 1.1495513 88 0 0 0 33.142715
0.74926084 4.8528557 0.88272983 59 0 0 0 33.145634
0.31871131 5.2510295 1.235985 94 0 0 0 33.157555
-0.31802347 5.3563852 1.0175691 105 0 0 0 33.172398
-0.21543495 5.3598394 1.0968133 102 0 0 0 33.187237
-0.12882672 5.3862553 1.1803513 106 0 0 0 33.20208
-0.037440266 5.2339787 1.222514 104 0 0 0 33.216919
-0.69592118 5.3190789 1.0361018 104 0 0 0 33.231758
-0.59139705 5.3285937 1.1073765 101 0 0 0 33.246601
-0.50087661 5.3461027 1.1788172 109 0 0 0 33.261444
-1.8275875 4.4555898 1.029153 15 0 0 0 33.265385
-0.40439048 5.3546519 1.2451464 106 0 0 0 33.276283
-1.7294422 4.4554825 1.0493994 22 0 0 0 33.280224
-1.0737752 5.2847228 1.0606465 102 0 0 0 33.291122
-1.6333207 4.4573965 1.0666765 16 0 0 0 33.295063
-0.96134841 5.2903399 1.118832 101 0 0 0 33.305965
-2.1607668 4.1467214 0.98930955 17 0 0 0 33.309906
-0.86690974 5.3029332 1.1792058 86 0 0 0 33.320808
-2.0566959 4.1606841 1.0006163 22 0 0 0 33.324749
-0.75264847 5.1937728 1.2075199 18 0 0 0 33.335648
-1.9636154 4.1716337 1.0129839 24 0 0 0 33.339588
-1.4525975 5.23034 1.088039 75 0 0 0 33.350487
-1.8875276 4.2155519 1.0287263 24 0 0 0 33.354427
-1.3113662 5.1362152 1.1132618 17 0 0 0 33.36533
-2.3398268 3.8178096 0.9641397 24 0 0 0 33.36927
-1.1861511 5.0301046 1.1355166 17 0 0 0 33.380173
-2.2567914 3.861783 0.97282958 30 0 0 0 33.384113
-1.0679723 4.9380207 1.1539299 16 0 0 0 33.395012
-2.1887367 3.9137263 0.98469204 36 0 0 0 33.398952
-1.7207326 4.8464842 1.0501295 17 0 0 0 33.409851
-2.1226997 3.9706838 0.99460715 33 0 0 0 33.413792
-1.5845693 4.7874084 1.0686536 15 0 0 0 33.424694
-2.4948652 3.4998856 0.94187129 27 0 0 0 33.428635
-1.4614279 4.7123561 1.0831572 15 0 0 0 33.439537
-2.4268816 3.5598958 0.94479412 30 0 0 0 33.443478
-1.3532741 4.6752653 1.1020577 17 0 0 0 33.454376
-2.3808529 3.6358416 0.95500106 30 0 0 0 33.458317
-1.9518496 4.4816213 1.015082 17 0 0 0 33.469215
-2.3428464 3.7267978 0.9633798 32 0 0 0 33.473156
-2.6448483 3.2158942 0.92881846 26 0 0 0 33.487999
-2.5999031 3.2949212 0.92805576 35 0 0 0 33.502838
-2.569917 3.3818955 0.93346447 33 0 0 0 33.517681
-2.5429707 3.4739056 0.93393308 31 0 0 0 33.53252
-2.7718282 2.9319131 0.91559362 35 0 0 0 33.547363
-2.760895 3.0369213 0.91527843 60 0 0 0 33.562202
-2.7589335 3.1458943 0.91905975 60 0 0 0 33.577045
-2.7500288 3.2469313 0.91472942 74 0 0 0 33.591885
-2.8688188 2.6449621 0.90012318 35 0 0 0 33.606728
-3.0678568 2.2111158 0.86437106 32 0 0 0 33.615784
-2.8649414 2.7430255 0.89180815 35 0 0 0 33.621567
-3.1299789 2.3281348 0.85768908 31 0 0 0 33.630627
-2.8810177 2.8530259 0.89073068 35 0 0 0 33.63641
-3.2131321 2.4631636 0.8482967 39 0 0 0 33.64547
-2.9280882 2.9969857 0.8931362 25 0 0 0 33.651249
-3.0976164 1.857018 0.87291849 30 0 0 0 33.660309
-2.9488029 2.3670108 0.88559431 31 0 0 0 33.666088
-3.1727798 1.9680741 0.86028826 43 0 0 0 33.675152
-2.9739301 2.4750581 0.87756896 34 0 0 0 33.680931
-3.2409482 2.0731416 0.84656042 33 0 0 0 33.689991
-3.0200267 2.5970559 0.87480295 32 0 0 0 33.69577
-3.3411338 2.1991975 0.8322258 36 0 0 0 33.70483
-3.0671685 2.7200973 0.86605144 36 0 0 0 33.710613
-3.1565292 1.6119941 0.86948109 29 0 0 0 33.719673
-3.0267406 2.1070075 0.87818551 33 0 0 0 33.725456
-3.2397237 1.7110827 0.85181981 34 0 0 0 33.734512
-3.3299186 1.8111669 0.83421701 33 0 0 0 33.749355
-3.4411428 1.9252608 0.81387311 34 0 0 0 33.764194
-3.2064202 1.3729523 0.86902308 27 0 0 0 33.779037
-3.3016458 1.4610707 0.84636784 38 0 0 0 33.79388
-3.3988714 1.5491875 0.82372642 30 0 0 0 33.80872
-3.5411062 1.6572778 0.80156565 30 0 0 0 33.823559
-3.2443101 1.1369166 0.86850041 30 0 0 0 33.838402
-3.353559 1.2140561 0.84186584 32 0 0 0 33.853241
-3.4787805 1.2961563 0.81938523 30 0 0 0 33.868084
-3.6430237 1.3932478 0.79530311 32 0 0 0 33.882923
-3.2681992 0.90388846 0.86789876 34 0 0 0 33.897762
-3.3904555 0.96803474 0.83926219 42 0 0 0 33.912609
-3.5326924 1.0381465 0.81381649 35 0 0 0 33.927448
-3.708955 1.11726 0.78568721 38 0 0 0 33.942287
-3.6215086 -0.77618468 0.83584994 19 0 0 0 34.190655
-3.8697844 -0.86400563 0.79200685 37 0 0 0 34.205498
-3.1499076 -0.84748518 0.91085571 4 0 0 0 34.220337
-3.3461108 -0.93534803 0.87663239 41 0 0 0 34.23518
-3.5762906 -1.0372467 0.84455311 40 0 0 0 34.250019
-3.8265474 -1.1560698 0.80049419 38 0 0 0 34.264858
-3.1056876 -1.0595751 0.923935 38 0 0 0 34.279705
-3.3028684 -1.1724466 0.89053333 42 0 0 0 34.294544
-3.5340309 -1.3023467 0.85825342 41 0 0 0 34.309383
-3.7792761 -1.45216 0.81292796 37 0 0 0 34.324223
-3.0514586 -1.2716655 0.9379456 39 0 0 0 34.339066
-3.233649 -1.4045063 0.90128636 43 0 0 0 34.353909
-3.4677618 -1.5674382 0.87278384 42 0 0 0 34.368748
-3.7169704 -1.7522695 0.82922846 37 0 0 0 34.383587
-2.9812376 -1.4797376 0.95087373 39 0 0 0 34.398434
-3.1654027 -1.6406975 0.91779071 44 0 0 0 34.831039
-3.3795207 -1.8245989 0.88497531 39 0 0 0 34.845882
-3.6346521 -2.0524838 0.84613204 37 0 0 0 34.860725
-2.8940568 -1.6818579 0.96152484 39 0 0 0 34.875565
-3.0731435 -1.8697654 0.93242943 44 0 0 0 34.890408
-3.2872083 -2.0896964 0.90335041 35 0 0 0 34.905247
-3.531301 -2.3535891 0.86616498 36 0 0 0 34.92009
-2.8087964 -1.8889434 0.97837996 42 0 0 0 34.934929
-2.9708757 -2.0978327 0.94800967 34 0 0 0 34.949768
-3.1828728 -2.3538063 0.92465341 33 0 0 0 34.964611
-3.4149175 -2.6567128 0.89009756 32 0 0 0 34.97945
-2.7344589 -2.1131003 1.0041946 42 0 0 0 34.994293
-2.8625674 -2.3299305 0.96852392 34 0 0 0 35.009136
-3.0615199 -2.6199172 0.9478271 33 0 0 0 35.023975
-3.2894738 -2.9718795 0.92088586 34 0 0 0 35.038815
-2.6062493 -2.3031101 1.0148782 29 0 0 0 35.053658
-2.7482257 -2.5670514 0.99296522 35 0 0 0 35.068497
-1.8481113 -3.0342474 0.96016312 100 0 0 0 35.072414
-2.934109 -2.8950727 0.97789955 33 0 0 0 35.08334
-1.6889076 -3.0163388 0.84915388 106 0 0 0 35.087257
-3.02336 -3.161695 0.91659009 75 0 0 0 35.098179
-1.5336449 -3.0114834 0.74507922 98 0 0 0 35.1021
-2.4779918 -2.4981623 1.0315312 31 0 0 0 35.113022
-1.716644 -3.0096533 1.0274073 109 0 0 0 35.11694
-2.6288321 -2.8152103 1.0232973 32 0 0 0 35.127865
-1.5663742 -3.0158007 0.92328936 97 0 0 0 35.131779
-2.75281 -3.1271026 0.99590909 92 0 0 0 35.142704
-1.4140965 -2.999969 0.82231772 100 0 0 0 35.146626
-2.5688071 -3.1149671 0.85567999 94 0 0 0 35.157543
-1.2587942 -2.9881568 0.72429669 93 0 0 0 35.161465
-2.3616393 -2.7162998 1.0591084 33 0 0 0 35.172382
-1.4559194 -2.9942045 0.98866528 91 0 0 0 35.176304
-2.5083671 -3.0824244 1.0614909 57 0 0 0 35.187225
-1.3006159 -2.9843919 0.8906306 94 0 0 0 35.191143
-2.3562346 -3.0924263 0.9373306 97 0 0 0 35.202068
-1.1532702 -2.9726284 0.79866785 90 0 0 0 35.205982
-2.1791561 -3.073375 0.80820501 106 0 0 0 35.216908
-1.0009042 -2.9588828 0.70968503 92 0 0 0 35.220829
-2.2412329 -2.9484756 1.0925617 32 0 0 0 35.231747
-1.2071866 -2.9677765 0.95209479 91 0 0 0 35.235668
-2.1677346 -3.0688274 1.009163 101 0 0 0 35.246593
-1.0568101 -2.959039 0.86409068 93 0 0 0 35.250507
-2.0026052 -3.049835 0.88712418 117 0 0 0 35.261433
-0.91141629 -2.9433272 0.77917343 100 0 0 0 35.26535
-1.8354374 -3.0348768 0.77004313 105 0 0 0 35.276272
-0.7619918 -2.9306412 0.69820696 96 0 0 0 35.280193
-2.0132427 -3.0452433 1.0802392 107 0 0 0 35.291111
-0.97739267 -2.9464173 0.92362845 98 0 0 0 35.295033
-0.82797593 -2.9327238 0.84167004 93 0 0 0 35.309872
-0.68550831 -2.9200857 0.76675439 95 0 0 0 35.324711
-0.53603601 -2.9034495 0.6928193 109 0 0 0 35.339558
-0.76155931 -2.9301021 0.90023035 111 0 0 0 35.354397
-0.61208838 -2.9114656 0.82631046 106 0 0 0 35.369236
-0.46957323 -2.8948777 0.75842607 111 0 0 0 35.384079
-0.32302079 -2.891315 0.69442022 105 0 0 0 35.398918
-0.55172849 -2.8987963 0.8779887 107 0 0 0 35.413761
-0.40617234 -2.8902416 0.8150267 113 0 0 0 35.4286
-0.26359665 -2.8787105 0.75510836 112 0 0 0 35.443439
-0.11399902 -2.8681955 0.69813436 106 0 0 0 35.458282
-0.35183001 -2.8835533 0.86370671 112 0 0 0 35.473125
-0.20621891 -2.8720555 0.80876863 110 0 0 0 35.487965
-0.062602468 -2.8575664 0.75486714 111 0 0 0 35.502808
0.087045647 -2.8481011 0.70488834 112 0 0 0 35.517647
-0.1579129 -2.8643341 0.8525008 112 0 0 0 35.53249
-0.011227025 -2.8578923 0.80654794 115 0 0 0 35.625774
0.13243634 -2.8384521 0.75968719 102 0 0 0 35.640617
0.28713465 -2.8290319 0.7166785 116 0 0 0 35.65546
0.033031438 -2.8441286 0.84435487 112 0 0 0 35.6703
0.18076757 -2.8387494 0.80636662 113 0 0 0 35.685139
0.32747874 -2.8173566 0.76650155 111 0 0 0 35.699986
0.48622265 -2.802983 0.73050338 113 0 0 0 35.714825
0.22199899 -2.8269579 0.84018272 115 0 0 0 35.729664
0.37177858 -2.8136268 0.8092404 120 0 0 0 35.744503
0.52154785 -2.7952881 0.77733505 123 0 0 0 35.759342
0.6843462 -2.7789679 0.74932581 110 0 0 0 35.774189
0.41099426 -2.8098135 0.84001541 125 0 0 0 35.789028
0.56382823 -2.7945366 0.81706887 115 0 0 0 35.803867
0.71865249 -2.7752504 0.79313827 104 0 0 0 35.81871
0.85625058 -2.6628146 0.74699527 150 0 0 0 35.833553
0.60301703 -2.7926931 0.84383214 115 0 0 0 35.848392
0.7599141 -2.7784767 0.829853 118 0 0 0 35.863232
0.86331171 -2.5889182 0.76349974 111 0 0 0 35.878071
1.028235 -2.5727234 0.75348091 106 0 0 0 35.892918
0.79604954 -2.7705846 0.84968293 122 0 0 0 35.907757
0.89951205 -2.5850899 0.7923007 119 0 0 0 35.922596
1.0554608 -2.5659304 0.78636718 107 0 0 0 35.937439
1.2314558 -2.553797 0.78624618 106 0 0 0 35.952278
0.93563032 -2.5831754 0.80908877 113 0 0 0 35.967121
1.0915011 -2.5621135 0.81018543 120 0 0 0 35.98196
1.6013403 -2.6825337 0.91679299 109 0 0 0 35.983032
1.2575229 -2.5480263 0.81414241 108 0 0 0 35.996799
1.7975007 -2.659574 0.94160712 95 0 0 0 35.997871
1.5360752 -2.697288 0.87715822 115 0 0 0 36.011642
2.0197151 -2.6356518 0.97424901 110 0 0 0 36.012714
1.1265762 -2.5591578 0.82098883 126 0 0 0 36.026485
1.6443509 -2.6775055 0.91856152 126 0 0 0 36.027557
1.2936603 -2.5451334 0.83394015 114 0 0 0 36.041325
1.8435905 -2.659621 0.95432061 116 0 0 0 36.042397
1.5632439 -2.689436 0.90205735 104 0 0 0 36.056168
2.0548325 -2.6357341 0.99104083 104 0 0 0 36.05724
1.7683594 -2.6624255 0.92084104 98 0 0 0 36.071007
2.2830966 -2.5948701 1.0327655 106 0 0 0 36.072079
1.3337153 -2.5441515 0.84169728 117 0 0 0 36.08585
1.887548 -2.6485407 0.94912821 112 0 0 0 36.086922
2.1028771 -2.6317353 0.99777234 109 0 0 0 36.101761
2.3221796 -2.5969124 1.0445186 122 0 0 0 36.1166
2.5826001 -2.5651793 1.1079609 112 0 0 0 36.131443
2.1507919 -2.6196084 0.98656267 118 0 0 0 36.146282
2.3761952 -2.5918791 1.0472192 111 0 0 0 36.161125
2.6266394 -2.5651731 1.1136973 106 0 0 0 36.175968
2.917196 -2.5335577 1.1969362 103 0 0 0 36.190807
2.4400992 -2.5857244 1.03386 117 0 0 0 36.205647
2.6906199 -2.5610952 1.111326 114 0 0 0 36.22049
2.9722004 -2.535506 1.1975869 92 0 0 0 36.235329
3.284869 -2.4899995 1.2987779 86 0 0 0 36.250172
2.7674887 -2.5548935 1.0928813 128 0 0 0 36.265011
3.0431278 -2.5253711 1.1882145 97 0 0 0 36.279854
3.3468208 -2.4868906 1.2924206 96 0 0 0 36.294697
3.7106934 -2.4435556 1.423251 74 0 0 0 36.309536
3.1339586 -2.5151215 1.1647069 95 0 0 0 36.324375
3.4387264 -2.4777162 1.2799016 91 0 0 0 36.339214
3.7926166 -2.4414005 1.4127547 79 0 0 0 36.354057
4.1164241 -2.3370724 1.5412977 62 0 0 0 36.3689
3.5515206 -2.4664123 1.2512556 92 0 0 0 36.383739
3.9074917 -2.4301779 1.3960981 80 0 0 0 36.398579
4.0498161 -2.2395484 1.4644946 65 0 0 0 36.413425
4.0377274 -1.9546772 1.4836124 71 0 0 0 36.428265
4.0602779 -2.4198332 1.3661777 84 0 0 0 36.443104
4.048243 -2.1498904 1.3975406 67 0 0 0 36.755981
4.0382242 -1.89108 1.4254482 62 0 0 0 36.770821
4.2127719 -1.7096564 1.5275664 15 0 0 0 36.78566
4.060596 -2.0512686 1.3141991 66 0 0 0 36.800503
4.0476956 -1.8075726 1.3580191 72 0 0 0 36.815346
4.3897181 -1.7094485 1.5204248 24 0 0 0 36.830185
6.4213924 -2.1304486 2.3058143 35 0 0 0 36.845024
4.0860944 -1.7169725 1.2804437 42 0 0 0 36.859863
4.7850795 -1.7564638 1.5684856 17 0 0 0 36.874706
6.7082744 -2.1090972 2.2921071 35 0 0 0 36.889549
7.2751775 -1.8998049 2.5988002 16 0 0 0 36.904388
6.3519096 -2.1598494 1.937185 37 0 0 0 36.919231
7.1162429 -2.0727518 2.292697 38 0 0 0 36.934071
7.9838967 -1.9369477 2.7018633 37 0 0 0 36.948914
7.2185807 -1.3946098 2.5748336 12 0 0 0 36.963753
7.6411238 -2.0132389 2.2826712 40 0 0 0 36.978592
8.6762524 -1.8957834 2.7605975 39 0 0 0 36.993435
8.0414724 -1.3928742 2.708411 12 0 0 0 37.008278
7.2512836 -0.92163682 2.5920358 24 0 0 0 37.023117
9.0855112 -1.7198025 2.6731803 108 0 0 0 37.03796
9.2739258 -1.3704135 2.9274101 63 0 0 0 37.052799
7.9547772 -0.83864492 2.6769879 15 0 0 0 37.067638
7.0845523 -0.44137836 2.5466142 13 0 0 0 37.082481
9.2992172 -1.0868143 2.7103157 130 0 0 0 37.097321
9.0077229 -0.70588595 2.8349683 3 0 0 0 37.112164
8.9397163 0.52708697 2.8370638 34 0 0 0 37.120583
7.8741789 -0.30450255 2.6583736 17 0 0 0 37.127003
7.521862 0.70775127 2.587817 17 0 0 0 37.135426
6.8968501 0.013847046 2.5031469 15 0 0 0 37.141846
6.5798354 0.85795069 2.457175 20 0 0 0 37.150265
9.0661716 0.87453407 2.6527264 55 0 0 0 37.165104
8.9190197 -0.085711122 2.8120184 5 0 0 0 37.171528
8.6798439 1.1133233 2.7860069 23 0 0 0 37.179947
7.7465563 0.21363519 2.6349509 17 0 0 0 37.186367
7.2731237 1.1749482 2.5418322 17 0 0 0 37.19479
6.7051992 0.44203231 2.4645054 15 0 0 0 37.201206
6.3452015 1.2431132 2.4165084 18 0 0 0 37.209629
9.0445127 0.22672829 2.6284454 11 0 0 0 37.216049
8.8604288 1.496645 2.6255538 49 0 0 0 37.224472
8.2767782 1.6466829 2.7005169 13 0 0 0 37.239311
