# .PCD v0.7 - Point Cloud Data file format
VERSION 0.7
FIELDS x y z intensity normal_x normal_y normal_z curvature
SIZE 4 4 4 4 4 4 4 4
TYPE F F F F F F F F
COUNT 1 1 1 1 1 1 1 1
WIDTH 953
HEIGHT 1
VIEWPOINT 0 0 0 1 0 0 0
POINTS 953
DATA ascii
-2.0610583 -0.72145516 1.1084256 60 0 0 0 81.400986
-2.2213624 -1.0838983 1.0798998 50 0 0 0 81.40593
-2.1563795 -0.97553629 1.0904537 50 0 0 0 81.410881
-1.9345363 0.57544214 1.0804502 30 0 0 0 81.412895
-2.1014631 -0.87407827 1.10094 55 0 0 0 81.415825
-2.0555332 -0.77053612 1.1123805 61 0 0 0 81.420769
-2.1988726 -1.1371427 1.0839418 53 0 0 0 81.42572
-2.141886 -1.0277056 1.0954534 51 0 0 0 81.430664
-2.0939758 -0.92618215 1.1069009 55 0 0 0 81.435616
-2.0399368 -0.8157016 1.1103976 51 0 0 0 81.440559
-2.1804209 -1.193352 1.0899564 51 0 0 0 81.445503
-2.1243808 -1.0798995 1.0984695 50 0 0 0 81.450455
-2.0744076 -0.97338939 1.1069366 52 0 0 0 81.455399
-2.0324097 -0.86480129 1.1143636 52 0 0 0 81.460342
-2.148845 -1.2406722 1.0890588 48 0 0 0 81.465294
-2.1028502 -1.1301293 1.1005111 50 0 0 0 81.470238
-2.0628977 -1.0245273 1.1109214 53 0 0 0 81.475182
-2.0258911 -0.91489118 1.1183226 56 0 0 0 81.480133
-2.133426 -1.2988575 1.0980533 49 0 0 0 81.485077
-2.0843482 -1.1823338 1.1045327 48 0 0 0 81.490028
-2.0463719 -1.0747105 1.1139354 53 0 0 0 81.494972
-2.0113366 -0.96305162 1.1193289 58 0 0 0 81.499924
-1.6184903 -2.0969744 1.1994561 37 0 0 0 81.504753
-2.1069224 -1.3511378 1.1021191 51 0 0 0 81.504875
-1.6473793 -1.9836884 1.1935035 40 0 0 0 81.509705
-2.0648355 -1.2335473 1.1085616 45 0 0 0 81.509819
-1.673288 -1.8724308 1.1875635 43 0 0 0 81.514648
-2.0298359 -1.1238934 1.1169512 57 0 0 0 81.514771
-1.7102494 -1.7660707 1.1825546 45 0 0 0 81.5196
-1.9977714 -1.0102022 1.1203316 54 0 0 0 81.519714
-1.5769037 -2.1403952 1.205619 35 0 0 0 81.524544
-2.083447 -1.4053926 1.1081647 46 0 0 0 81.524658
-1.6088032 -2.0280805 1.199648 40 0 0 0 81.529488
-2.0433276 -1.2847811 1.1136014 46 0 0 0 81.52961
-1.6458286 -1.9267257 1.1976299 43 0 0 0 81.534439
-2.0143323 -1.1760681 1.1209561 51 0 0 0 81.534554
-1.6827408 -1.817359 1.1886263 38 0 0 0 81.539383
-1.9822148 -1.0583714 1.1213435 51 0 0 0 81.539497
-1.5353366 -2.184818 1.2137796 42 0 0 0 81.544327
-2.0579519 -1.457666 1.1142249 46 0 0 0 81.544449
-1.5712502 -2.0744641 1.2067833 36 0 0 0 81.549278
-2.0278721 -1.3399627 1.1216013 47 0 0 0 81.549393
-1.6132993 -1.9760604 1.2037324 39 0 0 0 81.554222
-1.9978144 -1.2262539 1.1259704 50 0 0 0 81.554337
-1.6511773 -1.8646793 1.1917272 41 0 0 0 81.559166
-1.9696882 -1.107519 1.1263374 54 0 0 0 81.559288
-1.4938022 -2.2322416 1.2229346 36 0 0 0 81.564117
-2.0294409 -1.5089655 1.1193032 46 0 0 0 81.564232
-1.5347301 -2.1238389 1.2149075 34 0 0 0 81.569061
-2.0033469 -1.3902222 1.1256593 46 0 0 0 81.569183
-1.5726815 -2.0184631 1.2058911 40 0 0 0 81.574013
-1.9782846 -1.276464 1.1290008 49 0 0 0 81.574127
-1.6226909 -1.9179775 1.1988006 35 0 0 0 81.578957
-1.9541445 -1.1566893 1.1283476 50 0 0 0 81.579071
-1.4471753 -2.2717068 1.2291312 32 0 0 0 81.5839
-1.9958898 -1.557308 1.122414 46 0 0 0 81.584023
-1.4941658 -2.1692493 1.2220604 40 0 0 0 81.58886
-1.9757966 -1.4385079 1.1287372 43 0 0 0 81.588966
-1.5391798 -2.0698092 1.2139951 34 0 0 0 81.593803
-1.9577497 -1.3256849 1.1330385 48 0 0 0 81.593918
-1.5881346 -1.9663247 1.2019156 36 0 0 0 81.598755
-1.9406291 -1.2078439 1.1323434 48 0 0 0 81.598862
-1.3995233 -2.3091784 1.2343365 33 0 0 0 81.603699
-1.9653578 -1.6066251 1.1275066 51 0 0 0 81.603806
-1.4536005 -2.2146587 1.2292134 37 0 0 0 81.608643
-1.9532989 -1.4907508 1.1347806 45 0 0 0 81.608757
-1.5046676 -2.1201639 1.2221063 36 0 0 0 81.613594
-1.9392433 -1.3768901 1.1390617 46 0 0 0 81.613701
-1.5566368 -2.0186498 1.2090069 34 0 0 0 81.618538
-1.9210646 -1.2550514 1.134379 50 0 0 0 81.618645
-1.3570114 -2.357614 1.2464943 37 0 0 0 81.623482
-1.9399024 -1.6619011 1.136561 45 0 0 0 81.623596
-1.4140786 -2.263063 1.239355 31 0 0 0 81.628433
-1.9277854 -1.5420198 1.1398422 44 0 0 0 81.628548
-1.4661061 -2.1665523 1.2282463 45 0 0 0 81.633377
-1.9157012 -1.4261366 1.1421158 48 0 0 0 81.633492
-1.524147 -2.0719838 1.2161018 34 0 0 0 81.638321
-1.9085822 -1.308201 1.141366 50 0 0 0 81.638443
-1.3104262 -2.4000814 1.2556844 33 0 0 0 81.643272
-1.9043442 -1.7092623 1.1406842 40 0 0 0 81.643387
-1.372526 -2.3094816 1.2475108 34 0 0 0 81.648216
-1.900252 -1.5913072 1.1449181 45 0 0 0 81.648338
-1.4296212 -2.2189279 1.2383645 33 0 0 0 81.653168
-1.895202 -1.4783595 1.1481482 44 0 0 0 81.653282
-1.4886134 -2.1213431 1.2222199 35 0 0 0 81.658112
-1.8930784 -1.3603752 1.146371 47 0 0 0 81.658226
-1.2617971 -2.4385645 1.2638923 32 0 0 0 81.663055
-1.8768773 -1.7635559 1.1497513 43 0 0 0 81.663177
-1.3259057 -2.3499432 1.2537044 33 0 0 0 81.668007
-1.8747566 -1.6435785 1.1519777 47 0 0 0 81.668121
-1.3880578 -2.2653427 1.2445203 32 0 0 0 81.672951
-1.868643 -1.5266316 1.1502202 48 0 0 0 81.673073
-1.4511223 -2.1717734 1.2282141 36 0 0 0 81.677902
-1.872547 -1.4096248 1.149349 46 0 0 0 81.678017
-1.2163063 -2.4850891 1.2759042 35 0 0 0 81.682846
-1.8454101 -1.8159189 1.1577505 43 0 0 0 81.682961
-1.2783247 -2.3904738 1.2597475 35 0 0 0 81.68779
-1.8482862 -1.6958946 1.1599593 46 0 0 0 81.687912
-1.3455367 -2.3118255 1.2515336 32 0 0 0 81.692741
-1.8421016 -1.5739404 1.1542202 45 0 0 0 81.692856
-1.4146215 -2.2241442 1.2353263 31 0 0 0 81.697685
-1.8520188 -1.4598446 1.15338 44 0 0 0 81.6978
-1.1697637 -2.5305612 1.2880824 33 0 0 0 81.702629
-1.8088367 -1.8612908 1.1628772 44 0 0 0 81.702751
-1.2358203 -2.4399083 1.2718967 31 0 0 0 81.707581
-1.8137031 -1.741244 1.1630751 48 0 0 0 81.707695
-1.3050315 -2.3622382 1.2616706 33 0 0 0 81.712524
-1.8196156 -1.6271838 1.1612563 46 0 0 0 81.712639
-1.375101 -2.274543 1.242458 31 0 0 0 81.717468
-1.8294802 -1.5090827 1.1574234 46 0 0 0 81.71759
-1.1181384 -2.5690737 1.2973003 35 0 0 0 81.722427
-1.7783787 -1.9156159 1.1739546 47 0 0 0 81.722534
-1.1902666 -2.4853668 1.2820694 36 0 0 0 81.727371
-1.7882351 -1.7955185 1.1721255 46 0 0 0 81.727486
-1.2604476 -2.4066803 1.26784 32 0 0 0 81.732323
-1.7920804 -1.67647 1.1663266 45 0 0 0 81.73243
-1.3345941 -2.3259516 1.2505931 30 0 0 0 81.737267
-1.8059351 -1.5583277 1.1604723 42 0 0 0 81.737373
-2.3313103 -0.69616628 1.055236 34 0 0 0 81.739182
-1.0675269 -2.6085777 1.3075106 32 0 0 0 81.74221
-1.744905 -1.9689671 1.1840497 96 0 0 0 81.742325
-1.1447694 -2.5358276 1.2942324 35 0 0 0 81.747162
-1.7587475 -1.8478302 1.181201 40 0 0 0 81.747269
-1.2169498 -2.4581196 1.2779907 32 0 0 0 81.752106
-1.7675829 -1.7287313 1.1733751 47 0 0 0 81.752228
-1.2920662 -2.3763747 1.2567406 30 0 0 0 81.757057
-1.7874719 -1.6135345 1.1684829 51 0 0 0 81.757172
-2.3118043 -0.7503733 1.0552551 46 0 0 0 81.75898
-1.0148958 -2.6460998 1.317735 34 0 0 0 81.762001
-1.7114205 -2.0213175 1.1941466 54 0 0 0 81.762115
-2.2360737 -0.66212052 1.0748262 18 0 0 0 81.763924
-1.0941377 -2.5743277 1.3024445 32 0 0 0 81.766945
-1.7252146 -1.8971734 1.1873034 50 0 0 0 81.767067
-1.1734614 -2.5095613 1.290141 33 0 0 0 81.771896
-1.7441282 -1.7839878 1.1834127 53 0 0 0 81.772011
-1.2516199 -2.4327872 1.2678657 30 0 0 0 81.77684
-1.7629541 -1.6647915 1.1735332 49 0 0 0 81.776955
-2.2993274 -0.80552173 1.0592347 50 0 0 0 81.778763
-0.95916784 -2.6756413 1.32399 42 0 0 0 81.781784
-1.6576514 -2.0508313 1.1913936 34 0 0 0 81.781906
-2.2215445 -0.71328145 1.0758235 49 0 0 0 81.783714
-1.0445718 -2.6188204 1.3126395 32 0 0 0 81.786736
-1.6845703 -1.9375726 1.18846 42 0 0 0 81.78685
-1.1269333 -2.5580268 1.3003128 33 0 0 0 81.791679
-1.7115606 -1.8313155 1.1865133 46 0 0 0 81.791794
-1.212211 -2.4921927 1.2809796 31 0 0 0 81.796623
-1.7323675 -1.7110971 1.1746249 42 0 0 0 81.796745
-0.90659791 -2.7181659 1.3372041 33 0 0 0 81.801575
-0.99401015 -2.6633236 1.3238395 39 0 0 0 81.806519
-1.0773803 -2.6045175 1.309504 33 0 0 0 81.81147
-1.1656997 -2.5436542 1.2891457 32 0 0 0 81.816414
-0.851951 -2.753705 1.3484416 33 0 0 0 81.821358
-0.93934774 -2.6988578 1.3320774 30 0 0 0 81.826309
-1.0288594 -2.6539993 1.3196839 34 0 0 0 81.831253
-1.1171781 -2.5941334 1.2973241 32 0 0 0 81.836205
-0.79320759 -2.7812731 1.355715 33 0 0 0 81.841148
-0.88676566 -2.7413774 1.343291 29 0 0 0 81.846092
-0.97627634 -2.6975162 1.3288959 35 0 0 0 81.851051
-1.0717509 -2.6525903 1.3094712 33 0 0 0 81.855995
-0.73864555 -2.8238165 1.3709384 34 0 0 0 81.860939
-0.83116812 -2.782922 1.3535221 30 0 0 0 81.865891
-0.9247641 -2.7470274 1.341091 33 0 0 0 81.870834
-1.0192086 -2.7011046 1.3176739 34 0 0 0 81.875778
-0.68099236 -2.8583815 1.3831924 34 0 0 0 81.88073
-0.7744993 -2.8174732 1.362771 31 0 0 0 81.885674
-0.86918849 -2.7915697 1.3503165 34 0 0 0 81.890625
-0.97081363 -2.7615929 1.3328327 34 0 0 0 81.895569
-0.62129986 -2.8899603 1.3934621 35 0 0 0 81.900513
-0.71895826 -2.8630226 1.3769938 31 0 0 0 81.905464
-0.81359851 -2.8341126 1.3605453 34 0 0 0 81.910408
-0.36898482 -2.9553473 1.4146903 121 0 0 0 81.911446
-0.91629815 -2.8121271 1.3430417 34 0 0 0 81.915359
-0.47008872 -2.9723918 1.4051237 124 0 0 0 81.916389
-0.56374574 -2.9325318 1.4107002 35 0 0 0 81.920303
-0.57216465 -2.986428 1.3955579 112 0 0 0 81.921333
-0.66036469 -2.9035966 1.3902414 31 0 0 0 81.925247
-0.68024141 -3.0033996 1.3809549 109 0 0 0 81.926285
-0.75601703 -2.8776729 1.3707824 35 0 0 0 81.930199
-0.3027356 -2.9379454 1.4060816 120 0 0 0 81.931229
-0.85974324 -2.8596754 1.3512663 33 0 0 0 81.935143
-0.40082365 -2.9550133 1.3935314 115 0 0 0 81.936172
-0.50202918 -2.9611287 1.421985 59 0 0 0 81.940086
-0.50094992 -2.9750667 1.3829654 121 0 0 0 81.941132
-0.60288393 -2.9541674 1.4074644 38 0 0 0 81.945038
-0.60604399 -2.9950633 1.3663733 102 0 0 0 81.946075
-0.70058268 -2.9332256 1.3879858 35 0 0 0 81.949982
-0.23654372 -2.9255455 1.3994627 128 0 0 0 81.951027
-0.80222571 -2.9102349 1.3614905 32 0 0 0 81.954926
-0.33363965 -2.9446197 1.3849146 124 0 0 0 81.955971
-0.43701696 -2.9647315 1.4213321 120 0 0 0 81.959877
-0.43077394 -2.9666982 1.3723613 109 0 0 0 81.960915
-0.54012704 -2.9807658 1.4147582 96 0 0 0 81.964821
-0.5317716 -2.9797225 1.3498039 110 0 0 0 81.965866
-0.64106125 -2.9818072 1.4012233 61 0 0 0 81.969772
-0.17244333 -2.9201343 1.3978195 116 0 0 0 81.97081
-0.74690259 -2.9767904 1.3806735 37 0 0 0 81.974716
-0.26641369 -2.9302235 1.3753046 120 0 0 0 81.975761
-0.36050835 -2.9503233 1.3587713 115 0 0 0 81.980705
-0.45959467 -2.9723682 1.3372083 112 0 0 0 81.985649
-0.10926245 -2.9077077 1.3931834 113 0 0 0 81.990601
-0.20025016 -2.9208217 1.3686792 112 0 0 0 81.995544
-0.29236725 -2.9439387 1.3511513 116 0 0 0 82.000488
-0.38634282 -2.9580188 1.32263 104 0 0 0 82.00544
-0.046100341 -2.8972795 1.3885428 117 0 0 0 82.010384
-0.1351634 -2.9174159 1.3660364 114 0 0 0 82.015327
-0.22311696 -2.9285536 1.3385526 104 0 0 0 82.020279
-0.31612957 -2.9466434 1.3100296 112 0 0 0 82.025223
0.016060222 -2.8858445 1.385898 115 0 0 0 82.030174
-0.069910645 -2.8999972 1.3564192 109 0 0 0 82.035118
-0.1569961 -2.9231513 1.3329186 113 0 0 0 82.040062
-0.24596407 -2.9392698 1.299421 111 0 0 0 82.045013
0.078244209 -2.8724065 1.3822562 122 0 0 0 82.049957
-0.0067346161 -2.8885655 1.3507793 124 0 0 0 82.054909
-0.089747809 -2.9067485 1.3223096 119 0 0 0 82.059853
-0.17671463 -2.923883 1.286821 112 0 0 0 82.064796
0.13942795 -2.8589582 1.3786085 119 0 0 0 82.069756
0.056379307 -2.8821378 1.3481296 114 0 0 0 82.074699
-0.024594504 -2.8983328 1.3156744 113 0 0 0 82.079643
-0.10752738 -2.9134994 1.2772111 114 0 0 0 82.084595
0.20151143 -2.8535264 1.3799503 124 0 0 0 82.089539
0.11955871 -2.8697052 1.3434902 122 0 0 0 82.094482
0.040737115 -2.8739059 1.3030683 106 0 0 0 82.099434
-0.039322052 -2.9011054 1.2675987 120 0 0 0 82.104378
0.26171696 -2.8370681 1.3773016 117 0 0 0 82.109329
0.18276145 -2.8552699 1.3378538 123 0 0 0 82.114273
0.10580836 -2.8714962 1.3014205 103 0 0 0 82.119217
0.027850203 -2.8917027 1.2589749 111 0 0 0 82.124168
0.32184216 -2.8276136 1.3776389 120 0 0 0 82.129112
0.24584979 -2.8498437 1.3382 120 0 0 0 82.134064
0.17003028 -2.8560658 1.2937908 104 0 0 0 82.139008
0.094997235 -2.8833041 1.2533484 120 0 0 0 82.143951
0.3839055 -2.8231814 1.3809769 127 0 0 0 82.148903
0.30801788 -2.8374019 1.3355532 117 0 0 0 82.153847
0.23513395 -2.8506517 1.2911471 111 0 0 0 82.158791
0.16129981 -2.8618827 1.2407399 96 0 0 0 82.163742
0.44307229 -2.8097136 1.3803152 118 0 0 0 82.168686
0.37113857 -2.8289711 1.3349036 111 0 0 0 82.17363
0.29739189 -2.8312008 1.2835128 114 0 0 0 82.178581
0.22748806 -2.8494704 1.2341141 104 0 0 0 82.183525
0.50321001 -2.7982574 1.3816543 120 0 0 0 82.188477
0.43325391 -2.8205318 1.335248 115 0 0 0 82.19342
0.36253685 -2.8217826 1.2798752 110 0 0 0 82.198364
0.29366165 -2.8380582 1.2284855 107 0 0 0 82.203323
0.56334221 -2.7868016 1.3839927 125 0 0 0 82.208267
0.49346316 -2.8040662 1.3315959 127 0 0 0 82.213219
0.42665684 -2.813359 1.2792295 115 0 0 0 82.218163
0.36081138 -2.828656 1.2238578 109 0 0 0 82.223106
0.623456 -2.7773445 1.3863267 129 0 0 0 82.228058
0.5556106 -2.7926228 1.3309443 125 0 0 0 82.233002
0.48982882 -2.80092 1.2755854 105 0 0 0 82.237946
0.42696479 -2.8182449 1.2202259 111 0 0 0 82.242897
0.68161517 -2.7628679 1.3886588 120 0 0 0 82.247841
0.6167708 -2.7791708 1.3312905 122 0 0 0 82.252785
0.55394322 -2.792496 1.2759384 112 0 0 0 82.257736
0.49120656 -2.7998092 1.2135974 113 0 0 0 82.26268
0.74368554 -2.7564318 1.3939962 120 0 0 0 82.267632
0.67985141 -2.7727406 1.3346336 118 0 0 0 82.272575
0.61713666 -2.7770562 1.2732983 119 0 0 0 82.277519
0.55927479 -2.7964203 1.2139616 110 0 0 0 82.282471
0.80187678 -2.7389512 1.3953326 118 0 0 0 82.287415
0.74199682 -2.7602968 1.3359817 114 0 0 0 82.292366
0.68125963 -2.7676294 1.2736516 113 0 0 0 82.29731
0.62544036 -2.7840071 1.2113312 107 0 0 0 82.302254
0.8619923 -2.7274945 1.4006674 118 0 0 0 82.307205
0.80415112 -2.7468519 1.3373311 124 0 0 0 82.312149
0.74442399 -2.7541902 1.2730064 115 0 0 0 82.317093
0.69161475 -2.7705925 1.2087018 113 0 0 0 82.322044
0.92504269 -2.7220669 1.4080062 113 0 0 0 82.326988
0.86531425 -2.7323966 1.3386762 127 0 0 0 82.33194
0.81053603 -2.7447824 1.2753686 114 0 0 0 82.336891
0.75776935 -2.7581799 1.2080697 109 0 0 0 82.341835
0.98515266 -2.7106092 1.4143398 115 0 0 0 82.346786
0.92744851 -2.7199526 1.3420222 110 0 0 0 82.35173
0.87564796 -2.7353642 1.2777249 115 0 0 0 82.356674
0.82492888 -2.7457733 1.2064421 110 0 0 0 82.361626
1.0472624 -2.6991687 1.4206828 115 0 0 0 82.36657
0.99154496 -2.7105286 1.3473723 115 0 0 0 82.371521
0.93883872 -2.7189214 1.2770828 110 0 0 0 82.376465
0.89013338 -2.7283473 1.2048125 109 0 0 0 82.381409
1.1101813 -2.6883919 1.4280174 108 0 0 0 82.844292
1.0574672 -2.6997921 1.3527297 113 0 0 0 82.849236
1.0077274 -2.7112281 1.2824571 125 0 0 0 82.854187
0.96393961 -2.7287149 1.2112045 119 0 0 0 82.859131
1.1713152 -2.6739244 1.4343511 108 0 0 0 82.864075
1.1235201 -2.6933725 1.3610747 110 0 0 0 82.869026
1.0748354 -2.7008107 1.2868146 121 0 0 0 82.87397
1.0311114 -2.7132914 1.211571 125 0 0 0 82.878914
1.2344122 -2.6624765 1.4426889 116 0 0 0 82.883865
1.1876496 -2.679929 1.3664213 116 0 0 0 82.888809
1.1409469 -2.6893854 1.2921679 122 0 0 0 82.893761
1.1002326 -2.7018893 1.2149396 119 0 0 0 82.898705
1.2984765 -2.6530414 1.4540275 121 0 0 0 82.903648
1.2517964 -2.6644843 1.3717707 124 0 0 0 82.9086
1.2071121 -2.6729553 1.2955294 120 0 0 0 82.913544
1.1693798 -2.6874857 1.2183127 120 0 0 0 82.918495
1.3195513 -2.556139 1.4162977 50 0 0 0 82.923439
1.3169291 -2.6500483 1.3781227 131 0 0 0 82.928383
1.2781692 -2.6665738 1.3028976 117 0 0 0 82.933334
1.239518 -2.6740894 1.2216884 124 0 0 0 82.938278
1.3375878 -2.462213 1.3805468 97 0 0 0 82.943222
1.3194485 -2.5129485 1.3213673 59 0 0 0 82.948174
1.3453463 -2.6481514 1.3072659 106 0 0 0 82.953117
1.3106872 -2.6576989 1.2240735 123 0 0 0 82.958061
1.4045681 -2.4598076 1.3958861 108 0 0 0 82.963013
1.3639536 -2.4652996 1.3106705 101 0 0 0 82.967957
1.3312135 -2.4788802 1.236481 90 0 0 0 82.972916
1.3593004 -2.6000783 1.2094145 59 0 0 0 82.977859
1.4666835 -2.4453473 1.4052205 116 0 0 0 82.982803
1.4310061 -2.4568865 1.3220197 118 0 0 0 82.987755
1.3963658 -2.46244 1.2418344 119 0 0 0 82.992699
1.3676987 -2.4710462 1.161674 115 0 0 0 82.99765
1.5287801 -2.4318888 1.4165527 109 0 0 0 83.002594
1.4970983 -2.4444616 1.3323702 118 0 0 0 83.007538
1.4644588 -2.4510298 1.2501932 112 0 0 0 83.012489
1.4368325 -2.4566395 1.1670432 111 0 0 0 83.017433
1.59484 -2.4214675 1.4298987 101 0 0 0 83.022377
1.5622129 -2.4300251 1.3417184 112 0 0 0 83.027328
1.5355328 -2.4406471 1.2605646 107 0 0 0 83.032272
1.5118799 -2.4492922 1.1774293 113 0 0 0 83.037216
1.6579449 -2.4070153 1.4412361 113 0 0 0 83.042168
1.6332499 -2.4216475 1.3560853 103 0 0 0 83.047112
1.6036556 -2.4252355 1.2699288 114 0 0 0 83.052063
1.5859758 -2.4369328 1.1868184 114 0 0 0 83.057007
1.7279809 -2.3976307 1.4575988 98 0 0 0 83.061951
1.7023453 -2.4082465 1.3674502 110 0 0 0 83.066902
1.6806879 -2.4179072 1.2833233 109 0 0 0 83.071846
1.6591249 -2.4195602 1.1942103 125 0 0 0 83.076797
1.7960478 -2.3852258 1.4729562 99 0 0 0 83.081741
1.7754166 -2.3958833 1.3818324 110 0 0 0 83.086685
1.7538 -2.4025395 1.2947108 104 0 0 0 83.091637
1.7381878 -2.409246 1.206619 103 0 0 0 83.096581
1.9764882 -2.5109494 1.5756412 136 0 0 0 83.101524
1.8691732 -2.4107265 1.4122713 150 0 0 0 83.106483
1.8269117 -2.3871701 1.3060974 111 0 0 0 83.111427
1.816304 -2.3939185 1.2170306 107 0 0 0 83.116371
2.0505726 -2.4955955 1.5930315 122 0 0 0 83.121323
2.0329995 -2.5052621 1.4919245 127 0 0 0 83.126266
2.0262744 -2.5250461 1.403855 112 0 0 0 83.131218
1.9871174 -2.4945009 1.2887083 150 0 0 0 83.136162
2.128638 -2.4812779 1.6124392 118 0 0 0 83.141106
2.1130743 -2.4909589 1.5093423 110 0 0 0 83.146057
2.1014791 -2.4996881 1.4142668 120 0 0 0 83.151001
2.0998521 -2.5115054 1.320236 120 0 0 0 83.155952
2.2096674 -2.4699879 1.6338556 115 0 0 0 83.160896
2.1951661 -2.4746711 1.5267724 123 0 0 0 83.16584
2.1895392 -2.4864535 1.4327215 116 0 0 0 83.170792
2.1820555 -2.4862061 1.3306817 120 0 0 0 83.175735
2.2877808 -2.4506652 1.6522702 115 0 0 0 83.180679
2.2812257 -2.4604208 1.5472178 119 0 0 0 83.185631
2.2726972 -2.4641678 1.4471661 115 0 0 0 83.190575
2.2721817 -2.4669824 1.3461555 109 0 0 0 83.195518
2.3738258 -2.4364183 1.6757147 118 0 0 0 83.20047
2.3702884 -2.4451962 1.568679 119 0 0 0 83.205414
2.3637915 -2.4469557 1.4656403 125 0 0 0 83.210365
2.3682666 -2.4508131 1.3646528 116 0 0 0 83.215309
2.4598792 -2.4211695 1.69916 114 0 0 0 83.220253
2.4583771 -2.4269614 1.5901393 106 0 0 0 83.225204
2.9319808 -2.3334506 1.8386478 94 0 0 0 83.228485
2.4588621 -2.4307809 1.4871317 120 0 0 0 83.230148
2.9575279 -2.3364654 1.7247652 93 0 0 0 83.233437
2.4653771 -2.4316504 1.3831592 112 0 0 0 83.235107
2.9840534 -2.3384986 1.616889 93 0 0 0 83.23838
2.5430076 -2.3988881 1.7196015 96 0 0 0 83.240051
3.0146346 -2.3345649 1.5080429 92 0 0 0 83.243324
2.5544157 -2.4127982 1.6146311 101 0 0 0 83.244995
3.0400093 -2.3154001 1.872203 96 0 0 0 83.248283
2.5608778 -2.4186709 1.5126497 108 0 0 0 83.249947
3.0666182 -2.3134165 1.7543337 92 0 0 0 83.253227
2.5704281 -2.4165628 1.4066969 113 0 0 0 83.25489
3.1011155 -2.3175216 1.6484933 94 0 0 0 83.258171
2.6419778 -2.3887601 1.7511004 103 0 0 0 83.259834
3.1377318 -2.3106356 1.5376817 83 0 0 0 83.263123
2.6524618 -2.3966534 1.6411352 117 0 0 0 83.264786
3.1401262 -2.2892721 1.9017313 95 0 0 0 83.268066
2.6599858 -2.3975279 1.5351672 106 0 0 0 83.26973
3.18068 -2.2914147 1.7879238 89 0 0 0 83.27301
2.6765044 -2.3984814 1.4302436 105 0 0 0 83.274673
3.2182343 -2.2905402 1.6791065 92 0 0 0 83.277962
2.7330501 -2.3695536 1.7775742 99 0 0 0 83.279625
3.2588766 -2.2816849 1.5663177 92 0 0 0 83.282906
2.7475691 -2.3744779 1.6656338 103 0 0 0 83.284569
3.2492011 -2.2652273 1.9362992 93 0 0 0 83.287857
2.7709816 -2.3854971 1.5647272 108 0 0 0 83.28952
3.2977619 -2.2664382 1.8225324 96 0 0 0 83.292801
2.7885621 -2.3814526 1.4558169 112 0 0 0 83.294464
3.3393426 -2.2635944 1.711738 91 0 0 0 83.297745
2.8281124 -2.3503826 1.8060666 100 0 0 0 83.299408
3.3979156 -2.2599006 1.6040287 81 0 0 0 83.302696
2.8565724 -2.3604312 1.6971864 94 0 0 0 83.304359
3.3652468 -2.2422469 1.9748986 88 0 0 0 83.30764
2.875083 -2.3633978 1.5902687 102 0 0 0 83.309303
3.4178646 -2.2384865 1.8581598 81 0 0 0 83.312592
2.8957067 -2.3553755 1.4793798 95 0 0 0 83.314255
3.4743812 -2.2407768 1.75143 85 0 0 0 83.317535
3.5330331 -2.2300761 1.6397324 85 0 0 0 83.322479
3.4912367 -2.2223589 2.0195405 82 0 0 0 83.327431
3.5568264 -2.2207124 1.9048618 75 0 0 0 83.332375
3.6243722 -2.2200944 1.7971908 78 0 0 0 83.337318
3.6860726 -2.2054136 1.6825142 74 0 0 0 83.34227
3.6252334 -2.2005401 2.0662239 91 0 0 0 83.347214
3.693871 -2.1949136 1.9485661 81 0 0 0 83.352158
3.760505 -2.1862798 1.8369035 76 0 0 0 83.357109
3.8481221 -2.1778297 1.7283436 79 0 0 0 83.362053
3.7523184 -2.1706524 2.108885 74 0 0 0 83.367004
3.8389351 -2.165185 1.995315 78 0 0 0 83.371948
3.9215267 -2.1596913 1.8867251 78 0 0 0 83.3769
4.0141954 -2.1462798 1.7761976 79 0 0 0 83.381851
3.8337889 -2.1103277 2.1253705 46 0 0 0 83.386795
3.9959347 -2.1395652 2.0481141 73 0 0 0 83.391747
4.0816002 -2.1270914 1.93655 83 0 0 0 83.39669
4.1823201 -2.1087434 1.8240697 80 0 0 0 83.401634
3.8924372 -2.0357862 2.1297665 26 0 0 0 83.406586
4.1559753 -2.107971 2.1029363 74 0 0 0 83.41153
4.2556562 -2.0936151 1.9914435 85 0 0 0 83.416473
4.3674002 -2.0723598 1.8790212 80 0 0 0 83.421425
3.950079 -1.9612367 2.1351564 29 0 0 0 83.426369
4.3200579 -2.0714073 2.1577847 80 0 0 0 83.431313
4.4446688 -2.0612741 2.0534067 89 0 0 0 83.436264
4.5774002 -2.039202 1.9450876 72 0 0 0 83.441208
3.9997733 -1.8826116 2.1365132 23 0 0 0 83.446159
4.4861646 -2.0308607 2.2146478 70 0 0 0 83.451103
4.6347356 -2.0219393 2.116384 86 0 0 0 83.456047
4.7815161 -1.9939845 2.0081427 72 0 0 0 83.460999
4.0733199 -1.8132117 2.1519709 26 0 0 0 83.465942
4.6016378 -1.961836 2.2453079 31 0 0 0 83.470894
4.8398113 -1.9787356 2.1844394 76 0 0 0 83.475838
5.0055971 -1.9489431 2.0782928 70 0 0 0 83.480782
4.1419272 -1.7387614 2.1634116 26 0 0 0 83.485733
4.6425586 -1.8591191 2.241657 20 0 0 0 83.490677
5.0678363 -1.9357386 2.2626045 75 0 0 0 83.495621
5.2526793 -1.8991048 2.1565611 67 0 0 0 83.500572
4.2095509 -1.6623013 2.17485 27 0 0 0 83.505524
4.7103548 -1.7646474 2.2491233 20 0 0 0 83.510468
5.2919607 -1.8826979 2.3377643 67 0 0 0 83.515419
5.5167475 -1.846418 2.2429142 65 0 0 0 83.520363
4.2602797 -1.5776832 2.1782181 31 0 0 0 83.525314
4.7851024 -1.6722434 2.262619 20 0 0 0 83.530258
5.456459 -1.8001043 2.3866789 24 0 0 0 83.535202
5.7998309 -1.7878975 2.3363667 56 0 0 0 83.540154
4.3070154 -1.4920304 2.1815677 29 0 0 0 83.545097
4.8419609 -1.5716711 2.2670395 20 0 0 0 83.550049
5.5065327 -1.6764601 2.3871009 23 0 0 0 83.554993
6.1119008 -1.7246332 2.4409649 46 0 0 0 83.559937
4.3527627 -1.4053665 2.1839128 19 0 0 0 83.564888
4.9087486 -1.4751935 2.2785008 20 0 0 0 83.569832
5.5496168 -1.5517544 2.3864899 22 0 0 0 83.574776
6.3971753 -1.6421206 2.5364604 30 0 0 0 83.579727
4.398499 -1.318705 2.1882575 19 0 0 0 83.584671
4.9636097 -1.3726056 2.2849131 20 0 0 0 83.589615
5.6245832 -1.4333378 2.3990226 20 0 0 0 83.594566
6.4454718 -1.4914494 2.5369117 19 0 0 0 83.59951
4.4452581 -1.229051 2.1926112 18 0 0 0 83.604462
5.0025492 -1.2638723 2.2852569 20 0 0 0 83.609406
5.6597147 -1.3035597 2.3963788 21 0 0 0 83.614349
6.4947772 -1.3387872 2.5383704 22 0 0 0 83.619301
4.494019 -1.1384146 2.1979752 18 0 0 0 83.624245
5.0554533 -1.1562638 2.2906659 19 0 0 0 83.629204
5.7068105 -1.1748894 2.3987904 21 0 0 0 83.634148
6.5361142 -1.1830536 2.5377936 19 0 0 0 83.639091
4.5427599 -1.0487802 2.2053366 18 0 0 0 83.644043
5.0983815 -1.0465672 2.2940288 19 0 0 0 83.648987
5.76087 -1.0472852 2.4062333 20 0 0 0 83.653931
6.5445271 -1.0230284 2.5280635 16 0 0 0 83.658882
4.5865474 -0.95509827 2.2096796 18 0 0 0 83.663826
5.1482797 -0.93793488 2.3014231 20 0 0 0 83.66877
5.8029723 -0.91657287 2.409622 21 0 0 0 83.673721
6.6187186 -0.87359881 2.5456343 18 0 0 0 83.678665
4.6462588 -0.86456543 2.2240942 20 0 0 0 83.683617
5.2769194 -0.84001857 2.3441799 20 0 0 0 83.68856
5.8311167 -0.7827363 2.4089472 21 0 0 0 83.693504
6.6430469 -0.71772075 2.5449724 20 0 0 0 83.698456
4.6940279 -0.77090889 2.2324491 43 0 0 0 83.708
5.2739921 -0.7218945 2.3313255 22 0 0 0 83.712952
5.8552551 -0.64985031 2.4082439 20 0 0 0 83.717896
6.6334777 -0.55652189 2.5321467 19 0 0 0 83.722839
4.7258577 -0.67311901 2.2337384 19 0 0 0 83.727791
5.268084 -0.60175633 2.3164659 28 0 0 0 83.732735
5.8744068 -0.51493597 2.4065259 21 0 0 0 83.737679
6.6628046 -0.39769137 2.5355122 18 0 0 0 83.74263
4.7357583 -0.57113236 2.226928 18 0 0 0 83.747574
5.2711487 -0.48170128 2.3066487 21 0 0 0 83.752525
5.8945732 -0.37802953 2.4048152 20 0 0 0 83.757469
6.6751695 -0.2367108 2.5337987 17 0 0 0 83.762413
4.7636356 -0.46830505 2.2262051 19 0 0 0 83.767365
5.2841783 -0.36273754 2.3018773 20 0 0 0 83.772308
5.9037509 -0.24102642 2.4000509 20 0 0 0 83.777267
6.6166415 -0.07610096 2.5077422 15 0 0 0 83.782211
4.8034468 -0.3685897 2.2335341 18 0 0 0 83.787155
5.3031726 -0.2448314 2.3021324 19 0 0 0 83.792107
5.9159021 -0.10405619 2.4003003 20 0 0 0 83.79705
6.61099 0.082033686 2.5029359 14 0 0 0 83.801994
4.8063626 -0.26454237 2.2256916 18 0 0 0 83.806946
5.3171821 -0.12588023 2.3003645 19 0 0 0 83.81189
5.9350276 0.031851441 2.4035809 21 0 0 0 83.816833
6.581358 0.23838016 2.4900112 14 0 0 0 83.821785
4.8352098 -0.16172986 2.2299714 18 0 0 0 83.826729
5.3281689 -0.0089054471 2.2995782 19 0 0 0 83.83168
5.9251909 0.16701585 2.3967204 20 0 0 0 83.836624
6.5766559 0.39349961 2.4892037 15 0 0 0 83.841568
4.8520741 -0.05881092 2.2301929 18 0 0 0 83.846519
5.3321834 0.11013223 2.2957611 20 0 0 0 83.851463
5.9213529 0.30412549 2.3928916 20 0 0 0 83.856415
6.5579782 0.54974115 2.4843304 14 0 0 0 83.861359
4.8699532 0.046100009 2.230422 19 0 0 0 83.866302
5.3312092 0.23021287 2.2909217 19 0 0 0 83.871254
5.9055324 0.44134057 2.3850048 18 0 0 0 83.876198
6.5143042 0.70220178 2.4713309 15 0 0 0 83.881142
4.8758574 0.15211679 2.2265952 18 0 0 0 83.886093
5.3422194 0.35218471 2.2921419 18 0 0 0 83.891037
5.8687396 0.5777415 2.3690159 19 0 0 0 83.895981
6.5226026 0.86320007 2.4785941 17 0 0 0 83.900932
4.8937516 0.26002663 2.2278278 17 0 0 0 83.905884
5.3282466 0.47137743 2.2842374 19 0 0 0 83.910835
5.8698678 0.7157979 2.3722107 21 0 0 0 83.915779
6.4649072 1.012778 2.4635222 18 0 0 0 83.920723
4.8836679 0.36518362 2.2189219 18 0 0 0 83.925674
5.3272719 0.5934546 2.2813997 19 0 0 0 83.930618
5.8220253 0.84628987 2.3551593 19 0 0 0 83.93557
6.3971987 1.1594418 2.4453983 14 0 0 0 83.940514
4.9035468 0.47407097 2.224165 18 0 0 0 83.945457
5.3102841 0.7126683 2.2754803 19 0 0 0 83.950409
5.7971668 0.98157394 2.349225 19 0 0 0 83.955353
6.3644428 1.308794 2.4414451 19 0 0 0 83.960297
4.903441 0.58113432 2.2223089 18 0 0 0 83.965248
5.3012795 0.83181107 2.2725985 19 0 0 0 83.970192
5.7632618 1.1109331 2.3422379 18 0 0 0 83.975136
6.2996793 1.4524227 2.4283302 17 0 0 0 83.980087
4.9113431 0.69112718 2.2234952 19 0 0 0 83.985031
5.2862864 0.95200443 2.2686896 17 0 0 0 83.989983
5.7323818 1.2442653 2.3362715 20 0 0 0 83.994926
6.2268944 1.5921205 2.4121711 19 0 0 0 83.99987
4.892272 0.79835904 2.2135482 19 0 0 0 84.004822
5.259285 1.0693023 2.2607186 18 0 0 0 84.009766
5.6744905 1.3708341 2.3201654 19 0 0 0 84.014717
6.1671104 1.7357006 2.4020801 16 0 0 0 84.019661
4.8911748 0.90842712 2.2136912 18 0 0 0 84.024605
5.2223005 1.1866877 2.2487001 19 0 0 0 84.029556
5.631587 1.5002677 2.3111355 19 0 0 0 84.034508
6.0672607 1.8636295 2.377774 22 0 0 0 84.039452
4.8810992 1.0185767 2.2087913 18 0 0 0 84.044403
5.1912942 1.3040168 2.24071 18 0 0 0 84.049347
5.58566 1.6277233 2.3030877 18 0 0 0 84.054291
5.9844017 1.9954044 2.3615551 21 0 0 0 84.059242
4.8660059 1.1267669 2.2038639 18 0 0 0 84.064186
5.1672826 1.4232817 2.2367558 19 0 0 0 84.069138
5.5237055 1.7493166 2.2899549 19 0 0 0 84.074081
5.9095206 2.1271055 2.3493745 17 0 0 0 84.079025
4.7214618 1.7780716 2.17119 16 0 0 0 84.082764
4.8519163 1.2369454 2.2009444 18 0 0 0 84.083977
4.8589654 2.081984 2.166317 19 0 0 0 84.087708
5.1292472 1.5376667 2.2287273 17 0 0 0 84.088921
5.0195107 2.3986888 2.1745722 50 0 0 0 84.092659
5.4687343 1.8708469 2.279855 20 0 0 0 84.093872
5.2704945 2.7935917 2.2253792 18 0 0 0 84.097603
5.798552 2.2421167 2.3259966 17 0 0 0 84.098816
4.7303967 1.9020337 2.1854007 13 0 0 0 84.102547
4.8178191 1.341301 2.1889205 18 0 0 0 84.10376
4.8078732 2.1904714 2.1582174 18 0 0 0 84.107498
5.0771976 1.6471746 2.2146246 18 0 0 0 84.108711
4.9684763 2.5181677 2.1724892 18 0 0 0 84.112442
5.4047537 1.9904523 2.26771 20 0 0 0 84.113655
5.1463237 2.8837044 2.1999018 16 0 0 0 84.117393
5.6805596 2.3521888 2.2985783 17 0 0 0 84.118599
4.6762662 2.001555 2.1702738 11 0 0 0 84.122337
4.7897167 1.4476005 2.1809278 17 0 0 0 84.12355
4.7507434 2.294008 2.1490819 19 0 0 0 84.127281
5.0261526 1.7586699 2.2025304 18 0 0 0 84.128494
4.8863382 2.6189153 2.1592298 17 0 0 0 84.132233
5.2997012 2.0924153 2.2393427 17 0 0 0 84.133438
5.0251498 2.974787 2.1764412 17 0 0 0 84.137177
5.5835729 2.4690716 2.281271 18 0 0 0 84.13839
4.5610356 2.0736144 2.1278152 16 0 0 0 84.14212
4.7616186 1.5558963 2.1749387 18 0 0 0 84.143333
4.6916323 2.3995612 2.1389403 19 0 0 0 84.147072
4.9710855 1.8671983 2.1894121 18 0 0 0 84.148285
4.7901621 2.7117848 2.1398921 18 0 0 0 84.152016
5.2336946 2.2100322 2.2281854 17 0 0 0 84.153229
4.899909 3.0578997 2.1529498 18 0 0 0 84.15696
5.4795532 2.5810125 2.2619236 19 0 0 0 84.158173
4.5028682 2.1691654 2.112664 17 0 0 0 84.161911
4.7285166 1.6622367 2.1659222 17 0 0 0 84.163132
4.6034341 2.4883664 2.1176357 17 0 0 0 84.166855
4.9270148 1.9796251 2.1833522 19 0 0 0 84.168076
4.6969953 2.8066263 2.1215725 19 0 0 0 84.171806
5.1365972 2.3099186 2.2048538 17 0 0 0 84.173027
4.7766662 3.1409934 2.1294687 18 0 0 0 84.17675
5.361474 2.6830728 2.2374945 21 0 0 0 84.177971
4.4497204 2.2696679 2.1015441 18 0 0 0 84.181694
4.5262504 2.5820723 2.1013908 18 0 0 0 84.186646
4.6057878 2.8984449 2.1062577 17 0 0 0 84.191589
4.6503644 3.2171087 2.1059632 18 0 0 0 84.196541
4.3845215 2.3612747 2.0853541 17 0 0 0 84.201485
4.4440374 2.6718187 2.0841169 17 0 0 0 84.206429
4.4934874 2.9744444 2.0828195 18 0 0 0 84.211388
4.5421038 3.3030632 2.0905588 20 0 0 0 84.216331
4.3343463 2.460746 2.0772469 17 0 0 0 84.221275
4.3547878 2.755625 2.0638008 17 0 0 0 84.226227
4.3892112 3.0553722 2.0624275 17 0 0 0 84.231171
4.3946481 3.3553581 2.0579185 18 0 0 0 84.236115
4.2771549 2.5572758 2.0671027 17 0 0 0 84.241066
4.2735248 2.8413551 2.049526 17 0 0 0 84.24601
4.2909141 3.1362429 2.0460644 17 0 0 0 84.250961
4.2652211 3.4164901 2.0343781 17 0 0 0 84.255905
4.2099247 2.6468916 2.0529006 17 0 0 0 84.260849
4.187252 2.925127 2.0332251 18 0 0 0 84.2658
4.1785393 3.2042339 2.0236158 18 0 0 0 84.270744
4.1418066 3.4805677 2.0128713 18 0 0 0 84.275696
4.1366696 2.7325575 2.0366645 18 0 0 0 84.28064
4.108983 3.0118265 2.0209668 18 0 0 0 84.285583
4.0852194 3.2850537 2.0112777 18 0 0 0 84.290535
4.0243793 3.5455885 1.9953951 18 0 0 0 84.295479
4.071445 2.8251493 2.0254774 18 0 0 0 84.300423
4.0267015 3.0965576 2.0076871 18 0 0 0 84.305374
3.9738286 3.3520308 1.9898337 18 0 0 0 84.310318
3.894875 3.5977125 1.9718432 19 0 0 0 84.315262
4.0082054 2.9167221 2.0152979 18 0 0 0 84.320213
3.932353 3.1703918 1.9893345 16 0 0 0 84.325157
3.8603878 3.4130216 1.9683719 17 0 0 0 84.330109
3.7613149 3.6418693 1.9462612 17 0 0 0 84.335052
3.9108381 2.9845891 1.9909227 16 0 0 0 84.339996
3.8269341 3.2333188 1.9669139 16 0 0 0 84.344955
3.7378769 3.4630888 1.9428515 16 0 0 0 84.349899
3.6377621 3.6899352 1.9257332 19 0 0 0 84.354851
3.8285084 3.0613225 1.9736321 16 0 0 0 84.359795
3.7255087 3.2962098 1.9455128 17 0 0 0 84.364738
3.6253724 3.517065 1.9223851 16 0 0 0 84.36969
3.5101452 3.7290339 1.9031734 18 0 0 0 84.374634
3.7441528 3.1350701 1.956328 17 0 0 0 84.379578
3.6220534 3.356113 1.9250984 17 0 0 0 84.384529
3.5158496 3.5700121 1.9039319 17 0 0 0 84.389473
3.3865373 3.7710931 1.883638 17 0 0 0 84.394417
3.6527572 3.2028751 1.9369825 16 0 0 0 84.399368
3.5276253 3.4219358 1.9087361 17 0 0 0 84.404312
3.39325 3.6100702 1.8793988 17 0 0 0 84.409264
3.2618773 3.8061595 1.863088 18 0 0 0 84.414207
3.5663824 3.2746351 1.9196672 16 0 0 0 84.419151
3.4321675 3.4847631 1.8933651 16 0 0 0 84.424103
3.2816975 3.65903 1.8599319 17 0 0 0 84.429047
3.1120241 3.8084466 1.8273714 16 0 0 0 84.433998
3.4870384 3.3533294 1.907396 16 0 0 0 84.438942
3.3236327 3.5347013 1.8719141 17 0 0 0 84.443886
3.1620433 3.6930575 1.8364053 16 0 0 0 84.448837
2.9903257 3.8394818 1.8078314 16 0 0 0 84.453781
3.4026415 3.4250636 1.894091 16 0 0 0 84.458725
3.2261529 3.594542 1.8555309 16 0 0 0 84.463676
3.0484092 3.7320287 1.8169155 15 0 0 0 84.46862
2.8716059 3.8684895 1.7893032 16 0 0 0 84.473572
3.3091872 3.4868755 1.8757294 16 0 0 0 84.478523
3.1226048 3.6454303 1.8381063 16 0 0 0 84.483467
2.9397917 3.7749531 1.8004559 16 0 0 0 84.488419
2.7528458 3.8924944 1.7707683 16 0 0 0 84.493362
3.2127078 3.5457091 1.8573499 15 0 0 0 84.498306
3.0129874 3.68537 1.8166376 16 0 0 0 84.503258
2.826092 3.8059194 1.7809553 15 0 0 0 84.508202
2.6320419 3.9105146 1.7512159 17 0 0 0 84.513153
3.1151919 3.5995507 1.8379587 16 0 0 0 84.518097
2.905364 3.7252901 1.7961791 15 0 0 0 84.523041
2.7123837 3.8358834 1.7614543 16 0 0 0 84.527992
2.5081725 3.9185607 1.7286351 16 0 0 0 84.532936
3.0166783 3.6543963 1.8195652 16 0 0 0 84.53788
2.8017492 3.7681715 1.7787447 15 0 0 0 84.542831
2.5966158 3.8578627 1.7409326 15 0 0 0 84.547775
2.3832679 3.9216139 1.7050431 16 0 0 0 84.552719
2.9247885 3.7136283 1.8059022 15 0 0 0 84.818848
2.6946957 3.8064935 1.7609944 15 0 0 0 84.823792
2.4783909 3.8732467 1.71811 15 0 0 0 84.828735
2.2690001 3.9359264 1.6872513 15 0 0 0 84.833687
2.819181 3.7555163 1.7834642 15 0 0 0 84.838631
2.5839894 3.8364165 1.7395163 15 0 0 0 84.843582
2.3655894 3.89218 1.698607 14 0 0 0 84.848526
2.1520972 3.9418881 1.6677113 16 0 0 0 84.85347
2.7216098 3.8063293 1.7680769 16 0 0 0 84.858421
2.4762685 3.8663092 1.7210528 15 0 0 0 84.863365
2.2557938 3.9130843 1.6811216 15 0 0 0 84.868309
2.0452628 3.9607594 1.6552374 37 0 0 0 84.87326
2.6179941 3.8491931 1.7486511 16 0 0 0 84.878204
2.371558 3.8981748 1.7036068 14 0 0 0 84.883148
2.1449666 3.9299939 1.6636267 15 0 0 0 84.888107
1.9353518 3.9686549 1.6407343 48 0 0 0 84.893051
2.5103016 3.8810887 1.7271914 15 0 0 0 84.898003
2.2597566 3.9160991 1.6821088 14 0 0 0 84.902946
2.044204 3.9588149 1.6521963 34 0 0 0 84.90789
1.8163089 3.9536328 1.6161565 48 0 0 0 84.912842
2.4096625 3.92292 1.7107794 15 0 0 0 84.917786
2.1539905 3.940968 1.6646496 14 0 0 0 84.922737
1.9373482 3.972688 1.6357169 51 0 0 0 84.927681
1.6982197 3.932601 1.5915751 40 0 0 0 84.932625
2.3029556 3.9538019 1.6903247 15 0 0 0 84.937576
2.0532594 3.97279 1.6512246 34 0 0 0 84.94252
1.8112524 3.9467287 1.604092 44 0 0 0 84.947464
1.5902219 3.9274786 1.5740647 30 0 0 0 84.952415
2.2043011 3.9956088 1.6769234 15 0 0 0 84.957359
1.9413871 3.9817073 1.6297159 36 0 0 0 84.962303
1.7073528 3.9555724 1.5886207 24 0 0 0 84.967255
1.4872595 3.9293094 1.5605885 25 0 0 0 84.972198
2.094502 4.0135131 1.6544372 16 0 0 0 84.97715
1.8345345 3.9955776 1.6122385 19 0 0 0 84.982094
1.5983745 3.9524572 1.5701096 22 0 0 0 84.987038
1.3781524 3.908195 1.5400512 22 0 0 0 84.991989
1.9927963 4.0483403 1.6400137 15 0 0 0 84.996933
1.7276554 4.0054469 1.5937561 20 0 0 0 85.001884
1.4944481 3.957298 1.5536343 21 0 0 0 85.006828
1.2740961 3.8960338 1.5235513 25 0 0 0 85.01178
1.8849976 4.0682197 1.6205415 14 0 0 0 85.016731
1.6227789 4.0162973 1.576285 20 0 0 0 85.021675
1.3924927 3.9601171 1.540166 19 0 0 0 85.026619
1.1710291 3.8818641 1.506054 25 0 0 0 85.03157
1.7731171 4.0751338 1.5970328 15 0 0 0 85.036514
1.5199039 4.0291262 1.5618272 20 0 0 0 85.041458
1.2854125 3.9419847 1.5186445 19 0 0 0 85.04641
1.0719486 3.8676574 1.4915757 26 0 0 0 85.051353
1.6662745 4.0899992 1.5785596 15 0 0 0 85.056305
1.4149655 4.0319719 1.5443461 20 0 0 0 85.061249
1.1813802 3.9318223 1.5001496 19 0 0 0 85.066193
0.97590822 3.8604207 1.4801226 23 0 0 0 85.071144
1.5665222 4.1207981 1.567143 15 0 0 0 85.076088
1.311004 4.0318084 1.5268661 18 0 0 0 85.081039
1.0813495 3.9236226 1.4846768 22 0 0 0 85.085983
0.87882346 3.8461931 1.4666553 24 0 0 0 85.090927
1.4616696 4.1356411 1.5506808 15 0 0 0 85.095879
1.202966 4.018681 1.5043498 20 0 0 0 85.100822
0.98538011 3.9263825 1.4742396 23 0 0 0 85.105766
0.78062117 3.8129804 1.4471558 27 0 0 0 85.110718
1.3547616 4.1415014 1.5311971 14 0 0 0 85.115662
1.0999693 4.0145035 1.4878703 19 0 0 0 85.120605
0.88732648 3.9151635 1.4587733 23 0 0 0 85.125557
0.68644059 3.7837319 1.4296814 29 0 0 0 85.130501
1.2478367 4.1463566 1.5137129 14 0 0 0 85.135452
0.9989574 4.0083094 1.4713979 20 0 0 0 85.140404
0.78818005 3.8899548 1.4402823 21 0 0 0 85.145348
0.59432167 3.7654588 1.4172336 27 0 0 0 85.150299
0.41795799 4.088872 1.373928 12 0 0 0 85.152069
1.1388093 4.1342344 1.4901953 14 0 0 0 85.155243
0.22360225 3.8993747 1.3517816 20 0 0 0 85.157021
0.9010247 4.0160804 1.460961 21 0 0 0 85.160194
0.058163743 3.6946671 1.3227417 23 0 0 0 85.161964
0.69103706 3.8657274 1.422803 24 0 0 0 85.165138
-0.084103279 3.5217597 1.3098524 26 0 0 0 85.166908
0.50313288 3.7361808 1.4017746 28 0 0 0 85.170082
0.31786445 4.07266 1.3584491 12 0 0 0 85.171867
1.0338719 4.1380682 1.4737209 14 0 0 0 85.175034
0.13034326 3.8581152 1.3312976 20 0 0 0 85.176811
0.80198979 4.0068665 1.444495 19 0 0 0 85.179977
-0.025030676 3.6663177 1.3103229 25 0 0 0 85.181755
0.59489441 3.8414903 1.4053291 24 0 0 0 85.184921
-0.16138248 3.4813652 1.2964433 24 0 0 0 85.186707
0.41496587 3.710875 1.3883361 31 0 0 0 85.189873
0.21980305 4.0624256 1.3459893 12 0 0 0 85.19165
0.9299041 4.1378927 1.4572458 14 0 0 0 85.194817
0.039193023 3.8358262 1.3188521 19 0 0 0 85.196594
0.70188063 3.9866614 1.4260092 18 0 0 0 85.19976
-0.10826555 3.631968 1.2968961 26 0 0 0 85.201546
0.50279015 3.8252132 1.3928862 23 0 0 0 85.204712
-0.23666418 3.439955 1.2820425 26 0 0 0 85.20649
0.32782054 3.6895566 1.3769089 31 0 0 0 85.209656
0.12062489 4.033206 1.3274976 12 0 0 0 85.211441
0.82690579 4.1337075 1.4407703 14 0 0 0 85.214607
-0.049000997 3.8065157 1.3044106 20 0 0 0 85.216385
0.60174912 3.9634545 1.4075199 18 0 0 0 85.219551
-0.19053942 3.5906138 1.2804642 28 0 0 0 85.221329
0.41167852 3.8079267 1.3804471 22 0 0 0 85.224495
-0.31280521 3.4235339 1.2786758 48 0 0 0 85.22628
0.24051172 3.6412504 1.3564422 30 0 0 0 85.229446
0.024431953 4.0019627 1.3090173 12 0 0 0 85.231224
0.72392875 4.1335168 1.426302 13 0 0 0 85.23439
-0.1371839 3.7792017 1.2909729 21 0 0 0 85.236176
0.5056603 3.9482088 1.3930614 18 0 0 0 85.239342
-0.27071995 3.5662303 1.2720677 32 0 0 0 85.241119
0.32155201 3.7886307 1.3680105 21 0 0 0 85.244286
-0.38989884 3.4151142 1.2783176 23 0 0 0 85.246063
0.15736894 3.6218936 1.3480378 31 0 0 0 85.249229
-0.070761889 3.9717057 1.292544 12 0 0 0 85.251015
0.61980933 4.1103425 1.4047956 13 0 0 0 85.254181
-0.22532381 3.7598798 1.2815484 21 0 0 0 85.255959
0.40952474 3.9249659 1.3755921 20 0 0 0 85.259125
-0.35090315 3.5408466 1.2626705 45 0 0 0 85.260902
0.23241824 3.7683253 1.3555778 23 0 0 0 85.264069
-0.46215153 3.3796706 1.2679417 23 0 0 0 85.265854
0.075153805 3.590534 1.3356208 30 0 0 0 85.269028
-0.16587955 3.9544392 1.2810913 16 0 0 0 85.270798
0.51876128 4.1001344 1.3893232 12 0 0 0 85.273972
-0.31059495 3.719543 1.2661066 19 0 0 0 85.275742
0.31545308 3.9136963 1.3641505 20 0 0 0 85.278915
-0.43010542 3.5134525 1.2542759 48 0 0 0 85.280693
0.14414273 3.7250214 1.3361162 22 0 0 0 85.283867
-0.53343052 3.3412166 1.2585669 27 0 0 0 85.285637
-0.0050971149 3.5531607 1.3212045 28 0 0 0 85.288811
-0.25906643 3.9261606 1.2666321 12 0 0 0 85.290588
-0.3938655 3.679189 1.2506746 21 0 0 0 85.295532
-0.510221 3.5010548 1.2519001 45 0 0 0 85.300484
-0.60467887 3.3067608 1.2491987 28 0 0 0 85.305435
-0.35130545 3.8908727 1.2521678 12 0 0 0 85.310379
-0.47713226 3.639832 1.2362453 23 0 0 0 85.315331
-0.58547688 3.4646316 1.2405114 34 0 0 0 85.320274
-0.67297161 3.2662814 1.2398356 27 0 0 0 85.325218
-0.4434703 3.8665793 1.2397211 19 0 0 0 85.33017
-0.55646455 3.5904462 1.2198195 27 0 0 0 85.335114
-0.65882373 3.414197 1.2261114 31 0 0 0 85.340057
-0.73438591 3.2047603 1.2224728 30 0 0 0 85.345009
-0.53179991 3.8172622 1.2222557 21 0 0 0 85.349953
-0.63575995 3.5470557 1.2054037 28 0 0 0 85.354897
-0.73207635 3.3797512 1.2177364 32 0 0 0 85.359848
-0.79577047 3.1482348 1.2071184 35 0 0 0 85.364792
-0.6190927 3.7739325 1.2068048 23 0 0 0 85.369743
-0.71502733 3.5096576 1.1949979 29 0 0 0 85.374687
-0.7994833 3.3192732 1.2003497 46 0 0 0 85.379631
-0.85613602 3.0946989 1.1927738 28 0 0 0 85.384583
-0.70442075 3.7245893 1.1893548 21 0 0 0 85.389526
-0.79228973 3.4722443 1.1836019 37 0 0 0 85.394478
-0.86488175 3.2597787 1.1829743 29 0 0 0 85.399422
-0.91745543 3.0501618 1.1834389 28 0 0 0 85.404366
-0.79065204 3.692241 1.1789268 23 0 0 0 85.409317
-0.86758876 3.4298146 1.1722081 29 0 0 0 85.414261
-0.93316519 3.2202926 1.1736164 29 0 0 0 85.419205
-0.97775918 3.0076158 1.1741122 29 0 0 0 85.424156
-0.87493044 3.6528776 1.1674981 24 0 0 0 85.429108
-0.94387341 3.3903878 1.1628152 30 0 0 0 85.434052
-0.99752414 3.1687806 1.1612591 29 0 0 0 85.439003
-1.0351025 2.9590478 1.1637906 30 0 0 0 85.443947
-0.95824403 3.6075079 1.154066 26 0 0 0 85.448898
-1.0142472 3.3359222 1.1484274 28 0 0 0 85.453842
-1.0579284 3.1092415 1.1459081 31 0 0 0 85.458786
-1.0914419 2.9114695 1.1544753 31 0 0 0 85.463737
-1.0346404 3.5490892 1.1376461 27 0 0 0 85.468681
-1.0875378 3.29547 1.1390482 27 0 0 0 85.473633
-1.1271584 3.0807483 1.1435647 29 0 0 0 85.478577
-1.1497445 2.8699019 1.1471614 32 0 0 0 85.483521
-1.1149611 3.503691 1.1262292 29 0 0 0 85.488472
-1.1598321 3.255007 1.1306742 28 0 0 0 85.493416
-1.1885086 3.0312066 1.1332259 33 0 0 0 85.49836
-1.2040792 2.8233051 1.138858 33 0 0 0 85.503311
-1.1962378 3.4652953 1.1168191 29 0 0 0 85.508255
-1.2321122 3.21754 1.1243055 28 0 0 0 85.513199
-1.2518045 2.990674 1.1258926 34 0 0 0 85.51815
-1.2613636 2.7857234 1.1345557 35 0 0 0 85.523094
-1.2735761 3.4178703 1.1064143 29 0 0 0 85.528046
-1.2984703 3.1670327 1.1139446 30 0 0 0 85.53299
-1.3160901 2.9531426 1.1215602 33 0 0 0 85.537933
-1.3176579 2.7461343 1.1292555 35 0 0 0 85.542885
-1.3479463 3.3654227 1.095016 31 0 0 0 85.547829
-1.3687739 3.1255496 1.1065807 31 0 0 0 85.552788
-1.3754318 2.9055796 1.1132356 36 0 0 0 85.557732
-1.3670228 2.6944988 1.1199687 35 0 0 0 85.562675
-1.4262619 3.3219986 1.0866148 31 0 0 0 85.567627
-1.4291911 3.0649998 1.093233 32 0 0 0 85.572571
-1.4268541 2.8439636 1.0999258 36 0 0 0 85.577515
-1.4143867 2.6428473 1.1106913 33 0 0 0 85.582466
-1.4956671 3.2645113 1.0752329 33 0 0 0 85.58741
-1.4935552 3.0144713 1.0848835 33 0 0 0 85.592354
-1.485188 2.7983875 1.0936099 36 0 0 0 85.597305
-1.4647141 2.5972137 1.1034105 33 0 0 0 85.602249
-1.5630964 3.2030094 1.0628546 31 0 0 0 85.607201
-1.5509819 2.9528956 1.072549 33 0 0 0 85.612144
-1.5365741 2.7437632 1.0843121 37 0 0 0 85.617088
-1.5081056 2.5415308 1.0941459 33 0 0 0 85.62204
-1.6345358 3.1504955 1.0534782 31 0 0 0 85.674004
-1.6104347 2.8972945 1.0632213 33 0 0 0 85.678947
-1.5900017 2.691117 1.0760158 37 0 0 0 85.683899
-1.5544938 2.4938331 1.0868881 32 0 0 0 85.688843
-1.6969938 3.0839539 1.0401173 31 0 0 0 85.693794
-1.6757563 2.8537626 1.0578814 33 0 0 0 85.698738
-1.6463213 2.6475201 1.070715 35 0 0 0 85.703682
-1.6008438 2.4451647 1.0806229 33 0 0 0 85.708633
-1.7624093 3.0254269 1.030756 32 0 0 0 85.713577
-1.7341416 2.8001819 1.0505579 33 0 0 0 85.718529
-1.6917398 2.5878472 1.0614387 35 0 0 0 85.723473
-1.6471752 2.3994937 1.0753629 32 0 0 0 85.728416
-1.832768 2.9769287 1.0253888 31 0 0 0 85.733368
-1.7895434 2.7435794 1.0422436 33 0 0 0 85.738312
-1.7381456 2.5291824 1.0511602 34 0 0 0 85.743256
-1.6905234 2.3508015 1.0691121 32 0 0 0 85.748207
-1.8971784 2.9193904 1.0170351 31 0 0 0 85.753151
-1.8439546 2.6849699 1.0329314 33 0 0 0 85.758095
-1.7924711 2.4855645 1.0478702 35 0 0 0 85.763046
-1.7358646 2.3041201 1.0648563 32 0 0 0 85.76799
-1.959595 2.860836 1.0086895 38 0 0 0 85.772942
-1.9023206 2.6353807 1.0286162 34 0 0 0 85.777885
-1.8408453 2.4339049 1.0425949 34 0 0 0 85.782829
-1.7772154 2.25541 1.0596153 32 0 0 0 85.787781
-2.0160675 2.7932396 0.9983573 35 0 0 0 85.792725
-1.9547309 2.5777516 1.0213158 33 0 0 0 85.797684
-1.8862319 2.3792255 1.0353286 35 0 0 0 85.802628
-1.8205475 2.209712 1.0553707 33 0 0 0 85.807571
-2.0685532 2.7236135 0.98804009 34 0 0 0 85.812523
-2.0031648 2.516094 1.0130273 32 0 0 0 85.817467
-1.9326042 2.3275495 1.0300633 34 0 0 0 85.822411
-1.8559414 2.1529615 1.047145 34 0 0 0 85.827362
-2.1259995 2.6610177 0.98071259 35 0 0 0 85.832306
-2.0565596 2.4614668 1.0077285 32 0 0 0 85.83725
-1.9789827 2.2748723 1.0247972 35 0 0 0 85.842201
-1.8942893 2.1042271 1.0419186 31 0 0 0 85.847145
-2.1893995 2.6064596 0.976372 40 0 0 0 85.852097
-2.0990162 2.3957651 0.99846131 34 0 0 0 85.85704
-2.0144155 2.2121205 1.0155641 34 0 0 0 85.861984
-1.9276812 2.0474606 1.0337026 44 0 0 0 85.866936
-2.2438507 2.5428398 0.96905756 38 0 0 0 85.87188
-2.1444509 2.3340812 0.99118787 31 0 0 0 85.876831
-2.0558062 2.1574059 1.0103177 34 0 0 0 85.881775
-1.9700079 2.0037477 1.0324676 45 0 0 0 85.886719
-2.2833953 2.4631181 0.95678449 36 0 0 0 85.89167
-2.1918671 2.2754092 0.98491108 31 0 0 0 85.896614
-2.0932095 2.099664 1.0030845 35 0 0 0 85.901558
-2.0023849 1.9499693 1.0262612 37 0 0 0 85.906509
-2.8475606 1.5752149 0.89615476 32 0 0 0 85.90918
-2.3408208 2.4045134 0.95246613 36 0 0 0 85.911453
-2.6734686 1.4529885 0.92486286 29 0 0 0 85.914124
-2.2341914 2.2127564 0.97879672 33 0 0 0 85.916397
-2.5342832 1.356932 0.95431292 36 0 0 0 85.919075
-2.1384673 2.0490239 1.0009664 36 0 0 0 85.921349
-2.3989849 1.2759061 0.98276788 36 0 0 0 85.924019
-2.0386307 1.9002634 1.0221747 34 0 0 0 85.926292
-2.886976 1.5065527 0.89605248 33 0 0 0 85.928963
-2.3941498 2.3419421 0.94831628 36 0 0 0 85.931252
-2.6999478 1.3861568 0.92166811 31 0 0 0 85.933914
-2.2786257 2.1520619 0.97353166 30 0 0 0 85.936195
-2.5657017 1.3001331 0.95411134 38 0 0 0 85.938858
-2.1818476 1.9973181 0.9987185 40 0 0 0 85.941139
-2.4183743 1.2200291 0.9776175 34 0 0 0 85.94381
-2.0730009 1.8484969 1.0179642 37 0 0 0 85.946091
-2.9175057 1.4327475 0.8928321 34 0 0 0 85.948753
-2.4505832 2.2833276 0.94600481 38 0 0 0 85.951035
-2.7334054 1.3233718 0.92045057 30 0 0 0 85.953697
-2.3250456 2.0943775 0.9702633 31 0 0 0 85.955986
-2.5841415 1.2372472 0.94895595 32 0 0 0 85.958649
-2.217258 1.9395585 0.99349594 36 0 0 0 85.96093
-2.4397638 1.1651634 0.9744606 37 0 0 0 85.963593
-2.1033735 1.7957022 1.0127697 37 0 0 0 85.965874
-2.9460371 1.3579286 0.88861924 32 0 0 0 85.968536
-2.4980705 2.214653 0.93971729 37 0 0 0 85.970825
-2.7688622 1.2615978 0.92122668 29 0 0 0 85.973488
-2.3684676 2.0356724 0.9660067 31 0 0 0 85.975769
-2.6085737 1.1764013 0.94577885 32 0 0 0 85.978432
-2.2536669 1.8818053 0.98826987 34 0 0 0 85.980713
-2.4631531 1.1113086 0.97329724 39 0 0 0 85.983376
-2.1407213 1.7479528 1.0105536 39 0 0 0 85.985664
-2.961592 1.2790172 0.8834554 31 0 0 0 85.988327
-2.5425639 2.1449559 0.93344152 37 0 0 0 85.990608
-2.793345 1.1937498 0.91804051 28 0 0 0 85.993271
-2.4099059 1.9739534 0.96075481 36 0 0 0 85.995552
-2.6300051 1.1155331 0.94261485 32 0 0 0 85.998222
-2.296041 1.8310887 0.98702955 38 0 0 0 86.000504
-2.4845405 1.0564417 0.97014129 39 0 0 0 86.003166
-2.1740859 1.6971754 1.0073506 35 0 0 0 86.005447
-2.9981053 1.2092476 0.88421762 33 0 0 0 86.00811
-2.5810809 2.0712163 0.92618573 37 0 0 0 86.010399
-2.823817 1.12894 0.91783434 28 0 0 0 86.013062
-2.451344 1.9132305 0.95750505 36 0 0 0 86.015343
-2.6534436 1.0546761 0.94144285 31 0 0 0 86.018005
-2.3314519 1.7733253 0.98280883 33 0 0 0 86.020287
-2.5039382 1.0005589 0.96799266 35 0 0 0 86.022957
-2.2054496 1.6463829 1.0041562 37 0 0 0 86.025238
-3.0186467 1.1323698 0.88003689 32 0 0 0 86.027901
-2.6275628 2.0045273 0.92290753 37 0 0 0 86.030182
