# .PCD v0.7 - Point Cloud Data file format
VERSION 0.7
FIELDS x y z intensity normal_x normal_y normal_z curvature
SIZE 4 4 4 4 4 4 4 4
TYPE F F F F F F F F
COUNT 1 1 1 1 1 1 1 1
WIDTH 935
HEIGHT 1
VIEWPOINT 0 0 0 1 0 0 0
POINTS 935
DATA ascii
2.0324593 2.6461165 0.12992832 39 0 0 0 24.928335
2.0593748 2.6625619 0.22645424 1 0 0 0 24.943176
1.5738478 2.4198482 -0.053853773 5 0 0 0 24.958015
1.6838455 2.5558195 0.031309795 56 0 0 0 24.972858
1.715822 2.5823638 0.11493591 52 0 0 0 24.9877
3.7882597 5.6441545 0.43690461 45 0 0 0 25.002541
1.2950889 2.3417778 -0.048138306 5 0 0 0 25.01738
1.7517676 3.116111 0.032956101 1 0 0 0 25.032223
3.0832202 5.4184351 0.21949629 107 0 0 0 25.047064
3.1281786 5.4191737 0.38335553 115 0 0 0 25.061905
2.4619236 5.3153086 -0.10226004 105 0 0 0 25.076744
2.5199382 5.3242898 0.050848342 113 0 0 0 25.091585
2.5747244 5.3522182 0.19790848 99 0 0 0 25.106428
2.6249278 5.3570604 0.34486639 110 0 0 0 25.121267
1.9861035 5.2356796 -0.093233198 63 0 0 0 25.136108
2.0454547 5.2436924 0.042897075 69 0 0 0 25.150949
2.1043215 5.2807021 0.1770381 91 0 0 0 25.165792
2.1606231 5.2946615 0.31011447 105 0 0 0 25.180632
1.3740336 5.3665233 0.2584728 14 0 0 0 25.183777
1.5472564 5.1627169 -0.085288487 58 0 0 0 25.195473
0.79377753 5.2731686 -0.072260492 1 0 0 0 25.198616
1.614526 5.1888747 0.038001828 66 0 0 0 25.210314
0.86411387 5.3163958 0.031098045 2 0 0 0 25.213455
1.6661097 5.2007494 0.157988 60 0 0 0 25.225157
0.95727509 5.534059 0.13701271 5 0 0 0 25.228298
1.7908673 5.4159675 0.28849214 25 0 0 0 25.239996
0.97032541 5.2712102 0.22807135 9 0 0 0 25.243139
1.1579667 5.1686907 -0.078563228 28 0 0 0 25.254835
0.4109078 5.1992559 -0.064467713 5 0 0 0 25.25798
1.2077259 5.1235275 0.033345655 62 0 0 0 25.269678
0.50198382 5.4909005 0.028461242 4 0 0 0 25.27282
1.2633353 5.146482 0.14141352 42 0 0 0 25.284519
0.53322583 5.2213802 0.11585465 4 0 0 0 25.287663
0.60128808 5.295577 0.20419079 4 0 0 0 25.302504
0.042893015 5.2456412 -0.057301 106 0 0 0 25.317345
0.1102007 5.2578187 0.023974439 104 0 0 0 25.332184
0.16924284 5.28585 0.10410716 113 0 0 0 25.347027
0.23050959 5.2509122 0.17923327 18 0 0 0 25.361868
-0.32257742 5.2050686 -0.049144469 104 0 0 0 25.376707
-0.25495633 5.2112556 0.021130653 96 0 0 0 25.391548
-0.19640298 5.22228 0.090239994 108 0 0 0 25.406389
-0.13268669 5.2283978 0.15544082 117 0 0 0 25.421232
-0.69971371 5.2573123 -0.041129082 55 0 0 0 25.436071
-0.63215655 5.2775044 0.019153731 150 0 0 0 25.450912
-0.56557566 5.2416701 0.078376286 150 0 0 0 25.465754
-0.50919563 5.3306742 0.13550092 150 0 0 0 25.480597
-0.99680847 4.8589272 -0.029950762 1 0 0 0 25.495436
-0.93395394 4.8770413 0.016240742 3 0 0 0 25.510277
-0.88463289 4.9239163 0.063201614 3 0 0 0 25.525118
-0.88106686 5.2900219 0.11154774 93 0 0 0 25.539961
-1.3655925 4.8913383 -0.02178064 62 0 0 0 25.5548
-1.3218528 4.9811258 0.015107063 30 0 0 0 25.569639
-1.2324913 4.870698 0.050694484 1 0 0 0 25.584482
-1.1658027 4.8578806 0.081931427 1 0 0 0 25.599323
-1.8376925 5.1619487 -0.012347755 114 0 0 0 25.614164
-1.7662524 5.1672235 0.014991215 105 0 0 0 25.629004
-1.7070771 5.1862798 0.043112233 119 0 0 0 25.643847
-1.6370099 5.1846447 0.064462848 98 0 0 0 25.961292
-2.0752914 4.755805 -0.00098008686 65 0 0 0 25.976133
-2.009697 4.7659764 0.013248354 91 0 0 0 25.990976
-1.9437648 4.7561488 0.028468313 89 0 0 0 26.005816
-1.9312329 4.8853951 0.038799472 18 0 0 0 26.020657
-2.6296608 5.0390124 0.010975437 103 0 0 0 26.035498
-2.5598447 5.0482635 0.014280087 106 0 0 0 26.050341
-2.498152 5.0623698 0.019437859 90 0 0 0 26.06518
-2.432224 5.0705528 0.017668223 100 0 0 0 26.080021
-2.9941521 4.8815408 0.02413502 110 0 0 0 26.094862
-2.8147528 4.7047157 0.014330442 43 0 0 0 26.109703
-2.8610041 4.8949366 0.0076168175 44 0 0 0 26.124544
-2.8535953 5.0001001 -0.0061668805 89 0 0 0 26.139383
-3.4887893 4.8957939 0.040019523 107 0 0 0 26.154226
-3.4173853 4.9000845 0.016346063 119 0 0 0 26.169067
-3.2575622 4.7649202 -0.0027927931 87 0 0 0 26.183908
-3.092417 4.6188502 -0.028843004 41 0 0 0 26.198748
-3.7368267 4.5453815 0.053208433 29 0 0 0 26.213591
-3.597573 4.4588661 0.017721595 1 0 0 0 26.228432
-3.8245122 4.8239231 -0.014207508 41 0 0 0 26.243273
-3.7751238 4.8478336 -0.056277022 93 0 0 0 26.258112
-4.507483 4.7737975 0.07616511 112 0 0 0 26.272955
-5.0069022 4.1559381 -0.12853888 69 0 0 0 26.283358
-4.443594 4.7819686 0.022351565 135 0 0 0 26.287796
-5.402863 3.7667754 0.12791836 71 0 0 0 26.298201
-4.3695168 4.7743154 -0.026284622 96 0 0 0 26.302635
-5.561758 3.9110379 0.036083147 21 0 0 0 26.31304
-3.9729466 4.407321 -0.076223381 16 0 0 0 26.317476
-4.6440859 4.2873602 0.089329794 46 0 0 0 26.332317
-4.6408806 4.3434677 0.025428247 48 0 0 0 26.34716
-5.3259001 3.1981235 0.13797791 73 0 0 0 26.357565
-4.6234169 4.3818235 -0.035222307 41 0 0 0 26.362
-4.6078749 4.4251499 -0.1049064 27 0 0 0 26.376841
-5.1235681 4.1179047 0.11039817 54 0 0 0 26.391682
-8.7736197 5.3526554 -0.26714784 8 0 0 0 26.402086
-5.0731802 4.1248474 0.030330505 59 0 0 0 26.406525
-5.243875 2.6825676 0.14716905 70 0 0 0 26.416927
-5.0430722 4.1424308 -0.045103241 54 0 0 0 26.421364
-8.4616127 4.3481445 -0.2710371 9 0 0 0 26.461451
-5.1838479 2.2226295 0.15599412 66 0 0 0 26.476292
-8.538559 3.6278007 -0.28690019 11 0 0 0 26.520815
-5.1284871 1.7986131 0.16575915 64 0 0 0 26.535656
-8.4139614 2.8690081 -0.29307112 12 0 0 0 26.580177
-5.0565319 1.3978918 0.17484665 62 0 0 0 26.59502
-8.1090565 2.1632919 -0.093866773 0 0 0 0 26.624701
-8.311492 2.1708307 -0.29760635 14 0 0 0 26.639542
-4.7679224 -0.7478742 0.24497578 78 0 0 0 27.019484
-7.7811923 -1.4996928 -0.055890117 8 0 0 0 27.049168
-7.7332449 -1.6437535 -0.29613304 15 0 0 0 27.064009
-4.7105737 -1.0648519 0.25685355 112 0 0 0 27.078848
-7.6955905 -2.0591688 -0.04463489 10 0 0 0 27.108532
-7.6521702 -2.2243109 -0.29097697 13 0 0 0 27.123371
-7.3056378 -3.7565663 0.0033651446 7 0 0 0 27.134687
-4.6681628 -1.3900955 0.27245191 110 0 0 0 27.138212
-7.2289963 -3.9741299 -0.25940773 13 0 0 0 27.149529
-4.519196 -2.409632 0.32249594 114 0 0 0 27.16437
-7.6059041 -2.6275778 -0.030310638 8 0 0 0 27.167896
-7.5520678 -2.8095388 -0.28347489 15 0 0 0 27.182735
-6.9211211 -4.2008028 0.021180328 11 0 0 0 27.194052
-4.61273 -1.716112 0.2872884 115 0 0 0 27.197577
-6.8520498 -4.4475074 -0.23775227 10 0 0 0 27.208893
-4.4651365 -2.7786837 0.34327796 104 0 0 0 27.223734
-7.5358605 -3.2183368 -0.015362124 7 0 0 0 27.227261
-7.4655762 -3.4190116 -0.27523941 14 0 0 0 27.2421
-6.8392744 -4.8473768 0.044302981 10 0 0 0 27.253416
-4.5621486 -2.0532172 0.30402836 132 0 0 0 27.256941
-6.7614899 -5.1259322 -0.22349407 11 0 0 0 27.268255
-4.4067578 -3.1686649 0.36612478 98 0 0 0 27.283098
-4.4880447 -3.4510541 0.21242429 38 0 0 0 27.297939
-4.2394075 -3.4786329 0.043941759 4 0 0 0 27.31278
-3.8962207 -3.4265511 -0.11975426 77 0 0 0 27.32762
-4.1858797 -3.4577894 0.37701494 72 0 0 0 27.342463
-3.8712595 -3.4252102 0.2077796 86 0 0 0 27.357304
-3.5691905 -3.377856 0.054326031 68 0 0 0 27.372145
-3.2811069 -3.3397529 -0.091390118 70 0 0 0 27.386984
-3.5598447 -3.3647761 0.3495751 79 0 0 0 27.401827
-3.2835615 -3.3338804 0.19963591 76 0 0 0 27.416668
-3.0207229 -3.2922249 0.063459225 73 0 0 0 27.431507
-2.7678506 -3.2577481 -0.067905225 88 0 0 0 27.446348
-3.0377452 -3.2825973 0.32721552 73 0 0 0 27.461189
-2.7946942 -3.2572942 0.19466373 87 0 0 0 27.476032
-2.5708389 -3.232332 0.072761327 92 0 0 0 27.490871
-2.3079753 -3.1536849 -0.045391116 50 0 0 0 27.505713
-2.6014142 -3.2219338 0.31126413 96 0 0 0 27.520554
-2.3826115 -3.1960633 0.19126824 93 0 0 0 27.535397
-2.172111 -3.1633418 0.08112596 99 0 0 0 27.550236
-1.9402459 -3.0952451 -0.027602207 52 0 0 0 27.565077
-2.2221 -3.162276 0.29626197 106 0 0 0 27.579918
-2.0204961 -3.1397154 0.18994887 112 0 0 0 27.594761
-1.8283494 -3.1101806 0.089579597 107 0 0 0 27.913849
-1.6447153 -3.0969536 -0.010078011 90 0 0 0 27.92869
-1.8839937 -3.1072021 0.28461164 112 0 0 0 27.943533
-1.7033969 -3.0960307 0.18889722 98 0 0 0 27.958372
-1.5280976 -3.0729523 0.098094448 89 0 0 0 27.973211
-1.3497995 -3.0498235 0.0073454576 94 0 0 0 27.988054
-1.5933243 -3.077136 0.27694353 99 0 0 0 28.002895
-1.4171145 -3.0520451 0.18915765 96 0 0 0 28.017736
-1.2489936 -3.0270975 0.10622444 104 0 0 0 28.032576
-1.0837163 -3.0112014 0.023232499 91 0 0 0 28.047419
-1.3188729 -3.0333564 0.26798388 103 0 0 0 28.06226
-1.156669 -3.0195169 0.19093497 100 0 0 0 28.077101
-0.99767292 -2.9947329 0.11483457 102 0 0 0 28.09194
-0.8356778 -2.969898 0.038787968 99 0 0 0 28.106783
-1.0693643 -2.9970181 0.26256087 105 0 0 0 28.121624
-0.91428596 -2.9833076 0.19238129 91 0 0 0 28.136463
-0.76050204 -2.9536188 0.12318848 107 0 0 0 28.151304
0.072949521 -2.8332229 0.16342627 120 0 0 0 28.152464
-0.60554677 -2.9349127 0.055008918 111 0 0 0 28.166145
0.21547288 -2.8147433 0.11902246 111 0 0 0 28.167307
-0.83583242 -2.9619632 0.25684169 106 0 0 0 28.180988
-0.0074002864 -2.8456423 0.24697313 120 0 0 0 28.182148
-0.68398517 -2.9433138 0.19460604 108 0 0 0 28.195827
0.12990943 -2.8242562 0.21147755 125 0 0 0 28.196987
-0.53913683 -2.9257867 0.13324185 109 0 0 0 28.210669
0.26632386 -2.8078871 0.17496146 115 0 0 0 28.211828
-0.38834131 -2.9041574 0.070987634 107 0 0 0 28.22551
0.40854844 -2.7784159 0.13655882 136 0 0 0 28.226669
-0.61627984 -2.9301569 0.25286216 106 0 0 0 28.240353
0.18410726 -2.8153336 0.24647564 129 0 0 0 28.241512
-0.4695411 -2.9126017 0.1975321 109 0 0 0 28.255192
0.32127362 -2.7919545 0.21697797 134 0 0 0 28.256351
-0.32692197 -2.8881171 0.14213122 118 0 0 0 28.270033
0.45635626 -2.761611 0.18544619 127 0 0 0 28.271193
-0.18120041 -2.8695812 0.086781934 110 0 0 0 28.284874
0.60288274 -2.7580752 0.15510355 110 0 0 0 28.286034
-0.40577626 -2.8965135 0.24971542 108 0 0 0 28.299717
0.3744083 -2.77405 0.24696006 143 0 0 0 28.300877
-0.26319793 -2.8770349 0.20131035 107 0 0 0 28.314556
0.51163822 -2.7606766 0.22345597 137 0 0 0 28.315716
-0.12353266 -2.8626082 0.1528483 117 0 0 0 28.329395
0.64981711 -2.7432866 0.19897096 117 0 0 0 28.330557
0.021012228 -2.8390965 0.10247995 115 0 0 0 28.344238
0.7907213 -2.7078474 0.17254663 122 0 0 0 28.345398
-0.20420189 -2.8690314 0.24839869 109 0 0 0 28.359079
0.56708777 -2.7557352 0.24846852 119 0 0 0 28.360241
-0.064662717 -2.8536108 0.20593485 113 0 0 0 28.37392
0.70613754 -2.7403355 0.23299833 121 0 0 0 28.37508
0.79148275 -2.5498288 0.19966856 116 0 0 0 28.389919
0.93151754 -2.5314128 0.18221663 107 0 0 0 28.404762
0.76271343 -2.7363756 0.25202769 137 0 0 0 28.419603
0.84486479 -2.5429273 0.22664236 118 0 0 0 28.434444
0.97881097 -2.5246196 0.21407965 116 0 0 0 28.449284
1.1196511 -2.5011942 0.20264487 102 0 0 0 28.464127
0.89841515 -2.5310185 0.23961949 130 0 0 0 28.478968
1.0332326 -2.5147011 0.2360716 123 0 0 0 28.493809
1.1680012 -2.4923837 0.22952569 118 0 0 0 28.508648
1.3394575 -2.5164461 0.22961372 150 0 0 0 28.523491
1.0888743 -2.5017569 0.2430844 113 0 0 0 28.538332
1.2286154 -2.4883606 0.2466231 117 0 0 0 28.553171
1.4587895 -2.6294405 0.26369742 113 0 0 0 28.568012
1.6203363 -2.60267 0.26563811 101 0 0 0 28.582853
1.289364 -2.47633 0.24872497 134 0 0 0 28.597696
1.523286 -2.6133513 0.27586982 112 0 0 0 28.612535
1.6817524 -2.5937014 0.28371611 101 0 0 0 28.784256
1.8512053 -2.5698082 0.29379275 103 0 0 0 28.799097
1.5961124 -2.6061761 0.27315229 112 0 0 0 28.81394
1.7534254 -2.5814939 0.29001063 96 0 0 0 28.828779
1.9228547 -2.5636065 0.30708256 94 0 0 0 28.84362
2.0960085 -2.5306549 0.32523116 97 0 0 0 28.858461
1.835452 -2.5741062 0.28148547 110 0 0 0 28.873304
1.9985671 -2.5473309 0.30744931 100 0 0 0 28.888144
2.1747661 -2.5233328 0.33164644 99 0 0 0 28.902985
2.3607359 -2.4901695 0.36002585 97 0 0 0 28.917826
2.0896325 -2.5347898 0.29208699 113 0 0 0 28.932669
2.2635655 -2.5068362 0.3272461 104 0 0 0 28.947508
2.4505832 -2.4806595 0.35963887 105 0 0 0 28.962349
2.6462684 -2.4413366 0.39819676 110 0 0 0 28.97719
2.3656859 -2.4901075 0.30508202 102 0 0 0 28.992031
2.5484047 -2.4580097 0.34840128 110 0 0 0 29.006872
2.750169 -2.4285889 0.39206147 110 0 0 0 29.021711
2.969717 -2.3938682 0.443046 102 0 0 0 29.036554
2.6686113 -2.4399753 0.32056016 114 0 0 0 29.051395
2.8671119 -2.4056156 0.37416458 109 0 0 0 29.066236
3.1018035 -2.385644 0.43141147 106 0 0 0 29.081076
3.3399751 -2.3436143 0.49673578 94 0 0 0 29.095919
3.0124729 -2.3881555 0.33877161 101 0 0 0 29.11076
3.2488799 -2.3641613 0.40805197 104 0 0 0 29.125601
3.4870157 -2.3231366 0.47637331 90 0 0 0 29.14044
4.4766231 -2.1743135 0.59631681 78 0 0 0 29.144772
3.7538416 -2.2766287 0.55721599 90 0 0 0 29.155281
4.4767098 -1.9623228 0.6684593 12 0 0 0 29.159613
3.4212594 -2.3382435 0.36414558 93 0 0 0 29.170124
3.7862339 -1.8629687 0.36702943 59 0 0 0 29.174452
3.6631436 -2.2961628 0.44553512 93 0 0 0 29.184963
4.4681201 -2.0024536 0.51623333 35 0 0 0 29.189295
3.9409976 -2.2554734 0.53057081 90 0 0 0 29.199804
4.0615072 -1.6433413 0.53714073 13 0 0 0 29.204136
4.0129399 -2.0862627 0.59697908 150 0 0 0 29.214645
3.8715398 -2.2606349 0.39227715 43 0 0 0 29.229488
3.9207168 -1.5946974 0.36559191 13 0 0 0 29.233816
4.0503678 -2.1626248 0.4785656 72 0 0 0 29.244328
3.9357154 -1.4454633 0.44696391 150 0 0 0 29.248657
4.8329391 -1.5853158 0.63704097 11 0 0 0 29.2635
5.1508245 -1.4889677 0.77983612 22 0 0 0 29.278339
4.0128808 -1.307146 0.36340216 11 0 0 0 29.29318
4.034976 -1.1707963 0.45189387 150 0 0 0 29.308022
7.0378585 -1.7910758 0.92756855 34 0 0 0 29.322865
7.5606151 -1.6562866 1.1560787 121 0 0 0 29.337704
4.0519209 -1.0074956 0.3562617 150 0 0 0 29.352545
4.1362095 -0.89509904 0.45785752 99 0 0 0 29.367386
7.5298243 -1.3817955 0.99562514 109 0 0 0 29.382229
7.8446722 -1.1865301 1.2144294 17 0 0 0 29.397068
7.5918789 -1.3186709 0.65569115 101 0 0 0 29.411907
8.0482006 -1.162019 0.88701278 16 0 0 0 29.42675
8.5747881 -0.98318362 1.1396124 132 0 0 0 29.441591
8.6707039 -0.73762983 1.3595104 117 0 0 0 29.456432
5.9038982 -0.59622431 0.50074357 7 0 0 0 29.471272
5.7326117 -0.42516771 0.63078529 1 0 0 0 29.486115
5.8852916 -0.27463514 0.78763646 0 0 0 0 29.500956
9.2972221 -0.17810841 1.4820602 9 0 0 0 29.515797
6.0066643 -0.17151079 0.5048086 59 0 0 0 29.530636
6.2479715 -0.026491065 0.68924958 0 0 0 0 29.545479
6.3801355 0.13468544 0.86473936 2 0 0 0 29.56032
9.2138214 0.42342821 1.4938654 14 0 0 0 29.575159
6.4136853 0.27533996 0.53534842 10 0 0 0 29.59
6.5577145 0.4277083 0.72704643 22 0 0 0 29.604841
6.4923725 0.57490093 0.89054698 121 0 0 0 30.025326
8.87183 0.99072635 1.4654102 25 0 0 0 30.040169
6.5325618 0.75367033 0.54529202 135 0 0 0 30.055008
6.5429516 0.88777673 0.73357707 103 0 0 0 30.069847
6.4299078 1.011817 0.89764673 121 0 0 0 30.08469
8.6833887 1.5505127 1.4663134 32 0 0 0 30.099531
6.465776 1.220521 0.5423314 131 0 0 0 30.114372
6.436501 1.3339589 0.7308948 20 0 0 0 30.129211
6.3665061 1.4447181 0.90572739 44 0 0 0 30.144054
8.6788874 2.1423831 1.500528 41 0 0 0 30.158895
6.3796535 1.7949743 0.73810965 2 0 0 0 30.188576
6.3345942 1.8991486 0.92338508 1 0 0 0 30.203419
8.5846395 2.7297521 1.5241352 51 0 0 0 30.21826
6.1321297 2.1048701 0.52980882 5 0 0 0 30.233101
8.2571602 6.0157046 1.4333199 95 0 0 0 30.243292
6.0308952 2.1600981 0.7140519 18 0 0 0 30.24794
8.2159824 6.0578885 1.7406392 71 0 0 0 30.258135
6.3887849 2.3940227 0.95560563 1 0 0 0 30.262781
5.4115934 4.4750633 0.5674206 1 0 0 0 30.272976
8.485343 3.3190389 1.5496542 29 0 0 0 30.277624
7.8913069 6.5586634 1.1380264 65 0 0 0 30.287815
6.0055304 2.5577242 0.53077555 27 0 0 0 30.292463
7.8427005 6.5797253 1.4331989 48 0 0 0 30.302656
6.208725 2.7280521 0.75652599 1 0 0 0 30.307304
7.7726889 6.5654249 1.7279676 72 0 0 0 30.317497
8.5975437 3.9079804 1.3269252 36 0 0 0 30.322145
6.7328277 6.4413033 0.75517988 57 0 0 0 30.33234
8.5279303 4.0027041 1.6087669 38 0 0 0 30.336988
6.7289338 6.4411221 1.0311359 54 0 0 0 30.347179
5.833107 2.9998136 0.53192019 30 0 0 0 30.351828
6.7032452 6.4415803 1.2947019 55 0 0 0 30.36202
6.1985316 3.2548566 0.78061622 5 0 0 0 30.366669
6.6882772 6.4492159 1.5674651 56 0 0 0 30.376862
8.4671812 4.5617585 1.3529299 13 0 0 0 30.38151
2.3443999 2.5894601 0.28243536 41 0 0 0 30.391705
8.3356867 4.5964432 1.6276311 33 0 0 0 30.396353
5.6992927 6.2708225 0.93460071 78 0 0 0 30.406544
5.8750868 3.5765018 0.55697393 40 0 0 0 30.411192
5.7156177 6.2939973 1.1769286 82 0 0 0 30.421385
5.995935 3.7054427 0.78422773 91 0 0 0 30.426031
5.7269864 6.3060851 1.4271624 74 0 0 0 30.436226
4.3980756 5.624052 0.58092427 94 0 0 0 30.451069
8.1646261 5.2295432 1.6569008 28 0 0 0 30.455715
4.4284701 5.6214747 0.78748393 102 0 0 0 30.465908
5.7264714 4.0810008 0.56858516 150 0 0 0 30.470556
4.4409804 5.6206021 0.98572499 106 0 0 0 30.480747
5.692524 4.0933452 0.7790069 151 0 0 0 30.485395
4.4721599 5.6310396 1.1923065 89 0 0 0 30.49559
3.7737195 5.6105752 0.55175108 84 0 0 0 30.510431
3.7784832 5.549572 0.73581588 89 0 0 0 30.525272
3.8081231 5.556993 0.91936582 86 0 0 0 30.540112
3.8436723 5.5635104 1.1090212 100 0 0 0 30.554955
3.1151159 5.4395266 0.51488125 93 0 0 0 30.569796
2.217489 5.3173499 0.76454931 102 0 0 0 30.574747
3.1710579 5.4422851 0.68859017 114 0 0 0 30.584637
2.2767639 5.3282647 0.90962958 111 0 0 0 30.58959
3.2128782 5.4548955 0.85736263 106 0 0 0 30.599476
1.6578916 5.2471371 0.4634856 8 0 0 0 30.604431
3.2539136 5.4524889 1.0281099 97 0 0 0 30.614319
1.8561928 5.6434073 0.64233285 19 0 0 0 30.619272
2.5799227 5.3534818 0.49195838 101 0 0 0 30.62916
1.8218915 5.3737459 0.74353284 20 0 0 0 30.634111
2.6448631 5.3684831 0.65214342 106 0 0 0 30.643999
1.8627126 5.3143539 0.86722928 24 0 0 0 30.648954
2.6958811 5.3842545 0.80708033 98 0 0 0 30.65884
1.2753593 5.3327541 0.46773446 23 0 0 0 30.663795
2.7412 5.3809271 0.96290159 95 0 0 0 30.673681
1.3396757 5.3057604 0.58987367 7 0 0 0 30.678637
2.0999539 5.3034568 0.47736385 108 0 0 0 30.688524
1.4210635 5.3850608 0.72139692 15 0 0 0 30.693476
2.1595812 5.294374 0.62143439 111 0 0 0 30.703363
1.4335895 5.1951952 0.81448883 44 0 0 0 30.708319
0.91716057 5.5628004 0.48753345 3 0 0 0 30.72316
0.94466704 5.2601728 0.57480729 4 0 0 0 30.738001
0.99965727 5.2130299 0.67776275 16 0 0 0 30.75284
1.0493044 5.1327953 0.77459729 61 0 0 0 30.767681
0.50856209 5.4819884 0.48220783 0 0 0 0 30.782524
0.56195211 5.1967978 0.55995345 1 0 0 0 30.797363
0.67062128 5.5475831 0.70416641 1 0 0 0 30.812204
-0.83320338 5.2836061 0.63526303 150 0 0 0 30.822687
0.74574137 5.5507808 0.80951715 4 0 0 0 30.827045
-0.7541225 5.3318987 0.70071495 96 0 0 0 30.83753
0.11510669 5.2794256 0.47006655 65 0 0 0 30.841888
-1.3173925 4.9605961 0.4914102 81 0 0 0 30.852371
0.19222958 5.0756435 0.54329395 15 0 0 0 30.856728
-1.2957668 5.2559619 0.57603139 99 0 0 0 30.867212
0.28130454 5.4701128 0.68019062 5 0 0 0 30.871569
-1.2129955 5.2723155 0.63252401 101 0 0 0 30.882051
0.36045343 5.4833832 0.77461886 4 0 0 0 30.88641
-1.1228862 5.2757926 0.68213576 96 0 0 0 30.896894
-0.25509977 5.2262735 0.47345945 95 0 0 0 30.901253
-1.7740008 5.1880536 0.53550124 105 0 0 0 30.911736
-0.16692856 5.2466998 0.56005275 100 0 0 0 30.916092
-1.6718409 5.1927333 0.58132786 102 0 0 0 30.926577
-0.094483368 5.2538643 0.64335626 103 0 0 0 30.930931
-1.5880412 5.2181106 0.6278441 105 0 0 0 30.941416
-0.016069155 5.2661285 0.72376871 103 0 0 0 30.945774
-1.5009865 5.2345424 0.66840988 109 0 0 0 30.956259
-0.63689202 5.3119526 0.49276033 86 0 0 0 30.960615
-2.1603067 5.1226602 0.55562437 111 0 0 0 30.9711
-0.54806167 5.3583956 0.57438403 104 0 0 0 30.975456
-2.0632992 5.1472616 0.59137297 109 0 0 0 30.985941
-0.45339045 5.2019191 0.62895483 108 0 0 0 30.990295
-1.9730725 5.1597486 0.62599164 105 0 0 0 31.00078
-0.37276575 5.2122245 0.69940346 108 0 0 0 31.005138
-1.8827902 5.1742392 0.65561157 109 0 0 0 31.015621
-1.0126545 5.2827296 0.50508827 19 0 0 0 31.019979
-2.563796 5.0639925 0.57945603 114 0 0 0 31.030464
-0.84743088 4.8864036 0.52772492 150 0 0 0 31.034821
-2.4635773 5.0876517 0.60425907 116 0 0 0 31.045303
-2.3722055 5.1031642 0.62789869 118 0 0 0 31.060144
-2.2797287 5.1176958 0.64655596 126 0 0 0 31.074986
-2.9853873 5.0050344 0.60897553 123 0 0 0 31.089828
-2.8829551 5.029737 0.62081653 119 0 0 0 31.104668
-2.7873397 5.0423236 0.63352752 122 0 0 0 31.119509
-2.6884856 5.0479655 0.63928902 143 0 0 0 31.13435
-3.4330442 4.9446564 0.64304137 121 0 0 0 31.149193
-3.3243184 4.9644675 0.64298832 123 0 0 0 31.164032
-3.227524 4.9790797 0.64371991 123 0 0 0 31.178871
-3.1306059 4.9936967 0.63745213 124 0 0 0 31.193714
-3.9127684 4.8797579 0.68454629 133 0 0 0 31.208555
-3.795697 4.8947129 0.669635 129 0 0 0 31.223396
-3.6936245 4.9064183 0.65745592 109 0 0 0 31.238235
-3.5975931 4.9270267 0.63917524 127 0 0 0 31.253078
-4.0750284 4.42308 0.67437166 21 0 0 0 31.26792
-4.1057849 4.595613 0.6699661 22 0 0 0 31.282761
-4.1672707 4.7962971 0.67247587 47 0 0 0 31.950373
-4.1037245 4.8553696 0.64564216 132 0 0 0 31.965212
-4.1559191 3.9344041 0.65804797 19 0 0 0 31.980053
-4.2053032 4.096642 0.64330971 20 0 0 0 31.994894
-4.284142 4.2803998 0.63407135 22 0 0 0 32.009735
-4.3976164 4.5076013 0.62025714 23 0 0 0 32.024574
-4.2233028 3.4843118 0.64456582 20 0 0 0 32.039417
-4.3147492 3.6558688 0.62409592 20 0 0 0 32.054256
-4.4315686 3.8450131 0.60819507 21 0 0 0 32.069099
-4.5645499 4.0539017 0.58302444 23 0 0 0 32.083939
-4.2863917 3.0712943 0.63618875 20 0 0 0 32.098782
-4.3954473 3.2275677 0.60739821 20 0 0 0 32.113621
-4.5349059 3.4043481 0.58209085 20 0 0 0 32.128464
-4.6986246 3.6047413 0.54937518 22 0 0 0 32.143303
-4.3176637 2.6697981 0.62737936 19 0 0 0 32.158146
-4.4514437 2.8156726 0.59214771 26 0 0 0 32.172985
-4.6328368 2.9917748 0.56310558 27 0 0 0 32.187828
-4.8413858 3.189445 0.52260268 21 0 0 0 32.202667
-4.3262639 2.2866735 0.619982 18 0 0 0 32.217506
-4.5039639 2.4298372 0.58197951 26 0 0 0 32.232349
-4.7109818 2.5905273 0.54547751 19 0 0 0 32.247192
-4.976429 2.7852776 0.50097716 22 0 0 0 32.262032
-4.3373666 1.9305109 0.61556149 24 0 0 0 32.276871
-4.5336804 2.0553749 0.57222021 23 0 0 0 32.291714
-4.7875199 2.2073081 0.53289336 27 0 0 0 32.306557
-4.8901067 1.4605614 0.51454127 29 0 0 0 32.314205
-4.7198853 -1.3430464 0.5324313 89 0 0 0 32.319866
-5.077446 2.3776655 0.48094773 22 0 0 0 32.321396
-5.1413312 1.5485467 0.44220909 141 0 0 0 32.329044
-4.698348 -1.4176277 0.39974341 124 0 0 0 32.334709
-4.3428259 1.5924413 0.61425406 28 0 0 0 32.336235
-3.945255 -1.2815025 0.68008262 37 0 0 0 32.349548
-4.5748835 1.7037277 0.56827843 24 0 0 0 32.351078
-4.2741966 -1.46982 0.61718398 35 0 0 0 32.364391
-4.8401599 1.8274784 0.5227319 26 0 0 0 32.365921
-4.6664829 -1.6931642 0.5481512 91 0 0 0 32.37923
-5.1918373 1.985839 0.46669883 73 0 0 0 32.38076
-4.6446538 -1.7827419 0.41245645 127 0 0 0 32.394073
-4.3385267 1.2675315 0.61412752 32 0 0 0 32.395599
-3.8572536 -1.5420583 0.6934669 36 0 0 0 32.408913
-4.5750737 1.3527474 0.56305528 23 0 0 0 32.410442
-4.1896186 -1.7694333 0.63348252 35 0 0 0 32.423756
-4.6030488 -2.049123 0.5670417 84 0 0 0 32.438595
-4.5888462 -2.1598265 0.42919704 139 0 0 0 32.453438
-3.7852306 -1.8108792 0.71256471 35 0 0 0 32.468277
-4.0980206 -2.0719361 0.65090013 33 0 0 0 32.48312
-4.4997158 -2.3984368 0.5856334 54 0 0 0 32.497959
-4.5289111 -2.5508502 0.45099911 108 0 0 0 32.512798
-3.6783166 -2.0691347 0.7282784 36 0 0 0 32.527641
-3.9855189 -2.3701034 0.66968477 29 0 0 0 32.542484
-4.3734832 -2.7443838 0.60662603 29 0 0 0 32.557323
-4.4706397 -2.9709091 0.47975028 112 0 0 0 32.572163
-3.5684149 -2.3303463 0.74704039 36 0 0 0 32.587006
-3.8501465 -2.6619039 0.68987167 29 0 0 0 32.601849
-4.2193646 -3.0838828 0.62810814 19 0 0 0 32.616688
-4.4218688 -3.429131 0.51430672 107 0 0 0 32.631527
-3.4545257 -2.5944989 0.76886815 33 0 0 0 32.64637
-3.7255931 -2.9718881 0.71585435 26 0 0 0 32.661213
-4.055264 -3.4272275 0.6537593 77 0 0 0 32.676052
-3.7796533 -3.4006808 0.48357236 80 0 0 0 32.690891
-3.3147464 -2.8512352 0.790151 31 0 0 0 32.705734
-4.409615 -0.86654383 0.59250915 42 0 0 0 32.714912
-3.6266048 -3.322299 0.75336021 41 0 0 0 32.720577
-4.7733464 -0.99837935 0.52106512 101 0 0 0 32.729752
-3.4375663 -3.3481705 0.60562438 71 0 0 0 32.735416
-4.7460885 -1.0598696 0.39148611 137 0 0 0 32.744595
-3.1755075 -3.3058543 0.45221135 73 0 0 0 32.750256
-4.0173845 -1.017225 0.66727948 36 0 0 0 32.759438
-3.194658 -3.1373012 0.82006717 28 0 0 0 32.765099
-4.344945 -1.1674808 0.60345525 39 0 0 0 32.774277
-3.1461036 -3.3024774 0.7117812 74 0 0 0 32.779942
-2.9082382 -3.2624829 0.56699228 83 0 0 0 32.899731
-2.6842258 -3.2358007 0.42989939 82 0 0 0 32.914574
-2.8996365 -3.2514346 0.80820078 75 0 0 0 32.929417
-2.6844256 -3.2348959 0.66894561 92 0 0 0 32.944256
-2.4755955 -3.204464 0.53859019 91 0 0 0 32.959095
-2.2639191 -3.17099 0.41428646 109 0 0 0 32.973938
-2.4896538 -3.193774 0.76039892 99 0 0 0 32.988781
-2.2808585 -3.1633463 0.63204122 86 0 0 0 33.00362
-2.0882361 -3.1351857 0.51540124 97 0 0 0 33.018459
-1.9015065 -3.1191251 0.40364948 108 0 0 0 33.033302
-2.1267965 -3.1368852 0.71977013 103 0 0 0 33.048145
-1.9380966 -3.1167927 0.6060546 100 0 0 0 33.062984
-1.7556926 -3.0848038 0.4982385 110 0 0 0 33.077824
-1.5830722 -3.0749798 0.39823601 94 0 0 0 33.092667
-1.8079699 -3.0877185 0.68736452 107 0 0 0 33.10751
-1.6353147 -3.077894 0.5853616 99 0 0 0 33.122349
-1.4669553 -3.0561409 0.48929313 94 0 0 0 33.137188
-1.2936807 -3.0313106 0.3953118 105 0 0 0 33.152031
-1.526984 -3.0581737 0.66328186 99 0 0 0 33.16687
-1.3556912 -3.0333757 0.56826532 96 0 0 0 33.181713
-1.1896135 -3.0016649 0.47916341 102 0 0 0 33.196552
-1.0283333 -2.9880362 0.39496464 102 0 0 0 33.211395
-1.2622507 -3.0138958 0.63992286 96 0 0 0 33.226234
-1.1019875 -3.0002851 0.55670595 96 0 0 0 33.241077
-0.94593561 -2.9767427 0.47642305 108 0 0 0 33.255917
-0.78498393 -2.9491241 0.39822784 101 0 0 0 33.27076
-1.0223925 -2.9860294 0.62411594 97 0 0 0 33.285599
-0.86339355 -2.9624434 0.5468834 97 0 0 0 33.300442
-0.71344709 -2.9410059 0.47449213 102 0 0 0 33.315281
-0.55848897 -2.9224911 0.40418524 103 0 0 0 33.330124
-0.79275328 -2.9433308 0.60713816 97 0 0 0 33.344963
-0.64084625 -2.9248667 0.53977817 116 0 0 0 33.359802
-0.4943471 -2.9044249 0.47536495 105 0 0 0 33.881046
-0.34147981 -2.8869684 0.41100758 111 0 0 0 33.895889
-0.57933897 -2.9138265 0.59691191 109 0 0 0 33.910728
-0.43154061 -2.8974533 0.53746641 109 0 0 0 33.925568
-0.28582251 -2.8771141 0.47898751 105 0 0 0 33.940407
-0.13413781 -2.8546813 0.42061242 107 0 0 0 33.955254
-0.37460509 -2.8865702 0.588467 111 0 0 0 33.970093
-0.22889692 -2.8732369 0.53698254 107 0 0 0 33.984932
-0.084407263 -2.8439214 0.48348805 117 0 0 0 33.999775
0.065280892 -2.8315287 0.43407044 112 0 0 0 34.014614
-0.17790428 -2.8604484 0.58287936 116 0 0 0 34.029457
-0.032378774 -2.8421233 0.53739458 114 0 0 0 34.044296
0.11016185 -2.8258469 0.49285623 123 0 0 0 34.059135
0.2615577 -2.8004308 0.44847664 101 0 0 0 34.073978
0.015698945 -2.831382 0.58023733 117 0 0 0 34.088821
0.16008973 -2.8110802 0.54073346 116 0 0 0 34.103661
0.3024638 -2.790812 0.50219434 116 0 0 0 34.118504
0.45581761 -2.7703719 0.46484384 106 0 0 0 34.133343
0.2043488 -2.8074012 0.5795027 117 0 0 0 34.148186
0.34855601 -2.7831082 0.5469979 114 0 0 0 34.163025
0.49380881 -2.7628005 0.51550758 111 0 0 0 34.177864
0.65009016 -2.7443204 0.48420501 103 0 0 0 34.192707
0.39287034 -2.7774284 0.58076704 121 0 0 0 34.207546
0.5389567 -2.7531116 0.55529386 113 0 0 0 34.222389
0.68715149 -2.7367644 0.53085041 125 0 0 0 34.237232
1.0105968 -2.5076416 0.53258473 119 0 0 0 34.245495
3.1494005 -2.3601034 0.90753728 93 0 0 0 34.249893
0.79311579 -2.5460474 0.47580585 118 0 0 0 34.252071
1.1694355 -2.4861362 0.52432883 112 0 0 0 34.260338
3.4371817 -2.3086164 0.99353009 90 0 0 0 34.264732
0.58137411 -2.7484624 0.58402705 132 0 0 0 34.266911
0.90628225 -2.521307 0.56077999 117 0 0 0 34.275177
3.0023549 -2.3854008 0.81396085 128 0 0 0 34.279575
0.70317721 -2.6295135 0.54620349 150 0 0 0 34.281754
1.0530512 -2.502996 0.55931473 118 0 0 0 34.290016
3.2583201 -2.3444166 0.89839756 96 0 0 0 34.294415
0.82634991 -2.5405502 0.51438129 119 0 0 0 34.296593
1.1997159 -2.4736848 0.5538547 123 0 0 0 34.304859
3.5451272 -2.2999518 0.98936683 93 0 0 0 34.309258
0.97721809 -2.512167 0.49799156 116 0 0 0 34.311436
1.4574008 -2.6176691 0.59117877 112 0 0 0 34.319698
3.8714585 -2.2438738 1.0980253 87 0 0 0 34.324097
0.72479808 -2.5511744 0.5536297 132 0 0 0 34.326275
1.095731 -2.4973412 0.57204676 128 0 0 0 34.334541
3.3944917 -2.327296 0.87372345 94 0 0 0 34.338936
0.86669028 -2.5319376 0.54407942 121 0 0 0 34.341118
1.2708914 -2.5236008 0.58903688 150 0 0 0 34.349384
3.6770489 -2.2789063 0.97562188 94 0 0 0 34.353779
1.4937764 -2.6091247 0.61880374 101 0 0 0 34.364223
3.9501736 -2.1996617 1.0743796 103 0 0 0 34.368622
1.6812983 -2.5871835 0.62903953 105 0 0 0 34.379063
4.2968764 -2.1242769 1.2024013 54 0 0 0 34.383461
1.3759221 -2.6279933 0.6247589 120 0 0 0 34.393906
3.846236 -2.2572706 0.94651335 87 0 0 0 34.398304
1.542351 -2.6033859 0.63763422 111 0 0 0 34.408745
4.0026298 -2.1148484 1.0283086 70 0 0 0 34.413143
1.7197603 -2.5786073 0.65169764 117 0 0 0 34.423588
3.9662697 -1.8694177 1.0568627 58 0 0 0 34.427982
1.9130195 -2.5475819 0.66903752 102 0 0 0 34.438427
4.3989048 -1.8257086 1.2193377 52 0 0 0 34.442825
1.5941044 -2.5925903 0.64152026 114 0 0 0 34.453266
3.9989161 -1.9818954 0.94730371 66 0 0 0 34.457664
1.7744185 -2.5737743 0.66662925 112 0 0 0 34.468113
3.9194541 -1.7351431 0.98011976 61 0 0 0 34.472507
1.9555815 -2.5409429 0.6877619 112 0 0 0 34.482952
5.1778975 -2.0276198 1.3575442 63 0 0 0 34.487347
2.1616194 -2.5067251 0.71532249 104 0 0 0 34.497791
4.5099311 -1.5330058 1.2424232 35 0 0 0 34.50219
1.834286 -2.5658534 0.66664958 112 0 0 0 34.51263
4.2297111 -1.7353132 0.96941298 35 0 0 0 34.517033
2.0162935 -2.5340157 0.69779599 105 0 0 0 34.527473
5.4676065 -1.9841179 1.3385066 71 0 0 0 34.531872
2.2132802 -2.501945 0.73019886 104 0 0 0 34.542316
6.0756664 -1.9177072 1.5750077 52 0 0 0 34.546711
2.4300489 -2.4625678 0.76894635 109 0 0 0 34.557156
5.1377664 -1.3782901 1.4112879 16 0 0 0 34.56155
2.0811849 -2.5210159 0.69190305 116 0 0 0 34.571995
5.9154787 -1.9501451 1.32117 35 0 0 0 34.576393
2.2780304 -2.4919555 0.73530132 106 0 0 0 34.586842
5.2082734 -1.4921612 1.2533636 15 0 0 0 34.591236
2.4847188 -2.4517407 0.77787554 116 0 0 0 34.601681
7.1845689 -1.7455319 1.848128 36 0 0 0 34.606075
2.7272875 -2.4159713 0.83206218 111 0 0 0 34.61652
7.3602448 -1.467857 2.0243559 104 0 0 0 34.620914
2.355021 -2.479768 0.72461194 117 0 0 0 34.631359
7.0223475 -1.7739781 1.534246 38 0 0 0 34.635761
2.5625525 -2.4415481 0.77819908 123 0 0 0 34.646198
7.4154568 -1.5789355 1.7641451 100 0 0 0 34.6506
2.7991164 -2.4108787 0.83727783 109 0 0 0 34.661045
7.3535752 -1.2719516 1.8843147 60 0 0 0 34.66544
3.0673583 -2.3717198 0.90790617 98 0 0 0 34.675884
9.1471043 -1.2122117 2.5271609 88 0 0 0 34.680279
2.6505966 -2.4261887 0.76169783 118 0 0 0 34.690723
7.3993025 -1.3171554 1.5919858 100 0 0 0 34.695122
2.889986 -2.3974841 0.8328234 111 0 0 0 34.705566
8.0683823 -1.142846 1.9056034 14 0 0 0 34.709965
9.1283054 -0.95384711 2.3387039 126 0 0 0 34.884308
9.0866566 -0.60757959 2.5282569 116 0 0 0 34.899151
8.4952936 -0.8945213 1.8078066 107 0 0 0 34.913994
9.1308327 -0.65178096 2.1498799 122 0 0 0 34.928833
9.1375208 -0.33776897 2.3502369 6 0 0 0 34.943672
9.0253077 -0.016602002 2.5365653 25 0 0 0 34.958511
9.2219229 -0.30832532 1.9505985 5 0 0 0 34.973354
9.1309643 -0.019838238 2.1522682 8 0 0 0 34.988197
9.0431337 0.27270392 2.3429933 11 0 0 0 35.003036
8.9699621 0.56546503 2.5539722 53 0 0 0 35.017879
9.115098 0.34796691 1.9271743 54 0 0 0 35.032719
8.8024788 0.59302163 2.0870223 11 0 0 0 35.047562
8.7439089 0.85501105 2.2912276 46 0 0 0 35.062401
8.7109108 1.1183869 2.5198739 50 0 0 0 35.07724
8.8899364 0.97842669 1.887711 33 0 0 0 35.092083
8.265398 3.8204801 2.4286897 55 0 0 0 35.102409
8.789669 1.2064915 2.1043561 40 0 0 0 35.106922
8.2410164 3.9879248 2.7094393 45 0 0 0 35.117252
8.6050367 1.4275076 2.2894003 42 0 0 0 35.121765
8.3269625 4.2266912 1.9709835 31 0 0 0 35.132092
8.5196285 1.6590452 2.5121531 48 0 0 0 35.136608
8.1914663 4.3094206 2.2167597 35 0 0 0 35.146931
8.595295 1.5795712 1.844259 46 0 0 0 35.151447
8.2414312 4.5060153 2.5108049 40 0 0 0 35.161777
8.5609932 1.789892 2.0808682 47 0 0 0 35.166286
8.1027737 4.5916924 2.7635319 47 0 0 0 35.176617
8.6942739 2.0507965 2.3573849 48 0 0 0 35.181129
8.1823521 4.9273772 2.0170496 37 0 0 0 35.191456
8.4493418 2.220871 2.5473611 55 0 0 0 35.195969
8.2160044 5.0767102 2.3137765 56 0 0 0 35.206295
8.7109604 2.256285 1.8977382 27 0 0 0 35.210812
8.0471725 5.1249251 2.5519562 39 0 0 0 35.221134
8.6409473 2.4420455 2.1397188 42 0 0 0 35.225651
7.9797292 5.2296934 2.8349199 50 0 0 0 35.235981
8.4985523 2.6156976 2.3554518 47 0 0 0 35.240494
8.239953 5.8051839 2.1287279 61 0 0 0 35.25082
8.3659153 2.7874923 2.5873528 32 0 0 0 35.255337
8.1385727 5.8504238 2.4030614 63 0 0 0 35.265659
8.5292873 2.879411 1.8990965 27 0 0 0 35.270176
8.0339546 5.9166203 2.6723571 9 0 0 0 35.280502
8.4080486 3.0223777 2.1341681 48 0 0 0 35.285015
7.8744235 5.9249654 2.9296665 39 0 0 0 35.295345
8.4797888 3.2493179 2.4146066 49 0 0 0 35.299854
7.4989729 6.1426678 2.0503128 41 0 0 0 35.310184
8.2682848 3.3628943 2.6321137 49 0 0 0 35.314697
7.0094771 5.8239398 2.1867058 23 0 0 0 35.325024
8.4098234 3.5304949 1.9235467 38 0 0 0 35.32954
7.6581745 6.4727378 2.6833677 99 0 0 0 35.339863
8.4649658 3.7241693 2.210675 54 0 0 0 35.344379
6.9521093 5.9716969 2.7219043 12 0 0 0 35.35471
6.8416991 6.4764547 1.9943377 60 0 0 0 35.369549
6.7862253 6.4834185 2.2514226 57 0 0 0 35.384388
6.6940942 6.4838223 2.4938762 55 0 0 0 35.399231
6.2929897 6.1614852 2.6117761 16 0 0 0 35.41407
5.7886305 6.3361559 1.8222164 54 0 0 0 35.428913
5.7509398 6.3234124 2.0515857 51 0 0 0 35.443752
5.7101035 6.3256249 2.2759142 70 0 0 0 35.458591
5.6379786 6.2863517 2.4956739 41 0 0 0 35.473434
4.4628911 5.6516833 1.5319914 38 0 0 0 35.488277
4.4665823 5.6526055 1.7270746 32 0 0 0 35.503117
4.8808541 6.2008224 2.1036367 77 0 0 0 35.51796
4.8623366 6.1923871 2.3193364 69 0 0 0 35.532799
3.7943127 5.5903449 1.4405265 35 0 0 0 35.547642
3.809396 5.5824537 1.6207949 31 0 0 0 35.562481
4.159699 6.0911942 1.9609916 99 0 0 0 36.027351
4.1781297 6.0993342 2.1663322 112 0 0 0 36.042191
3.4614353 5.9807606 1.4779981 109 0 0 0 36.057034
3.5003564 5.9822297 1.6606777 110 0 0 0 36.071877
3.5261135 5.9944987 1.8431439 103 0 0 0 36.086716
3.5597646 6.0048828 2.0337431 109 0 0 0 36.101555
2.8610573 5.8855605 1.4057292 107 0 0 0 36.116402
2.9151189 5.892271 1.5756685 114 0 0 0 36.131241
2.9569843 5.9107957 1.7464118 113 0 0 0 36.14608
3.0039668 5.9183946 1.9202323 114 0 0 0 36.160919
2.3280983 5.8114004 1.3496312 112 0 0 0 36.175758
2.3922853 5.8232746 1.5077451 131 0 0 0 36.190605
2.4405107 5.8349051 1.6635886 115 0 0 0 36.205444
2.4938378 5.8366108 1.8225098 117 0 0 0 36.220284
0.30517948 5.5084205 1.4151971 92 0 0 0 36.232712
1.8310345 5.7327971 1.3041471 102 0 0 0 36.235126
0.38946834 5.5156446 1.5126419 68 0 0 0 36.247551
1.8996594 5.733748 1.4463246 150 0 0 0 36.249969
-0.24682368 5.2441163 1.1746129 97 0 0 0 36.26239
1.9626954 5.7656126 1.5954356 111 0 0 0 36.264809
-0.14753541 5.2645793 1.2603215 98 0 0 0 36.277237
2.0261321 5.7734809 1.7425317 123 0 0 0 36.279648
-0.067677081 5.356741 1.3657677 150 0 0 0 36.292076
1.3207839 5.4460073 1.2202607 25 0 0 0 36.294487
0.019377476 5.3370171 1.4422324 17 0 0 0 36.306915
1.45315 5.6819315 1.4037272 115 0 0 0 36.309334
-0.62521869 5.30334 1.2032934 150 0 0 0 36.321758
1.5167792 5.6938138 1.5358287 103 0 0 0 36.324173
-0.51063573 5.2120442 1.2541567 101 0 0 0 36.336601
1.5892159 5.7128272 1.6730855 120 0 0 0 36.339012
-0.42412829 5.2293177 1.3296449 103 0 0 0 36.35144
0.94101518 5.6012039 1.2439896 97 0 0 0 36.353855
-0.32997021 5.1637115 1.3821855 18 0 0 0 36.36628
1.0247 5.6193991 1.3674344 111 0 0 0 36.368694
-1.01186 5.3154449 1.2298003 110 0 0 0 36.381119
1.0936244 5.6263695 1.4866194 98 0 0 0 36.383537
-0.88515788 5.2273402 1.2708691 17 0 0 0 36.395966
1.1713426 5.6424718 1.6099609 114 0 0 0 36.398376
-0.76164734 5.0491915 1.2858002 16 0 0 0 36.410805
0.46715206 4.9089952 1.0873656 55 0 0 0 36.413216
-0.65109283 4.9238458 1.3095599 16 0 0 0 36.425644
0.54745895 4.9161549 1.1837398 22 0 0 0 36.428059
-1.3256267 5.0166759 1.1892587 16 0 0 0 36.440487
0.69512427 5.5703073 1.4478447 94 0 0 0 36.442902
-1.1830887 4.8978209 1.2085633 15 0 0 0 36.45533
0.77513814 5.5814524 1.558219 109 0 0 0 36.457741
-1.0649165 4.798595 1.2314745 15 0 0 0 36.470169
0.13155392 5.4668698 1.2132242 68 0 0 0 36.472584
-0.95389181 4.7112617 1.252275 17 0 0 0 36.485008
0.22639284 5.4972482 1.3168651 105 0 0 0 36.487423
-1.5777177 4.6268535 1.1316782 16 0 0 0 36.499847
-1.4439216 4.5588717 1.1488793 15 0 0 0 36.51469
-1.333432 4.5055346 1.1707008 14 0 0 0 36.529533
-1.2282449 4.4721179 1.1924502 15 0 0 0 36.544373
-1.8037739 4.2864318 1.0865853 16 0 0 0 36.559216
-1.6837201 4.2672467 1.1035973 21 0 0 0 36.574055
-1.5838028 4.2537537 1.1232753 21 0 0 0 36.588898
-1.4891589 4.2571821 1.1438792 15 0 0 0 36.603737
-2.0105164 3.9783063 1.0528508 24 0 0 0 36.618576
-1.9038785 3.9909232 1.0656641 32 0 0 0 36.633419
-1.8132412 4.0002942 1.0812052 31 0 0 0 36.648258
-1.7257531 4.0206189 1.0957025 26 0 0 0 36.663101
-2.1934614 3.6795471 1.0225286 26 0 0 0 36.677944
-2.1042256 3.7209041 1.0330739 27 0 0 0 36.692783
-2.0329874 3.7680573 1.0483857 30 0 0 0 36.863831
-1.9598521 3.8151665 1.0596632 28 0 0 0 36.878674
-2.3390682 3.371443 0.98989815 30 0 0 0 36.893513
-2.2690625 3.4315097 0.99713421 31 0 0 0 36.908352
-2.2193799 3.5052664 1.0110422 30 0 0 0 36.923191
-2.1728303 3.5889773 1.0239065 32 0 0 0 36.938038
-2.4743369 3.0864184 0.96539706 32 0 0 0 36.952877
-2.4256091 3.1671677 0.9702943 32 0 0 0 36.967716
-2.3920662 3.2546852 0.97994328 36 0 0 0 36.982559
-2.357471 3.3432212 0.98561025 36 0 0 0 36.997398
-2.5846827 2.8047731 0.94231892 33 0 0 0 37.012241
-2.5571098 2.8992069 0.94387317 36 0 0 0 37.027081
-2.5467682 3.0023785 0.95114708 40 0 0 0 37.04192
-2.5302668 3.1016464 0.95251995 37 0 0 0 37.056763
-2.6792402 2.5343685 0.92151701 33 0 0 0 37.071606
-2.6789012 2.6443946 0.92262894 46 0 0 0 37.086445
-2.6600122 2.7257011 0.91702485 34 0 0 0 37.101288
-2.6840184 2.8543608 0.92174637 35 0 0 0 37.116127
-2.7539351 2.2702649 0.90305483 33 0 0 0 37.130966
-2.7623856 2.3741629 0.89701325 35 0 0 0 37.145809
-2.7961903 2.4916763 0.89956081 37 0 0 0 37.160648
-2.8269076 2.6112411 0.89516121 37 0 0 0 37.175491
-2.8361623 2.0310473 0.89349085 37 0 0 0 37.190331
-2.8564339 2.1297722 0.88124627 33 0 0 0 37.205173
-2.899013 2.2401583 0.87664026 31 0 0 0 37.220016
-3.0802736 1.7554069 0.84616965 37 0 0 0 37.226467
-2.9557965 2.3653343 0.87081003 34 0 0 0 37.234856
-3.1514437 1.8563747 0.82507515 34 0 0 0 37.24131
-2.8993852 1.7921182 0.88324583 34 0 0 0 37.249695
-2.9841936 1.3278075 0.86840945 32 0 0 0 37.256153
-2.952848 1.900345 0.87345552 42 0 0 0 37.264538
-3.0612466 1.418685 0.84920782 37 0 0 0 37.270992
-3.0021577 2.0006347 0.86172754 40 0 0 0 37.279377
-3.1413 1.5085173 0.83095562 32 0 0 0 37.285831
-3.0605643 2.1107917 0.84685624 35 0 0 0 37.29422
-3.2404792 1.6090661 0.81039339 30 0 0 0 37.300671
-2.9487269 1.5583984 0.87523842 35 0 0 0 37.309059
-3.013763 1.1053845 0.86374342 35 0 0 0 37.315517
-3.0058765 1.6535739 0.85837442 39 0 0 0 37.323898
-3.1066747 1.1880255 0.84326994 36 0 0 0 37.330357
-3.1934779 1.2667601 0.81989503 29 0 0 0 37.345196
-3.317529 1.3599381 0.79791158 33 0 0 0 37.360039
-3.1381435 0.95957649 0.83756751 36 0 0 0 37.389721
-3.2427738 1.0290462 0.81188709 32 0 0 0 37.40456
-3.3886528 1.1118995 0.78853089 31 0 0 0 37.419399
-3.4388855 -0.66447097 0.77444345 23 0 0 0 38.10397
-2.8829279 -0.71632099 0.89164156 31 0 0 0 38.118809
-3.0385327 -0.77559531 0.85800803 25 0 0 0 38.133648
-3.2060611 -0.84004503 0.82417268 40 0 0 0 38.148487
-3.3972614 -0.91883987 0.78293121 42 0 0 0 38.163326
-2.8163097 -0.89931965 0.89760381 39 0 0 0 38.178173
-2.9596484 -0.97341031 0.86116076 36 0 0 0 38.193012
-3.1498461 -1.0682003 0.83392376 37 0 0 0 38.207851
-3.3357086 -1.1689154 0.79175186 41 0 0 0 38.222694
-2.7497766 -1.0803233 0.90656519 38 0 0 0 38.237537
-2.8998272 -1.1785163 0.87399012 37 0 0 0 38.252377
-3.0787168 -1.2921377 0.84492427 34 0 0 0 38.267216
-3.265202 -1.4208637 0.80471778 43 0 0 0 38.282055
-2.8106675 -1.9592749 0.89576256 34 0 0 0 38.290237
-2.6753111 -1.2582123 0.91665924 35 0 0 0 38.296902
-2.9730814 -2.1676588 0.86188143 48 0 0 0 38.305077
-2.8210888 -1.377344 0.88613683 37 0 0 0 38.311741
-2.4301865 -1.791675 0.96423829 34 0 0 0 38.31992
-2.9956596 -1.5139024 0.85812253 34 0 0 0 38.32658
-2.5969567 -2.0051417 0.95628375 12 0 0 0 38.334759
-3.1738126 -1.6665065 0.81903338 42 0 0 0 38.341423
-2.7206683 -2.196955 0.92605942 25 0 0 0 38.349602
-2.6019039 -1.4381227 0.93173259 37 0 0 0 38.356262
-2.8150868 -2.3863227 0.87631994 33 0 0 0 38.364441
-2.7404208 -1.5751475 0.90131474 37 0 0 0 38.371105
-2.3199844 -1.9560449 0.97793126 33 0 0 0 38.37928
-2.9016738 -1.73351 0.87350178 37 0 0 0 38.385944
-2.447623 -2.1709292 0.96362287 41 0 0 0 38.394123
-3.0655098 -1.9079036 0.83463037 42 0 0 0 38.400784
-2.5362806 -2.3622229 0.92997891 35 0 0 0 38.408962
-2.5125606 -1.6117988 0.94507319 34 0 0 0 38.415627
-2.664115 -2.6151023 0.90063071 33 0 0 0 38.423805
-2.63885 -1.7656444 0.91584295 37 0 0 0 38.43047
-2.2108104 -2.1244371 0.99660164 34 0 0 0 38.438648
-2.3073523 -2.3428612 0.97980434 36 0 0 0 38.453487
-2.4025908 -2.5752628 0.9570151 37 0 0 0 38.468327
-2.5150769 -2.8589225 0.9338932 35 0 0 0 38.48317
-2.0877311 -2.2856266 1.014506 33 0 0 0 38.498009
-2.1690524 -2.5238311 1.0019425 37 0 0 0 38.512852
-2.2510324 -2.7820446 0.98634946 38 0 0 0 38.527691
-2.3619878 -3.1156945 0.9752081 48 0 0 0 38.542534
-1.9636526 -2.4538102 1.0384182 35 0 0 0 38.557377
-2.0258143 -2.7077374 1.0301573 41 0 0 0 38.572216
-2.0915053 -2.9927185 1.0208091 36 0 0 0 38.587055
-2.0263817 -3.1207175 0.94575834 103 0 0 0 38.601894
-1.8316301 -2.6218832 1.0654595 35 0 0 0 38.616737
-1.8696572 -2.8864582 1.058587 39 0 0 0 38.63158
-1.8560263 -3.0952499 1.0236152 117 0 0 0 38.64642
-1.689449 -3.0697186 0.90737528 102 0 0 0 38.661259
-1.6955509 -2.8009059 1.098555 38 0 0 0 38.676105
-1.6966573 -3.0559366 1.0882996 80 0 0 0 38.690945
-1.5480393 -3.0466805 0.98374832 112 0 0 0 38.705784
-1.3925445 -3.0313258 0.88131565 91 0 0 0 38.720623
-1.5317738 -2.9495182 1.1231318 35 0 0 0 38.735462
-1.4273815 -3.0359476 1.0557652 93 0 0 0 38.750309
-1.2741083 -3.0106063 0.95531344 83 0 0 0 38.836487
-1.118847 -2.9872646 0.85988158 92 0 0 0 38.85133
-1.3237587 -3.016438 1.1195166 94 0 0 0 38.866169
-1.1644928 -2.9900362 1.0211525 91 0 0 0 38.881008
-1.021202 -2.978879 0.93451196 97 0 0 0 38.895847
-0.87005925 -2.957607 0.84800959 94 0 0 0 38.91069
-1.0806618 -2.9818449 1.0845536 95 0 0 0 38.925533
-0.93046236 -2.9655888 0.99903053 99 0 0 0 38.940372
-0.78444457 -2.9413965 0.91744602 105 0 0 0 38.955215
-0.63546443 -2.9191651 0.83990824 95 0 0 0 38.970055
-0.85367393 -2.9464977 1.0553228 105 0 0 0 38.984898
-0.70466268 -2.925266 0.97678387 92 0 0 0 38.999737
-0.56173801 -2.90713 0.90614235 101 0 0 0 39.014576
-0.4138895 -2.8849237 0.83658516 112 0 0 0 39.029419
-0.64069533 -2.9183664 1.0328515 115 0 0 0 39.044258
-0.49190518 -2.8921468 0.96331298 109 0 0 0 39.059101
-0.35112265 -2.8710487 0.89863813 110 0 0 0 39.073944
-0.20329694 -2.8608553 0.84106892 106 0 0 0 39.088783
-0.43681088 -2.8893771 1.0152283 108 0 0 0 39.103622
-0.29014111 -2.8661985 0.95565164 116 0 0 0 39.118465
-0.14849041 -2.8450961 0.89899027 114 0 0 0 39.133305
0.0011342241 -2.8278828 0.84745634 108 0 0 0 39.148148
-0.2400859 -2.8504975 0.99849319 109 0 0 0 39.162987
-0.094455138 -2.8393471 0.95188802 114 0 0 0 39.17783
0.43200499 -2.761672 0.92360067 115 0 0 0 39.184956
0.048034776 -2.8162408 0.90324175 110 0 0 0 39.192673
0.59020275 -2.743356 0.89720923 113 0 0 0 39.199795
0.19857132 -2.8020229 0.85971916 113 0 0 0 39.207512
0.32106659 -2.7703314 0.98577595 115 0 0 0 39.214638
-0.050223429 -2.8357348 0.99462086 117 0 0 0 39.222351
0.47225669 -2.7571218 0.96426493 118 0 0 0 39.229481
0.096139975 -2.8095772 0.95104057 112 0 0 0 39.23719
0.62130785 -2.7309411 0.93972999 122 0 0 0 39.24432
0.24055427 -2.7914524 0.91142058 112 0 0 0 39.252033
0.73683691 -2.5431943 0.86479104 112 0 0 0 39.259159
0.39485699 -2.7701881 0.8759656 117 0 0 0 39.266876
0.50669473 -2.7506473 0.99183339 121 0 0 0 39.273998
0.13540147 -2.8000343 0.98669463 110 0 0 0 39.281715
0.62850517 -2.5958223 0.9289676 150 0 0 0 39.288841
0.2847105 -2.784847 0.95615226 120 0 0 0 39.296555
0.76511425 -2.5368195 0.90225786 129 0 0 0 39.303684
0.92500085 -2.5184982 0.89489311 111 0 0 0 39.318523
0.65075237 -2.5545094 0.93736547 124 0 0 0 39.333363
0.79756784 -2.5323784 0.93078971 126 0 0 0 39.348209
0.9483062 -2.5071931 0.92628074 117 0 0 0 39.363049
1.1140318 -2.4867961 0.9270128 112 0 0 0 39.377888
0.82508069 -2.5149977 0.94425046 138 0 0 0 39.392727
0.98186553 -2.5077379 0.95282412 117 0 0 0 39.40757
1.1435643 -2.4934068 0.96048415 150 0 0 0 39.422413
1.398267 -2.6177909 1.0305427 114 0 0 0 39.437252
1.011556 -2.5003278 0.96430922 111 0 0 0 39.452091
1.1924359 -2.5257428 0.99624741 150 0 0 0 39.466934
1.4227685 -2.6154726 1.0579369 114 0 0 0 39.481777
1.615989 -2.5816977 1.0781302 102 0 0 0 39.496616
1.27812 -2.6325681 1.0485435 120 0 0 0 39.511456
1.4553782 -2.607029 1.0734679 113 0 0 0 39.526295
1.6385468 -2.5764058 1.0994929 115 0 0 0 39.541142
1.8495581 -2.5473905 1.1369727 103 0 0 0 39.555981
1.4922684 -2.6055167 1.07806 122 0 0 0 39.57082
1.6742637 -2.5719182 1.1120685 109 0 0 0 39.585663
1.8732438 -2.5440812 1.1523492 102 0 0 0 39.600506
2.0959704 -2.5089097 1.2020255 100 0 0 0 39.615345
1.7152354 -2.5703471 1.111725 117 0 0 0 39.630184
1.9090164 -2.5365918 1.1589259 109 0 0 0 39.645023
2.124573 -2.5087576 1.2143137 104 0 0 0 40.068005
2.3569241 -2.4604833 1.2761441 106 0 0 0 40.082848
1.9538751 -2.5331717 1.1524924 112 0 0 0 40.097687
2.165442 -2.5021987 1.2159674 114 0 0 0 40.11253
2.3878171 -2.4600732 1.2816284 111 0 0 0 40.127369
2.6498625 -2.4153962 1.3659385 107 0 0 0 40.142208
2.20649 -2.4876237 1.1996288 126 0 0 0 40.157051
2.4307418 -2.4504838 1.2773154 111 0 0 0 40.17189
2.6838396 -2.4139414 1.3654708 96 0 0 0 40.186733
2.9805005 -2.3707945 1.4753423 91 0 0 0 40.201576
2.4889174 -2.4436686 1.2602453 120 0 0 0 40.216415
2.7388542 -2.4071817 1.3583486 108 0 0 0 40.231255
3.0205624 -2.3672519 1.4679719 98 0 0 0 40.246098
3.3406792 -2.3097911 1.5992378 86 0 0 0 40.260937
2.8131323 -2.40414 1.3385334 121 0 0 0 40.27578
3.088671 -2.3613071 1.4560583 100 0 0 0 40.290619
3.3898401 -2.3051186 1.5850124 87 0 0 0 40.305462
3.7683713 -2.2498612 1.7552259 80 0 0 0 40.320305
3.1659267 -2.3452189 1.4262996 103 0 0 0 40.335144
3.4679759 -2.2930303 1.5662633 89 0 0 0 40.349983
3.8296165 -2.2430167 1.7341945 79 0 0 0 40.364822
4.2393775 -2.164341 1.9319367 76 0 0 0 40.379665
3.5672929 -2.2766311 1.5328592 93 0 0 0 40.394508
3.9317989 -2.2295899 1.7118325 81 0 0 0 40.409348
4.3366876 -2.1619909 1.9114821 78 0 0 0 40.424187
5.7276034 -1.9496019 2.4283044 53 0 0 0 40.438412
4.8304882 -2.0761688 2.1635962 66 0 0 0 40.439034
5.7668443 1.2102267 2.48403 21 0 0 0 40.443504
5.5818949 -1.5716704 2.4472992 19 0 0 0 40.453255
3.8127906 -2.0732069 1.5730069 68 0 0 0 40.453873
5.0779829 1.2545094 2.365875 19 0 0 0 40.458344
4.1049199 -1.5350304 1.5912622 35 0 0 0 40.468098
3.7797127 -1.8126822 1.5957185 10 0 0 0 40.468712
7.5035224 1.6066549 2.799588 15 0 0 0 40.473186
5.9754276 -1.9141322 2.4113114 55 0 0 0 40.482937
4.9497995 -2.0635073 2.1345022 67 0 0 0 40.483551
6.4386072 1.5856404 2.6132634 13 0 0 0 40.488029
6.0342293 -1.6103773 2.5285621 20 0 0 0 40.497776
5.4844675 -1.9411402 2.4253139 28 0 0 0 40.49839
5.5882368 1.5676588 2.4554279 21 0 0 0 40.502869
5.6144576 -1.192259 2.4511435 18 0 0 0 40.512615
3.789901 -1.7295094 1.5109248 65 0 0 0 40.513237
4.9022412 1.550987 2.3372669 20 0 0 0 40.517712
6.3041501 -1.8625134 2.3876405 37 0 0 0 40.527458
3.8978696 -1.5510441 1.6048518 16 0 0 0 40.528076
