# .PCD v0.7 - Point Cloud Data file format
VERSION 0.7
FIELDS x y z intensity normal_x normal_y normal_z curvature
SIZE 4 4 4 4 4 4 4 4
TYPE F F F F F F F F
COUNT 1 1 1 1 1 1 1 1
WIDTH 938
HEIGHT 1
VIEWPOINT 0 0 0 1 0 0 0
POINTS 938
DATA ascii
-0.9229303 1.0210464 1.2710361 45 0 0 0 54.432049
-1.0213858 0.85921204 1.253015 48 0 0 0 54.445526
-0.92153144 1.0850887 1.2674017 57 0 0 0 54.446888
-1.0400817 0.93305916 1.2504185 47 0 0 0 54.460369
-0.92211586 1.1470952 1.2667538 55 0 0 0 54.461727
-1.0567122 0.99992001 1.2487836 50 0 0 0 54.475208
-0.92574984 1.2140557 1.2691312 54 0 0 0 54.476566
-1.073347 1.0678096 1.2421542 58 0 0 0 54.490051
-0.97515935 0.94061983 1.2615155 50 0 0 0 54.491413
-1.0636199 0.77886379 1.2465047 41 0 0 0 54.50489
-1.0893037 0.85165668 1.2418952 46 0 0 0 54.519733
-1.1109087 0.9165051 1.2342435 48 0 0 0 54.534576
-1.1416038 0.99023372 1.2326342 48 0 0 0 54.549416
-1.1008484 0.69755214 1.2419939 40 0 0 0 54.564255
-1.1314974 0.76733273 1.231362 44 0 0 0 54.579098
-1.1631224 0.83407557 1.2257115 39 0 0 0 54.593937
-1.2007843 0.90476173 1.2200775 45 0 0 0 54.60878
-1.1350815 0.61625242 1.2404866 42 0 0 0 54.623619
-1.1747296 0.68594855 1.2298452 41 0 0 0 54.638458
-1.2123113 0.74866414 1.2191654 33 0 0 0 54.653305
-1.2579525 0.81728131 1.2125118 41 0 0 0 54.668144
-1.1562726 0.53111607 1.2319701 42 0 0 0 54.682983
-1.2109336 0.60164279 1.2263188 39 0 0 0 54.697823
-1.2585049 0.66326475 1.2156231 34 0 0 0 54.712666
-1.3131263 0.72979802 1.2089483 40 0 0 0 54.727509
-1.1815201 0.45089644 1.2314787 47 0 0 0 54.742348
-1.2451432 0.51733375 1.2267951 41 0 0 0 54.757187
-1.2996846 0.57589638 1.2150747 34 0 0 0 54.772034
-1.3602347 0.6354028 1.2033535 35 0 0 0 54.786873
-1.1967386 0.36778858 1.227981 43 0 0 0 54.801712
-1.2663018 0.4281877 1.2202566 42 0 0 0 54.816551
-1.3267934 0.48170626 1.2065012 36 0 0 0 54.83139
-1.2844723 0.34003893 1.2167338 45 0 0 0 54.836647
-1.4003286 0.53906304 1.1997548 40 0 0 0 54.846237
-1.3559289 0.38943771 1.2059445 39 0 0 0 54.851486
-1.2119824 0.28665242 1.2294954 45 0 0 0 54.861076
-1.4313831 0.43881065 1.1931506 46 0 0 0 54.866329
-1.2172205 0.20562509 1.2260263 44 0 0 0 54.881172
-1.2936355 0.25100034 1.2112089 48 0 0 0 54.896011
-1.373036 0.29431951 1.2013767 42 0 0 0 54.910851
-1.4524127 0.33566767 1.1865329 50 0 0 0 54.925697
-1.224479 0.12555288 1.229556 52 0 0 0 54.940536
-1.302824 0.16393332 1.2106962 51 0 0 0 54.955376
-1.389151 0.19917692 1.2028109 50 0 0 0 54.970215
-1.4734504 0.23249093 1.1859161 55 0 0 0 54.985058
-1.2237366 0.04557278 1.2300946 54 0 0 0 54.999901
-1.311009 0.075853221 1.2141799 57 0 0 0 55.01474
-1.3942542 0.10316601 1.1992518 62 0 0 0 55.029579
-1.4814682 0.127459 1.1813023 61 0 0 0 55.044422
-1.218014 -0.032355066 1.2296507 52 0 0 0 55.059265
-1.3102038 -0.011131296 1.2156793 59 0 0 0 55.074104
-1.39236 0.0072205276 1.1957009 53 0 0 0 55.088943
-1.4824905 0.022481222 1.1786969 61 0 0 0 55.103783
-1.2102971 -0.11028704 1.23321 52 0 0 0 55.118629
-1.3024092 -0.097044893 1.2161927 56 0 0 0 55.133469
-1.3904713 -0.087677516 1.1991776 62 0 0 0 55.148308
-1.2500391 -0.35151067 1.220824 56 0 0 0 55.149517
-1.4845176 -0.081448101 1.1821195 59 0 0 0 55.163151
-1.3378564 -0.37023577 1.2056316 63 0 0 0 55.16436
-1.1985822 -0.18709722 1.2358 52 0 0 0 55.177994
-1.4286243 -0.393971 1.187408 59 0 0 0 55.179199
-1.2886075 -0.18281369 1.2157348 61 0 0 0 55.192833
-1.1315401 -0.40749267 1.2376202 54 0 0 0 55.194038
-1.3786002 -0.18255766 1.2006468 54 0 0 0 55.207672
-1.2213029 -0.43224123 1.2233919 53 0 0 0 55.208881
-1.473554 -0.18633597 1.1835309 58 0 0 0 55.222511
-1.3090289 -0.46097052 1.209143 56 0 0 0 55.223721
-1.1759033 -0.26085058 1.2324007 48 0 0 0 55.237354
-1.400699 -0.49573606 1.1948562 57 0 0 0 55.238564
-1.2708313 -0.26764002 1.2172681 59 0 0 0 55.252197
-1.1078933 -0.47929972 1.2452348 56 0 0 0 55.253403
-1.3617318 -0.27739176 1.2021224 56 0 0 0 55.267036
-1.188578 -0.51193541 1.2259709 54 0 0 0 55.268246
-1.4526005 -0.29012033 1.1829598 61 0 0 0 55.281879
-1.2782083 -0.55171555 1.2176578 50 0 0 0 55.283089
-1.1602273 -0.33573115 1.2399896 52 0 0 0 55.296719
-1.3618025 -0.59438884 1.2003342 57 0 0 0 55.297928
-1.0752716 -0.54799604 1.2478771 53 0 0 0 55.312767
-1.1568608 -0.59167337 1.23455 55 0 0 0 55.327606
-1.2374245 -0.63835216 1.223207 48 0 0 0 55.342449
-1.316929 -0.69099838 1.2078314 57 0 0 0 55.357292
-1.0416638 -0.61570072 1.2535272 53 0 0 0 55.372131
-1.116179 -0.66730654 1.2391623 54 0 0 0 55.386971
-1.187677 -0.72088987 1.2257895 54 0 0 0 55.401817
-1.2670877 -0.78457409 1.2173522 63 0 0 0 55.416656
-1.0070512 -0.68441373 1.2621737 57 0 0 0 55.431496
-1.0715288 -0.73991519 1.2457973 55 0 0 0 55.446335
-1.1389477 -0.80247736 1.2353783 54 0 0 0 55.461178
-1.2092767 -0.87507731 1.2269 59 0 0 0 55.476021
-0.96548295 -0.74804074 1.266857 55 0 0 0 55.49086
-1.0238814 -0.81250274 1.2534364 59 0 0 0 55.505699
-1.0832474 -0.88099587 1.2439926 59 0 0 0 55.520542
-1.1385639 -0.95442909 1.2305249 54 0 0 0 55.535385
-0.91993463 -0.80963206 1.271557 57 0 0 0 55.550224
-0.97227383 -0.88106036 1.2621039 57 0 0 0 55.565063
-1.0225869 -0.95547545 1.2536361 56 0 0 0 55.579903
-1.0688598 -1.0338309 1.2411505 55 0 0 0 55.594749
-0.87340009 -0.87023193 1.2792648 52 0 0 0 55.609589
-0.91679204 -0.94748002 1.2717932 53 0 0 0 55.969734
-0.95905966 -1.027835 1.2663023 56 0 0 0 55.984577
-0.9923197 -1.1080633 1.2528217 56 0 0 0 55.999416
-0.82298827 -0.92868841 1.285997 52 0 0 0 56.014256
-0.85724074 -1.0109816 1.2825041 53 0 0 0 56.029095
-0.88551491 -1.0901867 1.2730347 56 0 0 0 56.043941
-0.91369355 -1.1804131 1.2675046 56 0 0 0 56.058781
-0.77147561 -0.98827547 1.2987219 50 0 0 0 56.07362
-0.79274368 -1.068428 1.2912552 49 0 0 0 56.088463
-0.81197804 -1.1525731 1.2857686 54 0 0 0 56.103306
-0.83112723 -1.2467452 1.2852268 51 0 0 0 56.118145
-0.71598172 -1.0458218 1.310464 50 0 0 0 56.132984
-0.72822022 -1.12992 1.3079855 47 0 0 0 56.147823
-0.73645723 -1.2139707 1.3035117 52 0 0 0 56.162666
-0.7416243 -1.3060048 1.3009974 53 0 0 0 56.177509
-0.65257311 -1.0932585 1.3152716 49 0 0 0 56.192348
-0.65677512 -1.1823226 1.319775 49 0 0 0 56.207191
-0.65303075 -1.2642591 1.3143264 48 0 0 0 56.222031
-0.64917171 -1.3602557 1.3198005 50 0 0 0 56.236874
-0.59112072 -1.146764 1.3290448 47 0 0 0 56.251713
-0.58039171 -1.2276652 1.3286101 47 0 0 0 56.266552
-0.56862223 -1.3135791 1.332149 56 0 0 0 56.281395
-0.33638903 -1.3426565 1.3652391 45 0 0 0 56.288296
-0.54984921 -1.3994074 1.3316962 47 0 0 0 56.296234
-0.29472876 -1.4173386 1.3758731 41 0 0 0 56.303135
-0.52175307 -1.1901605 1.335884 43 0 0 0 56.311077
-0.24216042 -1.4808779 1.3785807 43 0 0 0 56.317978
-0.50103891 -1.2699935 1.3394666 47 0 0 0 56.32592
-0.30167794 -1.3133707 1.3724433 46 0 0 0 56.332817
-0.47930834 -1.351823 1.3440396 45 0 0 0 56.340759
-0.25109324 -1.3799834 1.3851322 47 0 0 0 56.347656
-0.45054445 -1.4376 1.3505987 45 0 0 0 56.355598
-0.19859883 -1.4355291 1.3888842 42 0 0 0 56.362499
-0.45139885 -1.2325659 1.3457308 46 0 0 0 56.370441
-0.13808124 -1.4940193 1.3956293 51 0 0 0 56.377338
-0.42268577 -1.3133712 1.3573177 49 0 0 0 56.385281
-0.22140265 -1.347711 1.3863479 46 0 0 0 56.392181
-0.389002 -1.3900927 1.3619326 46 0 0 0 56.400124
-0.16193356 -1.4012271 1.3961194 46 0 0 0 56.407024
-0.34733707 -1.4647425 1.3665681 46 0 0 0 56.414963
-0.10144208 -1.4577565 1.4098756 43 0 0 0 56.421864
-0.37804228 -1.2759733 1.3605769 56 0 0 0 56.429806
-0.033019233 -1.5061924 1.4196855 44 0 0 0 56.436703
-0.1371567 -1.3790224 1.4012747 48 0 0 0 56.451546
-0.070757337 -1.4255042 1.4160933 46 0 0 0 56.466385
-0.0034228927 -1.4639392 1.4239576 47 0 0 0 56.481228
0.06985008 -1.4953101 1.4298674 44 0 0 0 56.496067
-0.050933018 -1.408334 1.419216 47 0 0 0 56.510906
0.020325501 -1.4387506 1.4301291 44 0 0 0 56.525753
0.093495563 -1.4580952 1.4311055 50 0 0 0 56.540592
0.17368016 -1.4804375 1.4430734 49 0 0 0 56.555431
0.038109079 -1.4155339 1.421283 45 0 0 0 56.570271
0.11530626 -1.4399308 1.4382367 43 0 0 0 56.585114
0.19135781 -1.4462558 1.4402883 51 0 0 0 56.599957
0.27446333 -1.4606055 1.4583043 42 0 0 0 56.614796
0.13020955 -1.4307742 1.4353106 45 0 0 0 56.629635
0.20925662 -1.4381387 1.4493605 47 0 0 0 56.644482
0.29028335 -1.4434966 1.4654239 41 0 0 0 56.659321
0.37421429 -1.4378122 1.4785511 45 0 0 0 56.67416
0.22423978 -1.437988 1.4473857 52 0 0 0 56.688999
0.30721471 -1.4383619 1.469479 45 0 0 0 56.703838
0.38709304 -1.4267089 1.4816347 40 0 0 0 56.718685
0.47190392 -1.4080338 1.4978349 44 0 0 0 56.733524
0.3223021 -1.450228 1.4704388 41 0 0 0 56.748363
0.40509877 -1.4325837 1.4896402 49 0 0 0 56.810947
0.4848507 -1.4069388 1.5028733 43 0 0 0 56.825787
0.56448072 -1.3672786 1.513183 42 0 0 0 56.84063
0.42120939 -1.4464145 1.4855912 41 0 0 0 56.855473
0.50190091 -1.4147943 1.5048583 43 0 0 0 56.870312
0.57749671 -1.3711654 1.5141853 42 0 0 0 56.885151
0.65199441 -1.3165464 1.523571 42 0 0 0 56.899994
0.52210629 -1.4396061 1.5037545 41 0 0 0 56.914833
0.59764194 -1.3900108 1.5191141 44 0 0 0 56.929676
0.66610008 -1.3304245 1.5245203 44 0 0 0 56.944515
0.7334491 -1.2588592 1.5319905 40 0 0 0 56.959354
0.62494063 -1.4257823 1.5219592 48 0 0 0 56.974201
0.69130653 -1.3562315 1.5304173 43 0 0 0 56.98904
0.75364852 -1.2837058 1.5368872 43 0 0 0 57.00388
0.81289947 -1.2012188 1.5454077 44 0 0 0 57.018719
0.72466719 -1.3989501 1.5332321 45 0 0 0 57.033562
0.78594702 -1.320478 1.5477333 44 0 0 0 57.048405
0.83716232 -1.2330248 1.5492713 41 0 0 0 57.063244
0.88832986 -1.1416321 1.5618311 44 0 0 0 57.078083
0.82331532 -1.363124 1.5435536 44 0 0 0 57.09293
0.87651503 -1.2757299 1.559094 45 0 0 0 57.107769
0.92266786 -1.1823714 1.5696583 43 0 0 0 57.122608
0.95568091 -1.0720806 1.5712992 43 0 0 0 57.137447
0.92595357 -1.3273135 1.5628804 45 0 0 0 57.152287
0.96703374 -1.2260112 1.5754819 46 0 0 0 57.167133
0.99807972 -1.1197547 1.5800985 47 0 0 0 57.181973
1.0190146 -1.0005716 1.5817732 45 0 0 0 57.196812
1.1379317 -1.1066432 1.6043371 49 0 0 0 57.203613
1.026507 -1.281507 1.5792596 44 0 0 0 57.211655
1.1368116 -0.98062897 1.6010231 53 0 0 0 57.218452
1.0534937 -1.1693193 1.5899036 48 0 0 0 57.226498
1.1276436 -0.84970784 1.6017261 49 0 0 0 57.233295
1.0684421 -1.0511736 1.5885653 37 0 0 0 57.241337
1.2194378 -1.1659561 1.6101203 43 0 0 0 57.248135
1.0783378 -0.92811573 1.5952475 40 0 0 0 57.256176
1.2112534 -1.033021 1.6098353 47 0 0 0 57.262978
1.1259984 -1.2287174 1.596676 44 0 0 0 57.271015
1.1971066 -0.90413344 1.6085209 47 0 0 0 57.277817
1.1709002 -0.76834697 1.6062293 43 0 0 0 57.292656
1.3067466 -1.0912279 1.6186417 44 0 0 0 57.307499
1.2835431 -0.95644218 1.6213483 44 0 0 0 57.322338
1.2533658 -0.82368559 1.6180351 43 0 0 0 57.337181
1.2111552 -0.6870299 1.6137284 45 0 0 0 57.352024
1.4000579 -1.0185242 1.6411594 42 0 0 0 57.366863
1.3527994 -0.87589157 1.632879 49 0 0 0 57.381702
1.3036126 -0.74127591 1.6245524 44 0 0 0 57.396545
1.2443969 -0.60376477 1.6192291 46 0 0 0 57.411385
1.4712195 -0.92590427 1.6427585 40 0 0 0 57.426228
1.4159968 -0.78839034 1.6434399 47 0 0 0 57.441067
1.3498224 -0.65491903 1.6340858 44 0 0 0 57.45591
1.2696378 -0.51954401 1.6197246 43 0 0 0 57.470753
1.555393 -0.83728445 1.6653514 50 0 0 0 57.485592
1.4711635 -0.6969505 1.6520121 49 0 0 0 57.500431
1.388023 -0.56660676 1.6386195 43 0 0 0 57.51527
1.298884 -0.43735319 1.6322135 46 0 0 0 57.530113
1.6274891 -0.73873478 1.6809831 46 0 0 0 57.544956
1.5182832 -0.5995664 1.6576062 45 0 0 0 57.559795
1.4191905 -0.47435719 1.6431655 43 0 0 0 57.574635
1.3151268 -0.35322359 1.6346962 46 0 0 0 57.589481
1.6895207 -0.63225889 1.693645 51 0 0 0 57.604321
1.568393 -0.50221086 1.6732031 45 0 0 0 57.61916
1.4483653 -0.38314199 1.6507026 49 0 0 0 57.633999
1.3233701 -0.26813242 1.6311737 45 0 0 0 57.648842
1.738502 -0.51886123 1.6993277 50 0 0 0 57.663685
1.6004014 -0.39798331 1.6768613 49 0 0 0 57.923512
1.4684622 -0.28800717 1.65329 49 0 0 0 57.938351
1.3305725 -0.1840985 1.6326784 45 0 0 0 57.953197
1.7753797 -0.39959502 1.7020773 54 0 0 0 57.968037
1.6284544 -0.29177052 1.6824753 54 0 0 0 57.982876
1.478621 -0.19291748 1.6528208 52 0 0 0 57.997719
1.3358316 -0.10107706 1.6371372 49 0 0 0 58.012562
1.8032974 -0.27736914 1.7047772 50 0 0 0 58.027401
1.6464964 -0.18362956 1.6850863 57 0 0 0 58.04224
1.4867697 -0.096861526 1.6553534 55 0 0 0 58.057079
1.3341055 -0.019100606 1.6385807 44 0 0 0 58.071922
1.8192049 -0.15323243 1.7044712 51 0 0 0 58.086765
1.6545265 -0.073565461 1.6856937 54 0 0 0 58.101604
1.4879321 -0.0018559115 1.6558704 52 0 0 0 58.116447
1.326395 0.061845098 1.6360102 45 0 0 0 58.131287
1.830093 -0.027161008 1.708168 54 0 0 0 58.14613
1.6515732 0.035424206 1.6822803 50 0 0 0 58.160969
1.4841043 0.092100948 1.6573744 52 0 0 0 58.175808
1.3186816 0.14276965 1.6374384 45 0 0 0 58.190651
1.8220034 0.09778785 1.7038333 58 0 0 0 58.20549
1.6426127 0.14535643 1.6798632 52 0 0 0 58.220333
1.4662918 0.18598963 1.6488591 52 0 0 0 58.235176
1.2960129 0.22063355 1.6258304 46 0 0 0 58.250015
1.8089044 0.22367746 1.7024958 54 0 0 0 58.264854
1.6286598 0.25422958 1.6804327 52 0 0 0 58.279697
1.4474839 0.27884343 1.6453358 46 0 0 0 58.294537
1.566839 0.46577027 1.6674809 57 0 0 0 58.299644
1.0431447 1.1337246 1.5803672 42 0 0 0 58.30563
1.276336 0.29848135 1.6222248 48 0 0 0 58.30938
1.3919274 0.45941722 1.6362268 46 0 0 0 58.314487
0.96180683 1.0580494 1.5738618 44 0 0 0 58.320473
1.7858188 0.34848613 1.7001381 52 0 0 0 58.324219
1.232011 0.45110479 1.621981 49 0 0 0 58.329327
0.88247705 0.98139215 1.5673537 51 0 0 0 58.335312
1.6007361 0.36101913 1.6739715 51 0 0 0 58.339062
1.707742 0.58885485 1.6933179 49 0 0 0 58.34417
1.0269533 1.2726229 1.574083 43 0 0 0 58.350151
1.4246844 0.37065244 1.6438005 48 0 0 0 58.353905
1.5259596 0.56743771 1.6629744 53 0 0 0 58.359009
0.95961571 1.196038 1.5735904 44 0 0 0 58.36499
1.254667 0.37530166 1.6206101 49 0 0 0 58.368744
1.3571767 0.54613394 1.6326476 48 0 0 0 58.373848
0.88833368 1.1144722 1.5630662 43 0 0 0 58.379833
1.7507737 0.46920231 1.6957417 54 0 0 0 58.383583
1.1983993 0.52286994 1.6113228 52 0 0 0 58.388691
0.82004988 1.0329272 1.5535462 40 0 0 0 58.394676
1.6477965 0.69939351 1.6818334 55 0 0 0 58.40353
0.92550892 1.3257982 1.5642332 42 0 0 0 58.409515
1.4781213 0.66506159 1.6554357 50 0 0 0 58.418373
0.86229193 1.2373236 1.5496826 47 0 0 0 58.424355
1.3144609 0.6298089 1.6240405 47 0 0 0 58.433216
0.80992532 1.163864 1.5502256 38 0 0 0 58.439201
1.1657705 0.59560186 1.6086698 48 0 0 0 58.448055
0.75562775 1.083425 1.5437292 44 0 0 0 58.454041
1.5838661 0.80787772 1.6743308 54 0 0 0 58.462894
0.8162058 1.3639495 1.5462919 42 0 0 0 58.46888
1.4193327 0.7576077 1.6448544 50 0 0 0 58.477737
0.77289683 1.2845951 1.5418152 48 0 0 0 58.483719
1.2687591 0.71143788 1.6194172 43 0 0 0 58.492577
0.72660381 1.2042468 1.5313294 43 0 0 0 58.498562
1.1291621 0.66630548 1.6049997 49 0 0 0 58.50742
0.68824536 1.1299145 1.5308859 45 0 0 0 58.513405
1.506044 0.9052856 1.6587496 59 0 0 0 58.522259
0.70501137 1.3901024 1.525283 42 0 0 0 58.528244
1.3526137 0.84311283 1.6292237 50 0 0 0 58.537102
0.67663544 1.3178566 1.5248631 43 0 0 0 58.543083
1.2160994 0.78902882 1.6107622 45 0 0 0 58.551945
0.64428294 1.2436029 1.5194277 42 0 0 0 58.557926
1.086594 0.73297423 1.5982993 47 0 0 0 58.566784
0.61590749 1.1713626 1.5180082 39 0 0 0 58.572769
1.4182962 0.99461991 1.6411109 43 0 0 0 58.581623
0.59486556 1.4102508 1.5072421 43 0 0 0 58.587608
1.2819263 0.924564 1.6175647 47 0 0 0 58.596462
0.57842553 1.3450979 1.5088754 44 0 0 0 58.602448
1.1574874 0.86158013 1.6000712 49 0 0 0 58.611305
0.55706584 1.2719499 1.50146 47 0 0 0 58.617287
1.0360825 0.7946229 1.5825604 50 0 0 0 58.626148
0.54355562 1.2137856 1.5101343 39 0 0 0 58.632133
1.3286085 1.0769286 1.6254306 45 0 0 0 58.640987
0.48677918 1.4234138 1.4901656 43 0 0 0 58.646973
1.2082826 1.0009859 1.6068735 47 0 0 0 58.655827
0.48030627 1.3623576 1.4898335 40 0 0 0 58.661812
1.0978892 0.93210298 1.5933666 43 0 0 0 58.670673
0.47279215 1.3052663 1.4945211 44 0 0 0 58.676655
0.98952121 0.86023808 1.5798466 52 0 0 0 58.685513
0.46629876 1.2461996 1.4961998 47 0 0 0 58.691498
1.2300129 1.1491781 1.6066834 45 0 0 0 58.700352
0.38073966 1.4305753 1.4770588 41 0 0 0 58.706337
1.1286938 1.0713634 1.5951411 48 0 0 0 58.715191
0.38222671 1.3746036 1.4737639 42 0 0 0 58.721176
1.0323385 0.99758649 1.5846262 46 0 0 0 58.730034
0.38363174 1.326579 1.4805113 39 0 0 0 58.736015
0.93701106 0.92082942 1.5720972 49 0 0 0 58.744877
0.38705745 1.2765875 1.484251 38 0 0 0 58.750858
1.1324471 1.2174124 1.5929146 42 0 0 0 58.759716
0.27576172 1.4307534 1.4629154 43 0 0 0 58.765701
0.28615394 1.3878456 1.4656785 42 0 0 0 58.969532
0.29551747 1.3449051 1.4694642 37 0 0 0 58.984371
0.30687085 1.3029763 1.4742578 39 0 0 0 58.99921
0.17289793 1.4209791 1.4476957 41 0 0 0 59.014057
0.19019668 1.3861222 1.4485343 43 0 0 0 59.028896
0.20447293 1.3532187 1.4533792 39 0 0 0 59.043736
0.22272779 1.3223333 1.4612402 44 0 0 0 59.058575
0.072097495 1.4012264 1.4284494 44 0 0 0 59.073418
0.095240034 1.383378 1.437385 38 0 0 0 59.088261
0.11449821 1.3535484 1.4362527 38 0 0 0 59.1031
0.13667725 1.331702 1.4431664 40 0 0 0 59.117939
-0.023666192 1.3764976 1.413183 45 0 0 0 59.132786
0.0014428344 1.3637028 1.4151477 42 0 0 0 59.147625
0.024554983 1.3498697 1.4211044 44 0 0 0 59.162464
0.049638763 1.339043 1.4290798 42 0 0 0 59.177303
-0.1164076 1.3487862 1.3999043 44 0 0 0 59.192142
-0.088365525 1.3440216 1.400915 44 0 0 0 59.206989
-0.063348457 1.3411998 1.4079319 42 0 0 0 59.221828
-0.036348488 1.3403947 1.4149621 45 0 0 0 59.236668
-0.2050987 1.3151109 1.3865993 41 0 0 0 59.251511
-0.17717114 1.3233299 1.3906777 41 0 0 0 59.266354
-0.15118986 1.3255423 1.3927221 44 0 0 0 59.281193
-0.12322425 1.3297769 1.3937799 42 0 0 0 59.296032
-0.28975093 1.2764614 1.3752733 44 0 0 0 59.310871
-0.26286739 1.2906973 1.3743817 38 0 0 0 59.325714
-0.23902979 1.3088609 1.3825064 42 0 0 0 59.340557
-0.21113904 1.3220999 1.3826109 45 0 0 0 59.355396
-0.36936042 1.2328612 1.3629282 42 0 0 0 59.370239
-0.34557253 1.2580608 1.3640893 44 0 0 0 59.385078
-0.32277164 1.2812364 1.3682384 48 0 0 0 59.399921
-0.29899332 1.3074306 1.3704047 51 0 0 0 59.414761
-0.44491041 1.182302 1.3495519 45 0 0 0 59.4296
-0.42516965 1.2205851 1.3536752 43 0 0 0 60.036388
-0.40642983 1.251735 1.3558593 47 0 0 0 60.051228
-0.38570511 1.2849063 1.3570564 49 0 0 0 60.066067
-0.51538908 1.1299245 1.3370736 53 0 0 0 60.080914
-0.5007754 1.1760353 1.3403283 47 0 0 0 60.095753
-0.48609346 1.2141515 1.3425422 45 0 0 0 60.110592
-0.47144309 1.2562724 1.3437763 52 0 0 0 60.125431
-0.58908749 1.0922745 1.346765 66 0 0 0 60.14027
-0.57337266 1.1294863 1.3319753 56 0 0 0 60.155117
-0.56169546 1.1696185 1.3261949 46 0 0 0 60.169956
-0.55311239 1.2196842 1.3284607 56 0 0 0 60.184795
-0.66174674 1.04963 1.3574322 32 0 0 0 60.199638
-0.64802688 1.0878711 1.3336446 71 0 0 0 60.214481
-0.63629866 1.1240648 1.3158436 48 0 0 0 60.229321
-0.63375354 1.1790909 1.3161258 50 0 0 0 60.24416
-0.70905989 0.97240025 1.3279586 57 0 0 0 60.258999
-0.72371155 1.0482031 1.3443221 30 0 0 0 60.273846
-0.71599072 1.0863942 1.3205252 79 0 0 0 60.288685
-0.7123459 1.132516 1.3037629 52 0 0 0 60.303524
-0.76761109 0.91791588 1.3305855 40 0 0 0 60.318367
-0.77609205 0.97790217 1.3208764 52 0 0 0 60.333206
-0.7956745 1.0467002 1.330196 28 0 0 0 60.348049
-0.79399794 1.0908567 1.3034204 76 0 0 0 60.362888
-0.82113063 0.85947442 1.3331996 41 0 0 0 60.377728
-0.83458269 0.91746044 1.3154726 50 0 0 0 60.39257
-0.84194314 0.96552706 1.2917036 71 0 0 0 60.407413
-0.91832644 0.77196044 1.2776051 58 0 0 0 60.413918
-1.1254843 0.19141757 1.2393454 56 0 0 0 60.418625
-0.86245304 1.0283941 1.2859907 58 0 0 0 60.422253
-0.94878483 0.829781 1.264852 52 0 0 0 60.428757
-1.2156563 0.2137351 1.2283249 53 0 0 0 60.433464
-0.84839332 0.77643311 1.2997267 59 0 0 0 60.437096
-0.9872995 0.89350998 1.2571172 50 0 0 0 60.443596
-1.3048041 0.23408689 1.2122957 50 0 0 0 60.448303
-0.87996525 0.84619391 1.2970328 78 0 0 0 60.451935
-0.91322887 0.63900852 1.2779288 57 0 0 0 60.458439
-1.0407482 0.099043623 1.2559946 57 0 0 0 60.463142
-0.89939427 0.9011206 1.2812809 48 0 0 0 60.466778
-0.95874202 0.70268506 1.2691834 56 0 0 0 60.473282
-1.13287 0.11637592 1.2389456 57 0 0 0 60.477989
-0.9248684 0.9609825 1.2685449 57 0 0 0 60.481617
-0.99819136 0.75943184 1.2564112 54 0 0 0 60.488121
-1.2239728 0.13069676 1.2258825 57 0 0 0 60.492828
-0.88281339 0.70822179 1.2883196 56 0 0 0 60.496456
-1.0446873 0.82110065 1.2476536 49 0 0 0 60.50296
-1.3140336 0.14105698 1.2068005 56 0 0 0 60.507668
-0.93963742 0.5688538 1.2685243 54 0 0 0 60.517799
-1.041213 0.033048224 1.2576522 61 0 0 0 60.522511
-0.99515253 0.63243836 1.2617631 56 0 0 0 60.532642
-1.135259 0.041370526 1.2395542 57 0 0 0 60.537354
-1.0425845 0.6871199 1.2489682 52 0 0 0 60.547485
-1.2292875 0.046668075 1.2264405 57 0 0 0 60.552193
-1.1010742 0.74768043 1.2421867 48 0 0 0 60.562325
-1.322284 0.048999861 1.208313 58 0 0 0 60.567032
-0.97103703 0.50461966 1.2721922 52 0 0 0 60.577168
-1.036629 -0.030856229 1.2553797 58 0 0 0 60.581871
-1.0304919 0.56220472 1.2593973 52 0 0 0 60.592007
-1.1356086 -0.031595752 1.2422329 57 0 0 0 60.596718
-1.0858958 0.61382818 1.2455775 51 0 0 0 60.60685
-1.231557 -0.036315057 1.2300701 59 0 0 0 60.611557
-1.1463157 0.66741091 1.2317601 47 0 0 0 60.621689
-1.3234777 -0.04296045 1.209903 61 0 0 0 60.626396
-0.99248523 0.43747243 1.2698129 50 0 0 0 60.636528
-1.0341136 -0.095852174 1.262049 57 0 0 0 60.641239
-1.0609064 0.49098477 1.2569839 58 0 0 0 60.651371
-1.1280017 -0.10651378 1.2418586 58 0 0 0 60.656078
-1.124277 0.5385437 1.2431315 50 0 0 0 60.66621
-1.2248877 -0.11924998 1.2316536 59 0 0 0 60.670921
-1.1926537 0.58706713 1.2282766 45 0 0 0 60.681053
-1.3167187 -0.13689391 1.2114305 62 0 0 0 60.68576
-1.0079145 0.36838999 1.2644331 52 0 0 0 60.695896
-1.0275956 -0.16080025 1.2657248 62 0 0 0 60.7006
-1.0812817 0.41587776 1.2485658 54 0 0 0 60.710735
-1.1224147 -0.18048382 1.2484874 63 0 0 0 60.715443
-1.155634 0.46032247 1.2396814 49 0 0 0 60.725574
-1.2112178 -0.20211782 1.2312485 57 0 0 0 60.730286
-1.2309598 0.50279492 1.2237853 46 0 0 0 60.740417
-1.2999824 -0.2277309 1.2099894 63 0 0 0 60.745125
-1.0223662 0.30130076 1.2620655 56 0 0 0 60.755257
-1.0120888 -0.22364984 1.2644252 62 0 0 0 60.759968
-1.0976617 0.34079361 1.2421544 54 0 0 0 60.7701
-1.1068391 -0.2523472 1.2501421 64 0 0 0 60.774807
-1.1809673 0.37915602 1.2352258 48 0 0 0 60.784939
-1.1945624 -0.28397673 1.2338541 61 0 0 0 60.789646
-1.2622435 0.41558075 1.2192899 43 0 0 0 60.799782
-1.2812475 -0.31957725 1.2135473 58 0 0 0 60.804489
-1.0277961 0.23231046 1.254702 59 0 0 0 60.814625
-0.99359161 -0.28547543 1.263136 54 0 0 0 60.819328
-1.1120465 0.26571596 1.2377467 58 0 0 0 60.829464
-1.0852638 -0.324157 1.2508067 63 0 0 0 60.834171
-1.0616983 -0.39397472 1.2524881 65 0 0 0 60.839977
-1.1992933 0.29705215 1.2297764 50 0 0 0 60.844303
-1.1699227 -0.36376089 1.2344829 56 0 0 0 60.84901
-1.14429 -0.44258204 1.240122 59 0 0 0 60.854816
-1.2845038 0.32544562 1.2137936 48 0 0 0 60.859142
-1.2545395 -0.40835905 1.2171338 56 0 0 0 60.863853
-1.2168499 -0.49305207 1.2167608 58 0 0 0 60.869656
-1.0372664 0.1662371 1.2573483 60 0 0 0 60.873985
-0.97709638 -0.34834799 1.2678397 62 0 0 0 60.878696
-0.95361 -0.40815634 1.2675718 61 0 0 0 60.884495
-1.0351561 -0.46276504 1.2571771 63 0 0 0 60.899338
-1.1126784 -0.52034056 1.2467732 55 0 0 0 60.914181
-1.1841733 -0.57982665 1.2283684 57 0 0 0 60.92902
-0.93213797 -0.46900415 1.2752945 59 0 0 0 60.943859
-1.0026277 -0.5294922 1.2588862 60 0 0 0 60.958706
-1.0750985 -0.59404123 1.2514548 58 0 0 0 60.973545
-1.1435205 -0.66352701 1.2380043 57 0 0 0 60.988384
-0.90467793 -0.52778369 1.2790372 57 0 0 0 61.003223
-0.96911794 -0.59524226 1.266603 60 0 0 0 61.018063
-1.0335317 -0.66672045 1.2581487 55 0 0 0 61.032909
-1.0929159 -0.7411375 1.245687 54 0 0 0 61.047749
-0.87522244 -0.58655769 1.284784 59 0 0 0 61.062588
-0.93461269 -0.66099501 1.2763224 59 0 0 0 61.077431
-0.98600441 -0.73434222 1.2628781 57 0 0 0 61.092274
-1.0363443 -0.81469578 1.2524003 58 0 0 0 61.107113
-0.84278464 -0.64330816 1.2905462 50 0 0 0 61.121952
-0.89413059 -0.72369003 1.284067 56 0 0 0 61.136791
-0.9374876 -0.80198699 1.2736102 54 0 0 0 61.151634
-0.97481507 -0.88321519 1.2591475 54 0 0 0 61.166477
-0.80636156 -0.69801712 1.2943257 50 0 0 0 61.181316
-0.84966934 -0.78436381 1.293829 58 0 0 0 61.196159
-0.88002849 -0.8615306 1.2783974 59 0 0 0 61.210999
-0.91031635 -0.94872689 1.2689159 56 0 0 0 61.225842
-0.76594293 -0.75270474 1.3001122 55 0 0 0 61.240681
-0.7982493 -0.8389523 1.2976328 54 0 0 0 61.25552
-0.82257175 -0.92210549 1.2891808 55 0 0 0 61.270363
-0.84285599 -1.010231 1.2817101 56 0 0 0 61.285206
-0.72653311 -0.80742621 1.3108983 51 0 0 0 61.300045
-0.74999428 -0.89844102 1.3134284 56 0 0 0 61.956139
-0.76135248 -0.9774642 1.3000216 55 0 0 0 61.970982
-0.77163798 -1.0675232 1.2955624 52 0 0 0 61.985825
-0.67734516 -0.85483819 1.310757 50 0 0 0 62.000664
-0.6916399 -0.94598323 1.3172866 51 0 0 0 62.015503
-0.69796097 -1.0320208 1.3148538 50 0 0 0 62.030342
-0.69627029 -1.1189804 1.309429 49 0 0 0 62.045185
-0.63097113 -0.9065156 1.3225769 48 0 0 0 62.060028
-0.63229293 -0.9935385 1.3251475 55 0 0 0 62.074867
-0.62763447 -1.0774994 1.3247427 46 0 0 0 62.089706
-0.61695141 -1.1644078 1.323333 51 0 0 0 62.104553
-0.57961756 -0.95514005 1.3314207 45 0 0 0 62.119392
-0.56897253 -1.0380685 1.3340307 51 0 0 0 62.134232
-0.55533433 -1.1199687 1.3356507 46 0 0 0 62.149071
-0.21771988 -1.2075645 1.3877493 40 0 0 0 62.157372
-0.53271282 -1.1987736 1.3323002 42 0 0 0 62.163914
-0.16237074 -1.2541709 1.3966088 57 0 0 0 62.172215
-0.52429223 -0.9997195 1.3372916 45 0 0 0 62.178757
-0.10104728 -1.2977355 1.4064928 48 0 0 0 62.187057
-0.50368482 -1.0785846 1.3429378 48 0 0 0 62.193596
-0.19889553 -1.1863879 1.3838874 43 0 0 0 62.201897
-0.47910798 -1.152389 1.3426154 47 0 0 0 62.208435
-0.14057671 -1.2310156 1.4017618 42 0 0 0 62.216736
-0.4485113 -1.2291561 1.3442881 47 0 0 0 62.223282
-0.079314969 -1.2665759 1.4106854 44 0 0 0 62.231575
-0.46498701 -1.0422786 1.3451796 50 0 0 0 62.238121
-0.013094529 -1.2971027 1.4206418 46 0 0 0 62.246422
-0.43642342 -1.1160913 1.3528639 50 0 0 0 62.25296
-0.1246862 -1.2188776 1.4008514 40 0 0 0 62.261261
-0.40287772 -1.1868453 1.3565713 44 0 0 0 62.267799
-0.060479891 -1.24844 1.4148095 53 0 0 0 62.2761
-0.36333421 -1.2575574 1.3612887 46 0 0 0 62.282639
0.0036916544 -1.2729881 1.4257923 43 0 0 0 62.290943
-0.40370181 -1.0828333 1.3550818 45 0 0 0 62.297485
0.072785936 -1.2864685 1.4308373 48 0 0 0 62.305782
-0.36520082 -1.1485635 1.3618221 48 0 0 0 62.312325
-0.047515579 -1.2463406 1.4168458 68 0 0 0 62.320625
-0.32273957 -1.2082381 1.3635985 41 0 0 0 62.327164
0.01957088 -1.2598615 1.4268875 40 0 0 0 62.335464
-0.27621925 -1.27794 1.3773326 62 0 0 0 62.342007
0.086635284 -1.270378 1.4359441 43 0 0 0 62.350304
-0.33844599 -1.1193484 1.3630111 47 0 0 0 62.35685
0.15766495 -1.2768734 1.4470267 46 0 0 0 62.365147
-0.29199797 -1.1790313 1.3727943 43 0 0 0 62.371689
0.032561798 -1.2597288 1.4219146 42 0 0 0 62.37999
-0.24358478 -1.2336844 1.3796055 38 0 0 0 62.386528
0.1015711 -1.2642548 1.4360039 41 0 0 0 62.394829
-0.1881707 -1.2893025 1.3904232 50 0 0 0 62.401367
0.17056468 -1.2667813 1.450103 49 0 0 0 62.409672
-0.27119753 -1.1558688 1.3749448 41 0 0 0 62.41621
0.24045807 -1.2552716 1.4582723 49 0 0 0 62.424511
0.11566039 -1.2781487 1.4379647 44 0 0 0 62.43935
0.18556619 -1.2696733 1.4531194 44 0 0 0 62.454193
0.25344089 -1.2561898 1.4632952 44 0 0 0 62.469032
0.3212375 -1.232707 1.4735199 48 0 0 0 62.483875
0.20169275 -1.2875327 1.4510646 49 0 0 0 62.498714
0.44029152 -1.2438688 1.4926577 45 0 0 0 62.499306
0.26949704 -1.2660745 1.4662795 43 0 0 0 62.513557
0.49587455 -1.1934915 1.5049943 45 0 0 0 62.514149
0.33528286 -1.2416177 1.478506 45 0 0 0 62.5284
0.54737228 -1.1311218 1.5123826 50 0 0 0 62.528988
0.39996752 -1.2031453 1.485799 49 0 0 0 62.54324
0.47361082 -1.2876261 1.4965051 43 0 0 0 62.543827
0.28968728 -1.2918985 1.4631929 46 0 0 0 62.558079
0.52610677 -1.2262779 1.5098904 46 0 0 0 62.558674
0.35540739 -1.2604767 1.4824535 45 0 0 0 62.572922
0.57459408 -1.1629418 1.5192788 52 0 0 0 62.573513
0.41505668 -1.2170343 1.4877626 45 0 0 0 62.587761
0.61396694 -1.0826234 1.5177349 44 0 0 0 62.588352
0.47667459 -1.1716254 1.5030847 53 0 0 0 62.602604
0.56443667 -1.2699633 1.5067469 53 0 0 0 62.603191
0.3806501 -1.2932673 1.4803416 44 0 0 0 62.617443
0.60986191 -1.1996757 1.5211643 43 0 0 0 62.618031
0.64724302 -1.1213974 1.5246073 44 0 0 0 62.632877
0.67856717 -1.0361761 1.5300741 49 0 0 0 62.647717
0.65924996 -1.2523104 1.5249958 43 0 0 0 62.662556
0.69156313 -1.1660912 1.5324692 43 0 0 0 62.677399
0.71787113 -1.0778897 1.5339422 45 0 0 0 62.692242
0.73711765 -0.98174304 1.5354424 42 0 0 0 62.707081
0.75096762 -1.2206445 1.5353082 39 0 0 0 62.72192
0.77020949 -1.1245127 1.5398084 49 0 0 0 62.736759
0.78747362 -1.031401 1.5452904 42 0 0 0 62.751602
0.79367524 -0.9293558 1.5467974 46 0 0 0 62.766445
0.8416394 -1.1829888 1.5456486 50 0 0 0 62.781284
0.85184985 -1.0839561 1.5561477 48 0 0 0 62.796127
0.85505074 -0.98193926 1.5586497 47 0 0 0 62.810966
0.84519583 -0.87098461 1.5531732 46 0 0 0 62.825809
0.93629408 -1.1453573 1.5669959 48 0 0 0 62.840649
1.0755029 -0.91939718 1.593317 45 0 0 0 62.852207
0.93043244 -1.0354153 1.5705211 44 0 0 0 62.855488
1.0296135 -0.80269265 1.5818095 51 0 0 0 62.867046
0.91658622 -0.92549175 1.5650328 42 0 0 0 62.870331
0.97872585 -0.68807 1.5792835 46 0 0 0 62.881889
0.89371288 -0.81265223 1.5625437 47 0 0 0 62.885174
1.1958815 -0.97253281 1.6062644 47 0 0 0 62.896729
1.0278803 -1.0977272 1.5833869 50 0 0 0 62.900013
1.1409509 -0.85193175 1.6017606 51 0 0 0 62.911568
1.0069773 -0.98189181 1.5849155 41 0 0 0 62.914856
1.0790685 -0.73533601 1.5872256 57 0 0 0 62.926411
0.97509342 -0.86608821 1.5754253 47 0 0 0 62.929695
1.0142045 -0.62382561 1.5856607 47 0 0 0 62.941254
0.93921423 -0.75234896 1.5729185 44 0 0 0 62.944534
1.2732856 -0.89999145 1.6177528 49 0 0 0 62.956093
1.1143876 -1.0391235 1.5968229 52 0 0 0 62.959377
1.2073814 -0.78349394 1.6172103 50 0 0 0 62.970936
1.1305182 -0.66900843 1.6016396 46 0 0 0 62.985775
1.0456727 -0.5576033 1.5900403 47 0 0 0 63.000614
1.343621 -0.81748676 1.6252775 51 0 0 0 63.015457
1.2647618 -0.70709819 1.6266834 51 0 0 0 63.030296
1.1729348 -0.59671766 1.6090671 45 0 0 0 63.045139
1.0761358 -0.49140859 1.5984178 49 0 0 0 63.059978
1.4079199 -0.73003006 1.6328158 53 0 0 0 63.074821
1.3151045 -0.62473845 1.6321731 48 0 0 0 63.089664
1.2033254 -0.51846731 1.605503 47 0 0 0 63.104504
1.1045954 -0.4252443 1.6097914 49 0 0 0 63.119343
1.4751906 -0.64059514 1.6493682 47 0 0 0 63.134186
1.3594247 -0.53943092 1.6386666 48 0 0 0 63.149025
1.2427186 -0.44423509 1.6199338 45 0 0 0 63.163868
1.1250393 -0.35510364 1.6131701 48 0 0 0 63.178707
1.5264112 -0.54223657 1.6559364 48 0 0 0 63.193546
1.394717 -0.44916952 1.6401682 50 0 0 0 63.208393
1.2720885 -0.365042 1.6263715 45 0 0 0 63.223232
1.1434895 -0.2859883 1.61854 47 0 0 0 63.238071
1.5785978 -0.44091001 1.6705197 50 0 0 0 63.252911
1.4319904 -0.357932 1.6496772 51 0 0 0 63.267754
1.292446 -0.28289452 1.6278074 47 0 0 0 63.282597
1.1539451 -0.215901 1.6169006 49 0 0 0 63.297436
1.6147562 -0.33366394 1.6761039 54 0 0 0 63.312275
1.4571356 -0.26282683 1.65327 52 0 0 0 63.902447
1.3086964 -0.19983089 1.6293156 45 0 0 0 63.91729
1.1632954 -0.14487265 1.618328 49 0 0 0 63.932133
1.638778 -0.22158395 1.6787831 58 0 0 0 63.946972
1.4763892 -0.16570163 1.6567703 53 0 0 0 63.961811
1.3170576 -0.11576261 1.6277344 47 0 0 0 63.976658
1.169752 -0.073826671 1.618681 48 0 0 0 63.991497
1.6579089 -0.10847096 1.684359 52 0 0 0 64.006332
1.4866409 -0.067634948 1.6582588 56 0 0 0 64.021179
1.3264105 -0.031715326 1.6321539 51 0 0 0 64.036018
1.1722102 -0.0028108214 1.6190259 49 0 0 0 64.050858
1.6630459 0.0055649686 1.6839137 51 0 0 0 64.065697
1.4948826 0.031402364 1.662747 55 0 0 0 64.080544
1.3277725 0.05229073 1.6325583 45 0 0 0 64.095383
1.1726743 0.067180641 1.621362 47 0 0 0 64.110222
1.6541964 0.11952428 1.6774426 53 0 0 0 64.125061
1.4891374 0.13036308 1.6612096 54 0 0 0 64.1399
1.3231292 0.13725188 1.6329559 56 0 0 0 64.154747
1.1661448 0.13815266 1.6166894 49 0 0 0 64.169586
1.6403335 0.23442286 1.6759657 52 0 0 0 64.184425
1.4714051 0.22926249 1.6536497 54 0 0 0 64.199265
1.392276 0.51673251 1.6428622 53 0 0 0 64.202194
1.3095077 0.22117886 1.6263319 45 0 0 0 64.214111
1.2466633 0.46975133 1.6193895 46 0 0 0 64.217033
1.1576121 0.20909581 1.6150124 48 0 0 0 64.228951
1.111046 0.42079398 1.6069249 50 0 0 0 64.231873
1.6184887 0.34726217 1.6744635 53 0 0 0 64.24379
1.4891645 0.66340584 1.6537215 52 0 0 0 64.246719
1.4546708 0.3271369 1.6530855 55 0 0 0 64.258629
1.3476269 0.60543698 1.6342039 54 0 0 0 64.261559
1.294878 0.30507052 1.6257048 50 0 0 0 64.273476
1.2120883 0.54853243 1.6107017 44 0 0 0 64.276398
1.1460829 0.28002149 1.6123291 51 0 0 0 64.288315
1.0875231 0.49164018 1.6022186 49 0 0 0 64.291237
1.5876691 0.45703512 1.6729299 51 0 0 0 64.303154
1.4284589 0.75999022 1.6450713 50 0 0 0 64.306084
1.4299481 0.4239569 1.6515008 54 0 0 0 64.317993
1.3009824 0.69311357 1.628536 48 0 0 0 64.320923
1.2722648 0.38792181 1.6210576 49 0 0 0 64.33284
1.173527 0.62527519 1.603996 47 0 0 0 64.335762
1.1305554 0.35091761 1.6096376 49 0 0 0 64.347679
1.0630025 0.56146073 1.6015048 47 0 0 0 64.350601
1.5438871 0.56374502 1.6643575 52 0 0 0 64.362518
1.3627912 0.85153419 1.6373868 49 0 0 0 64.36544
1.247381 0.77574873 1.6208307 44 0 0 0 64.380287
1.1329604 0.70198518 1.6012855 44 0 0 0 64.395126
1.0314982 0.63024867 1.5967728 46 0 0 0 64.409966
1.2812531 0.92902231 1.616607 51 0 0 0 64.424805
0.89398432 1.1103801 1.5677739 42 0 0 0 64.433418
1.1808645 0.84933102 1.6040587 48 0 0 0 64.439651
0.84464836 1.0240731 1.5542835 45 0 0 0 64.448257
1.0844438 0.77366513 1.5925361 42 0 0 0 64.454491
0.80523157 0.94476557 1.5568436 42 0 0 0 64.463097
0.99402493 0.6960116 1.5880148 49 0 0 0 64.46933
0.84009659 1.2340519 1.5532541 50 0 0 0 64.477943
1.2036883 1.0074857 1.607837 48 0 0 0 64.484169
0.80967015 1.1568253 1.5528395 43 0 0 0 64.492783
1.1183138 0.92488831 1.5993015 45 0 0 0 64.499016
0.77626693 1.0775999 1.5474105 43 0 0 0 64.507622
1.0319494 0.84231186 1.5847641 42 0 0 0 64.513855
0.7458688 0.9973923 1.5429822 43 0 0 0 64.522461
0.95553547 0.76273996 1.5852586 45 0 0 0 64.528694
0.74087727 1.2683972 1.5362355 46 0 0 0 64.537308
1.1172161 1.074908 1.5939982 47 0 0 0 64.543533
0.72242182 1.1952643 1.5348612 39 0 0 0 64.552147
1.0468442 0.99141335 1.5874847 42 0 0 0 64.558372
0.69996959 1.1221113 1.5314798 37 0 0 0 64.566986
0.97745532 0.90992182 1.5819824 43 0 0 0 64.573219
0.68350053 1.0499796 1.5331141 44 0 0 0 64.581825
0.91008985 0.82545012 1.57547 50 0 0 0 64.588058
0.64173639 1.2927543 1.517169 44 0 0 0 64.596664
1.0287882 1.136313 1.5811261 46 0 0 0 64.602898
0.63223732 1.2256929 1.5148391 39 0 0 0 64.611511
0.97339153 1.0549067 1.5796489 46 0 0 0 64.617744
0.62367934 1.1646013 1.5205388 37 0 0 0 64.62635
0.91501069 0.97250199 1.5731618 42 0 0 0 64.632584
0.61618328 1.0965453 1.5202081 43 0 0 0 64.64119
0.86064965 0.88712257 1.5676683 47 0 0 0 64.647423
0.5436095 1.3140978 1.5030892 45 0 0 0 64.656029
0.93641192 1.190686 1.5692128 43 0 0 0 64.662262
0.54599935 1.2600874 1.508841 46 0 0 0 64.670876
0.54345649 1.1990823 1.5055519 38 0 0 0 64.685715
0.54588777 1.1400861 1.5082812 40 0 0 0 64.700554
0.4445532 1.3264457 1.4869645 45 0 0 0 64.715393
0.45391244 1.2775054 1.4887526 42 0 0 0 64.730232
0.46224782 1.2305346 1.4955482 41 0 0 0 64.745079
0.47260466 1.1815969 1.4983386 41 0 0 0 64.759918
0.34851778 1.3347946 1.4758257 42 0 0 0 64.774757
0.36577529 1.2988991 1.4806886 38 0 0 0 64.789597
0.3790895 1.2559881 1.482512 43 0 0 0 64.804443
0.39636856 1.2170923 1.4873614 40 0 0 0 64.819283
0.25451934 1.3381609 1.4646664 48 0 0 0 64.834122
0.27475411 1.3063055 1.4655534 37 0 0 0 64.848961
0.29397601 1.275429 1.4694434 43 0 0 0 64.863808
0.3151812 1.2465624 1.4743464 40 0 0 0 64.878647
0.18474801 1.3107094 1.4524084 39 0 0 0 64.882706
0.16063271 1.3275526 1.4484416 44 0 0 0 64.893486
0.20788535 1.2908525 1.4583564 42 0 0 0 64.897545
0.23304257 1.2690243 1.4612991 44 0 0 0 64.912384
0.06882631 1.3069856 1.4261771 43 0 0 0 64.927231
0.094842613 1.3031411 1.4342043 44 0 0 0 64.94207
0.11993378 1.2903125 1.4371884 44 0 0 0 64.956909
0.14793719 1.2874684 1.4482239 40 0 0 0 64.971748
-0.018007632 1.2884187 1.412927 42 0 0 0 64.986595
0.0079536485 1.292583 1.4189911 45 0 0 0 65.001434
0.032962434 1.2907494 1.423026 42 0 0 0 65.016273
0.060930967 1.293928 1.4290891 43 0 0 0 65.031113
-0.10282726 1.2668499 1.4036663 44 0 0 0 65.045959
-0.076891668 1.2760416 1.4037534 38 0 0 0 65.060799
-0.052985031 1.2871817 1.4118459 42 0 0 0 65.075638
-0.026087591 1.3003573 1.4169532 43 0 0 0 65.090477
-0.18356545 1.2353355 1.3893664 40 0 0 0 65.105324
-0.16072993 1.257491 1.3925076 42 0 0 0 65.120163
-0.13889605 1.2786162 1.4006422 45 0 0 0 65.135002
-0.11502573 1.2967927 1.4007668 43 0 0 0 65.149841
-0.26233158 1.2058051 1.3820789 45 0 0 0 65.16468
-0.24253584 1.2339478 1.383242 43 0 0 0 65.179527
-0.47163242 1.134451 1.3523849 65 0 0 0 65.186043
-0.22359182 1.2601116 1.3843895 45 0 0 0 65.194366
-0.46588153 1.1715424 1.3425621 46 0 0 0 65.200882
-0.20380549 1.2892447 1.3875549 50 0 0 0 65.209206
-0.46525815 1.2235469 1.3437984 46 0 0 0 65.215721
-0.33588511 1.1663663 1.3697612 46 0 0 0 65.224045
-0.54608989 1.0558393 1.3698895 33 0 0 0 65.23056
-0.32115322 1.2034723 1.3709542 45 0 0 0 65.238892
-0.54638624 1.1009146 1.3540924 65 0 0 0 65.245399
-0.30843702 1.2415408 1.3771478 43 0 0 0 65.253731
-0.54359394 1.1350348 1.3332504 55 0 0 0 65.260246
-0.29270297 1.2786583 1.3773423 49 0 0 0 65.26857
-0.54796845 1.188026 1.3294822 45 0 0 0 65.275085
-0.40660506 1.1298901 1.3644625 38 0 0 0 65.283409
-0.60061908 0.99655062 1.3495145 54 0 0 0 65.289925
-0.39687496 1.1689917 1.3586555 46 0 0 0 65.298248
-0.61809582 1.0614066 1.3547776 30 0 0 0 65.304771
-0.38816229 1.2090588 1.358851 44 0 0 0 65.313095
-0.62132847 1.0994925 1.3319429 71 0 0 0 65.319611
-0.38052312 1.2580953 1.3640856 49 0 0 0 65.327934
-0.63065416 1.1484982 1.3171474 49 0 0 0 65.33445
-0.47938293 1.0983462 1.3711826 45 0 0 0 65.342773
-0.65420491 0.94221991 1.3401644 61 0 0 0 65.349289
-0.68170071 1.0100086 1.3444228 38 0 0 0 65.364128
-0.70210105 1.0668893 1.3396437 32 0 0 0 65.378975
-0.70929921 1.1029965 1.3057926 61 0 0 0 65.393814
-0.71490616 0.89874858 1.3508517 33 0 0 0 65.408653
-0.73319227 0.94575346 1.3220308 75 0 0 0 65.423492
-0.77576882 1.0213709 1.3402978 33 0 0 0 65.438339
-0.79705942 1.0683408 1.3144711 63 0 0 0 65.453178
-0.75236773 0.83060414 1.3264674 67 0 0 0 65.468018
-0.80291539 0.90420097 1.3367107 30 0 0 0 65.482857
-0.82616442 0.94617039 1.3078576 68 0 0 0 65.497704
-0.85444546 0.9920947 1.2810137 80 0 0 0 65.512543
-0.78684509 0.76346362 1.3060935 50 0 0 0 65.527382
-0.84233642 0.83105731 1.3093003 81 0 0 0 65.542221
-0.88468283 0.88282222 1.2954578 64 0 0 0 65.55706
-0.92298269 0.93066156 1.2716045 52 0 0 0 65.571907
-0.8223756 0.70127559 1.2947408 56 0 0 0 65.586746
-0.87978405 0.75990134 1.287903 57 0 0 0 65.601585
-0.92910653 0.80862123 1.2730341 61 0 0 0 65.616425
-0.983459 0.861301 1.2591739 55 0 0 0 65.631271
-0.85795039 0.64305192 1.2914066 55 0 0 0 65.646111
-0.91826487 0.69381231 1.2754792 61 0 0 0 66.011261
-0.97959346 0.74242401 1.2665849 59 0 0 0 66.026108
-1.0439286 0.79303265 1.2536938 57 0 0 0 66.040947
-0.89050925 0.58395898 1.289031 53 0 0 0 66.055786
-0.95577365 0.62659675 1.2681026 61 0 0 0 66.070625
-1.0240786 0.67216432 1.2581817 48 0 0 0 66.085464
-1.0923495 0.7147637 1.2412472 52 0 0 0 66.100311
-0.91805923 0.52180493 1.2836962 61 0 0 0 66.11515
-0.99130541 0.56137818 1.2647393 60 0 0 0 66.12999
-1.0655497 0.59891349 1.2527711 49 0 0 0 66.144829
-1.1438042 0.63842988 1.2388045 45 0 0 0 66.159676
-0.94261432 0.45966372 1.2803673 64 0 0 0 66.174515
-1.0197983 0.49122328 1.2583669 54 0 0 0 66.189354
-1.1050298 0.5256598 1.2513648 48 0 0 0 66.204193
-1.1842027 0.55519724 1.2313513 45 0 0 0 66.219032
-0.95713747 0.39462474 1.2700442 60 0 0 0 66.233879
-1.0453051 0.42207667 1.2550052 58 0 0 0 66.248718
-1.1344748 0.44849983 1.2449598 53 0 0 0 66.263557
-1.2195927 0.4699918 1.2258993 46 0 0 0 66.278397
-0.97670114 0.33250621 1.2697258 64 0 0 0 66.293243
-1.0688106 0.35193583 1.2536435 57 0 0 0 66.308083
-1.1589112 0.36936668 1.240556 45 0 0 0 66.322922
-1.2479693 0.38284078 1.2194523 48 0 0 0 66.337761
-0.99025398 0.2694436 1.2664146 57 0 0 0 66.352608
-1.10628 0.13572642 1.244608 59 0 0 0 66.367149
-1.0863088 0.28084207 1.2512892 56 0 0 0 66.367447
-1.1991861 0.12615164 1.2283951 53 0 0 0 66.381996
-1.1783339 0.28827363 1.2351532 48 0 0 0 66.382286
-1.2970623 0.11254691 1.2111552 60 0 0 0 66.396835
-1.2653215 0.29278082 1.2100132 47 0 0 0 66.397125
-1.013927 0.080304079 1.2635262 57 0 0 0 66.411674
-1.0008121 0.20639341 1.2651099 59 0 0 0 66.411964
-1.1067626 0.062765576 1.2392781 59 0 0 0 66.426521
-1.0957879 0.20782249 1.2449417 61 0 0 0 66.426811
-1.2036133 0.044146389 1.2270175 57 0 0 0 66.44136
-1.1877551 0.2072598 1.2277701 50 0 0 0 66.44165
-1.3034304 0.021520216 1.2117339 62 0 0 0 66.4562
-1.2856958 0.20265138 1.2115695 51 0 0 0 66.45649
-1.0174936 0.017289879 1.2652358 60 0 0 0 66.471039
-1.0103735 0.14334601 1.2648076 59 0 0 0 66.471336
-1.1132758 -0.0092904391 1.245942 62 0 0 0 66.485878
-1.2070585 -0.036873959 1.2306474 56 0 0 0 66.500725
-1.3007991 -0.069439076 1.2113305 58 0 0 0 66.515564
-1.0140618 -0.044657711 1.2629637 54 0 0 0 66.530403
-1.110787 -0.080256946 1.2466282 62 0 0 0 66.54525
-1.2025024 -0.11782958 1.232293 58 0 0 0 66.560089
-1.292174 -0.16036548 1.2129396 57 0 0 0 66.574928
-1.01063 -0.10761864 1.263688 57 0 0 0 66.589767
-1.1022933 -0.1521817 1.2473221 62 0 0 0 66.604607
-1.1909466 -0.19873217 1.2329528 58 0 0 0 66.619453
-1.2755631 -0.2492321 1.2135736 56 0 0 0 66.634293
-1.0052035 -0.17057456 1.2664168 62 0 0 0 66.649132
-1.096807 -0.22515835 1.2550068 63 0 0 0 66.663979
-1.1733998 -0.27859336 1.2336295 57 0 0 0 66.678818
-1.2539583 -0.33807322 1.2162182 57 0 0 0 66.693657
-0.99277824 -0.23246442 1.2651639 58 0 0 0 66.708496
-1.0723233 -0.2939373 1.2477459 61 0 0 0 66.723335
-1.1508709 -0.35642481 1.2353252 58 0 0 0 66.738182
-1.2253749 -0.42386201 1.2178904 56 0 0 0 66.753021
-0.97936004 -0.29436085 1.2669138 58 0 0 0 66.76786
-1.0588565 -0.36486343 1.2564564 64 0 0 0 66.782707
-1.1253545 -0.43324485 1.2390324 55 0 0 0 66.797546
-1.1958137 -0.50867534 1.2265701 54 0 0 0 66.812386
-0.96494019 -0.35725945 1.2706621 62 0 0 0 66.827225
-1.0353971 -0.43369728 1.2601956 63 0 0 0 66.846275
-1.0998538 -0.5100947 1.2497404 58 0 0 0 66.861115
-1.1552719 -0.58938557 1.2292893 55 0 0 0 66.875954
-0.94453102 -0.41810241 1.2714313 59 0 0 0 66.890793
-1.0049522 -0.4994674 1.2599622 62 0 0 0 66.905632
-1.0633674 -0.58283573 1.252488 55 0 0 0 66.920479
-1.1107579 -0.66708404 1.2350308 59 0 0 0 66.935318
-0.92611861 -0.48200041 1.2811846 58 0 0 0 66.950157
-0.97451305 -0.56626451 1.2657254 61 0 0 0 66.964996
-1.023904 -0.65357453 1.2592515 53 0 0 0 66.979843
-1.0662656 -0.74381417 1.2477777 55 0 0 0 66.994682
-0.89872068 -0.54180193 1.2829733 61 0 0 0 67.009521
-0.94009638 -0.63003486 1.2715105 59 0 0 0 67.024361
-0.98045808 -0.72229117 1.267032 56 0 0 0 67.039207
-1.0098158 -0.81242806 1.2525836 57 0 0 0 67.054047
-0.86832941 -0.6005792 1.2837732 56 0 0 0 67.068886
-0.89869469 -0.69074064 1.2733229 55 0 0 0 67.083725
-0.93203968 -0.7869702 1.273841 53 0 0 0 67.098572
-0.95437568 -0.88208503 1.2653846 54 0 0 0 67.113411
-0.83894068 -0.66139883 1.2925634 51 0 0 0 67.12825
-0.86328113 -0.75755358 1.2900989 60 0 0 0 67.143089
-0.87865049 -0.84761631 1.2806779 57 0 0 0 67.157928
-0.71515638 -0.92864513 1.314631 52 0 0 0 67.159531
-0.89098299 -0.94366688 1.2732369 57 0 0 0 67.172768
-0.70056903 -1.0135205 1.3092892 53 0 0 0 67.17437
-0.80155993 -0.72014701 1.2973785 55 0 0 0 67.187614
-0.68394744 -1.1054125 1.3109212 49 0 0 0 67.189217
-0.81790257 -0.81726426 1.2989255 54 0 0 0 67.202454
-0.67344242 -0.88935941 1.3178824 53 0 0 0 67.204056
-0.82327527 -0.90726298 1.2905242 55 0 0 0 67.217293
-0.65585524 -0.97624493 1.3195381 53 0 0 0 67.218895
-0.82462001 -1.0022472 1.2851092 56 0 0 0 67.23214
-0.63627046 -1.0631211 1.3221978 52 0 0 0 67.233734
-0.76319122 -0.77789795 1.3042009 51 0 0 0 67.246979
-0.60769635 -1.1479274 1.3228838 48 0 0 0 67.248573
-0.76854241 -0.87393999 1.3057739 53 0 0 0 67.261818
-0.62310559 -0.94303447 1.3257468 46 0 0 0 67.263412
-0.764929 -0.96289051 1.3003948 58 0 0 0 67.276657
-0.59754783 -1.0268831 1.3314314 51 0 0 0 67.278259
-0.75628281 -1.0578241 1.2989994 54 0 0 0 67.291504
-0.56602538 -1.1036609 1.3301582 47 0 0 0 67.293106
-0.72182792 -0.83563793 1.3130299 48 0 0 0 67.306343
-0.52850235 -1.181411 1.3318925 47 0 0 0 67.307945
-0.56878388 -0.99468338 1.3336284 48 0 0 0 67.322784
-0.5332821 -1.0704646 1.3393676 49 0 0 0 67.337624
-0.49380067 -1.1422018 1.341132 48 0 0 0 67.352463
-0.44734028 -1.2108915 1.3429232 47 0 0 0 67.367302
-0.5084939 -1.0412842 1.3395444 47 0 0 0 67.382141
-0.4650479 -1.109012 1.3453341 48 0 0 0 67.39698
-0.41862392 -1.1727067 1.3481473 46 0 0 0 67.411827
-0.36719707 -1.2394066 1.3599572 42 0 0 0 67.426674
-0.4452256 -1.0848662 1.34548 47 0 0 0 67.441513
-0.39681619 -1.1495954 1.359293 45 0 0 0 67.456352
-0.34346312 -1.203248 1.3631634 43 0 0 0 67.471191
-0.28608868 -1.2629168 1.3770157 52 0 0 0 67.486031
-0.3799513 -1.1314663 1.3584075 43 0 0 0 67.50087
-0.32462069 -1.1841404 1.3702865 45 0 0 0 67.515709
-0.26630893 -1.2337903 1.3811842 41 0 0 0 67.530563
-0.20304123 -1.2763984 1.3901222 56 0 0 0 67.545403
-0.30971822 -1.1710168 1.3673761 45 0 0 0 67.560242
-0.24945028 -1.2156754 1.3832996 43 0 0 0 67.575081
-0.18720894 -1.2553039 1.3952488 65 0 0 0 67.58992
-0.11902995 -1.2848794 1.4042528 48 0 0 0 67.604759
-0.23648602 -1.2125789 1.3833427 45 0 0 0 67.619598
-0.17240284 -1.246163 1.4013596 47 0 0 0 67.939056
-0.10626718 -1.268744 1.4073923 44 0 0 0 67.953896
-0.036161456 -1.2883199 1.4184457 49 0 0 0 67.968735
-0.15938802 -1.2500592 1.3993735 51 0 0 0 67.983574
-0.091313817 -1.2646447 1.4094443 43 0 0 0 67.998413
-0.024238793 -1.2802501 1.4225092 48 0 0 0 68.013252
0.044737048 -1.2777959 1.4246546 48 0 0 0 68.028099
-0.077249698 -1.2765433 1.4094267 46 0 0 0 68.042946
-0.0092530623 -1.2801387 1.4215448 40 0 0 0 68.057785
0.057741627 -1.2837453 1.4346609 47 0 0 0 68.072624
0.12564504 -1.2713121 1.4398472 47 0 0 0 68.087463
0.0068943002 -1.3060457 1.4264719 50 0 0 0 68.102303
0.074785255 -1.2926254 1.4346626 45 0 0 0 68.117142
0.14067633 -1.2792192 1.4428492 45 0 0 0 68.131981
0.20652923 -1.2618386 1.4570529 51 0 0 0 68.146828
0.095950283 -1.3194747 1.4335959 47 0 0 0 68.161667
0.16080207 -1.303118 1.4517934 45 0 0 0 68.176514
0.22360221 -1.2757286 1.4590337 45 0 0 0 68.191353
0.2843616 -1.2433699 1.4702914 45 0 0 0 68.206192
0.18799692 -1.3339198 1.4487222 46 0 0 0 68.221031
0.24875517 -1.3025782 1.4639757 45 0 0 0 68.23587
0.30648082 -1.2642275 1.4722528 45 0 0 0 68.25071
0.36116114 -1.2199098 1.4835494 50 0 0 0 68.265549
0.5164597 -1.2719787 1.5066329 43 0 0 0 68.277695
0.28200522 -1.3423496 1.4628789 44 0 0 0 68.280403
0.54997164 -1.2007804 1.5130022 48 0 0 0 68.292534
0.33667973 -1.2980449 1.4771755 49 0 0 0 68.295242
0.5744276 -1.119621 1.5143958 49 0 0 0 68.307373
0.38833117 -1.2487392 1.4864873 49 0 0 0 68.310081
0.57881832 -1.3295814 1.5105183 43 0 0 0 68.322227
0.43492272 -1.1894546 1.4928312 49 0 0 0 68.324921
0.60324878 -1.245435 1.5149246 46 0 0 0 68.337067
0.3789762 -1.3457702 1.4790634 44 0 0 0 68.33976
0.62871891 -1.1693116 1.5262988 50 0 0 0 68.351906
0.42655605 -1.2865046 1.4914094 45 0 0 0 68.354599
0.63911533 -1.0772201 1.5217106 46 0 0 0 68.366745
0.46913949 -1.2262511 1.4987496 43 0 0 0 68.369438
0.68064177 -1.3109781 1.5278066 46 0 0 0 68.381584
0.50767523 -1.1590286 1.5071113 54 0 0 0 68.384277
0.69402069 -1.218905 1.5322245 46 0 0 0 68.396423
