# .PCD v0.7 - Point Cloud Data file format
VERSION 0.7
FIELDS x y z intensity normal_x normal_y normal_z curvature
SIZE 4 4 4 4 4 4 4 4
TYPE F F F F F F F F
COUNT 1 1 1 1 1 1 1 1
WIDTH 956
HEIGHT 1
VIEWPOINT 0 0 0 1 0 0 0
POINTS 956
DATA ascii
8.3919344 4.2700009 0.83812052 136 0 0 0 39.600895
6.0633817 4.15238 -2.3169634 92 0 0 0 39.600895
10.299886 6.1064196 5.4304514 11 0 0 0 39.600895
3.1845512 3.402781 -2.0532734 233 0 0 0 39.600895
6.961895 4.4914975 0.30628982 282 0 0 0 39.600895
4.9572144 4.743773 0.19344991 497 0 0 0 39.704575
6.2873459 5.0594749 -0.92221099 76 0 0 0 39.704575
6.3173079 4.9962206 -0.12970275 109 0 0 0 39.704575
7.0534 4.5324821 -0.10244554 255 0 0 0 39.704575
5.9392471 4.4769735 2.1023571 266 0 0 0 39.704575
9.87362 4.6149611 3.7603703 67 0 0 0 39.704575
2.7903256 2.9926937 -2.0542936 203 0 0 0 39.704575
5.0001531 4.6847234 1.2099042 373 0 0 0 39.704575
5.9455576 4.5544024 1.348487 349 0 0 0 39.704575
10.217311 3.841619 9.8295593 12 0 0 0 39.704575
8.4827623 4.4227934 -1.0332367 160 0 0 0 39.704575
4.9517417 4.5155125 3.0040996 241 0 0 0 39.704575
4.9960732 4.7465591 0.53195709 473 0 0 0 39.704575
8.5161257 4.400877 -0.56074077 181 0 0 0 39.704575
8.5326309 4.1710792 1.7846106 140 0 0 0 39.704575
7.0701108 3.8041165 -2.5287588 76 0 0 0 39.704575
6.9971695 4.5725946 -0.9211427 58 0 0 0 39.704575
4.3645663 3.0012939 -2.2661459 175 0 0 0 39.704575
10.604108 4.1511183 9.2460318 20 0 0 0 39.704575
5.9344521 4.5794897 0.97845948 395 0 0 0 39.704575
7.0995708 4.2564335 2.8139045 191 0 0 0 39.704575
10.154406 4.4730539 5.7891054 77 0 0 0 39.704575
9.9478502 4.568284 4.3947396 72 0 0 0 39.704575
3.7769039 3.2251744 -2.1463544 227 0 0 0 39.704575
7.079504 4.4243703 1.1183461 250 0 0 0 39.704575
7.074615 4.3804655 1.5285192 249 0 0 0 39.704575
8.5053396 4.2134066 1.3083163 140 0 0 0 39.704575
8.4580154 4.4869747 -2.0045366 150 0 0 0 39.704575
8.9240599 5.9346018 -2.2713008 53 0 0 0 39.704575
8.4866438 4.2537727 0.83898407 139 0 0 0 39.704575
4.9512963 2.69596 -2.4099524 182 0 0 0 39.704575
7.4163985 4.9723105 -2.3515244 72 0 0 0 39.704575
8.6457176 4.1070986 2.7889788 59 0 0 0 39.704575
10.288535 6.015244 5.3966393 7 0 0 0 39.704575
10.395638 5.9967136 6.1670327 5 0 0 0 39.704575
3.2114429 3.3909559 -2.0607362 225 0 0 0 39.704575
4.2557797 2.3287482 -2.3670499 242 0 0 0 39.704575
6.3095598 4.9065742 0.6473428 74 0 0 0 39.704575
3.7229638 2.0471032 -2.3445201 133 0 0 0 39.704575
6.2657166 4.9967437 -0.52163458 96 0 0 0 39.704575
4.9981251 4.7138562 0.87204397 437 0 0 0 39.704575
4.9950619 4.6532693 1.5529556 335 0 0 0 39.704575
10.053178 4.5260043 5.0730762 74 0 0 0 39.704575
8.9746199 5.9178753 -1.7327712 45 0 0 0 39.704575
7.0599055 4.4944949 0.30409139 239 0 0 0 39.704575
5.4200206 5.2747798 -0.53234649 144 0 0 0 39.704575
7.0681262 4.4610677 0.71099633 191 0 0 0 39.704575
5.9435549 4.5153379 1.7211695 311 0 0 0 39.704575
3.7285516 3.8775463 -2.0619433 210 0 0 0 39.704575
10.275824 4.4147577 6.5647111 43 0 0 0 39.704575
10.488891 4.2542524 8.2764635 47 0 0 0 39.704575
4.958777 4.7828922 -0.14272784 263 0 0 0 39.704575
8.5254107 4.5560007 -2.531059 68 0 0 0 39.704575
3.964937 4.0208263 -1.5400982 85 0 0 0 39.704575
6.0973296 4.1220689 -2.3252537 101 0 0 0 39.704575
4.0130734 4.0242996 -1.2497889 55 0 0 0 39.704575
6.1844325 5.0653291 -1.7180706 119 0 0 0 39.704575
6.1104455 5.054359 -2.1211052 232 0 0 0 39.704575
4.5662284 3.7035723 -0.95424551 103 0 0 0 39.704575
5.8677139 3.1759391 -2.469243 117 0 0 0 39.704575
4.9834032 4.6149549 1.9010915 432 0 0 0 39.704575
10.483116 5.9541507 6.9745202 8 0 0 0 39.704575
3.9278598 4.0316744 -1.8410112 181 0 0 0 39.704575
7.0306692 4.556673 -0.51000196 209 0 0 0 39.704575
3.2903118 2.8427854 -2.13975 239 0 0 0 39.704575
5.1154284 3.4884324 -2.2954352 155 0 0 0 39.704575
5.1829038 4.3300242 -2.1636882 146 0 0 0 39.704575
3.7896867 2.6280873 -2.2492626 217 0 0 0 39.704575
6.3929033 5.0146179 0.26196676 44 0 0 0 39.704575
5.4088078 5.3117204 -0.9106338 140 0 0 0 39.704575
4.9697161 4.5739899 2.2556739 334 0 0 0 39.704575
5.9361277 4.4387002 2.4918957 250 0 0 0 39.704575
8.4759121 4.4573708 -1.5157316 152 0 0 0 39.704575
8.5373459 4.1168919 2.2642422 153 0 0 0 39.704575
10.366509 4.3368454 7.3788376 38 0 0 0 39.704575
4.9375734 4.4833393 3.3984084 165 0 0 0 39.704575
8.5646105 4.385323 -0.092958786 216 0 0 0 39.704575
8.6162262 4.3651376 0.38064784 190 0 0 0 39.704575
4.4119658 3.7237394 -2.1643002 168 0 0 0 39.704575
4.9606586 4.544673 2.6218524 289 0 0 0 39.704575
7.0944214 4.345964 1.9504319 222 0 0 0 39.704575
7.1041713 4.3061175 2.3788486 168 0 0 0 39.704575
6.2379642 4.9983816 -1.3169608 266 0 0 0 39.796223
5.4812012 5.2229767 -0.16477916 134 0 0 0 39.796223
6.1218228 5.0021973 -2.1192079 208 0 0 0 39.796223
7.1859126 4.3421412 1.9628469 194 0 0 0 39.796223
5.0214057 4.5438566 2.6346822 316 0 0 0 39.796223
7.1588516 4.4578714 0.71214211 263 0 0 0 39.796223
8.6284132 4.3058033 0.37437862 193 0 0 0 39.796223
6.1798706 4.9998031 -1.7128462 284 0 0 0 39.796223
3.9890254 3.9971223 -1.5433942 90 0 0 0 39.796223
5.0365252 4.6071854 1.9063822 419 0 0 0 39.796223
10.388024 5.9079843 6.1322455 5 0 0 0 39.796223
10.20613 3.7668767 9.7849865 21 0 0 0 39.796223
6.3142405 5.0186553 -0.9262715 262 0 0 0 39.796223
6.3434343 4.9547691 -0.13413675 105 0 0 0 39.796223
5.1398177 3.4600804 -2.3011258 152 0 0 0 39.796223
5.9983449 4.4643488 2.1088424 279 0 0 0 39.796223
6.0067778 4.54354 1.3514844 288 0 0 0 39.796223
5.0544353 4.6780214 1.2120682 413 0 0 0 39.796223
9.8596706 4.5356226 3.7374122 87 0 0 0 39.796223
5.0322986 4.723145 0.52892017 454 0 0 0 39.796223
5.004467 4.5074334 3.0146089 251 0 0 0 39.796223
7.5030112 4.9652534 -2.3753695 54 0 0 0 39.796223
8.5671196 4.4011559 -1.0462743 159 0 0 0 39.796223
8.9340906 5.8140779 -1.7241199 38 0 0 0 39.796223
7.1252379 4.4756627 0.30064577 250 0 0 0 39.796223
5.461627 5.2514305 -0.53750217 110 0 0 0 39.796223
5.9982848 4.4995036 1.72442 283 0 0 0 39.796223
3.801445 3.2071354 -2.1527553 244 0 0 0 39.796223
9.9473362 4.4950247 4.3749218 95 0 0 0 39.796223
8.6252613 4.2581282 0.84393799 145 0 0 0 39.796223
10.232225 5.8987389 5.3400226 6 0 0 0 39.796223
6.3574619 5.0073805 -0.53170699 158 0 0 0 39.796223
8.6052341 4.3405747 -0.098866902 174 0 0 0 39.796223
6.3735209 4.8945222 0.64608121 99 0 0 0 39.796223
3.2370646 3.3776221 -2.0673304 257 0 0 0 39.796223
5.0394192 4.6951737 0.87034732 401 0 0 0 39.796223
3.4068005 2.353184 -2.2861884 8 0 0 0 39.796223
7.1843095 4.2951126 2.3913784 187 0 0 0 39.796223
10.266302 4.3369036 6.532845 49 0 0 0 39.796223
3.7553482 3.8591628 -2.0673642 191 0 0 0 39.796223
8.5859833 4.4493251 -1.5368351 180 0 0 0 39.796223
10.979004 3.8630562 11.587735 9 0 0 0 39.796223
7.8040419 4.9917288 -0.57341194 63 0 0 0 39.796223
5.4669781 5.1682897 0.20441812 98 0 0 0 39.796223
7.4468379 5.4536695 3.6024837 14 0 0 0 39.796223
4.0068798 3.9701774 -1.2432804 256 0 0 0 39.796223
7.1708517 4.2399859 2.8262599 184 0 0 0 39.796223
3.8212361 2.6162996 -2.2621734 213 0 0 0 39.796223
4.9766636 2.6711073 -2.4184673 158 0 0 0 39.796223
8.5719252 4.5146179 -2.5429423 53 0 0 0 39.796223
10.488339 4.1799812 8.2455883 26 0 0 0 39.796223
4.3672318 4.4293041 -2.0429082 103 0 0 0 39.796223
7.1092472 3.770124 -2.539906 106 0 0 0 39.796223
8.6530619 4.1082072 2.2819662 123 0 0 0 39.796223
8.5867538 4.3717904 -0.569547 167 0 0 0 39.796223
4.2724056 2.3046036 -2.3721323 263 0 0 0 39.796223
5.0281219 4.5710802 2.2650964 336 0 0 0 39.796223
5.8953462 3.1451623 -2.4774079 106 0 0 0 39.796223
4.4246125 3.6893523 -2.1632221 150 0 0 0 39.796223
10.026724 4.4409513 5.0382609 52 0 0 0 39.796223
7.8136797 5.0397215 -1.0345907 48 0 0 0 39.796223
10.595078 4.0735388 9.205287 18 0 0 0 39.796223
7.1135802 4.5105643 -0.10798181 143 0 0 0 39.796223
8.6287203 4.1534276 1.7932798 169 0 0 0 39.796223
10.351072 4.2566175 7.3398685 45 0 0 0 39.796223
6.0076036 4.5779467 0.98130721 356 0 0 0 39.796223
3.7332065 2.0236464 -2.3465269 96 0 0 0 39.796223
4.3919907 2.9815814 -2.2748008 180 0 0 0 39.796223
10.145477 4.3956451 5.7604098 59 0 0 0 39.796223
5.0441403 4.6417418 1.5552981 391 0 0 0 39.796223
2.8072402 2.9753404 -2.0564549 212 0 0 0 39.796223
3.3076191 2.8235509 -2.1430616 222 0 0 0 39.796223
5.2312584 4.3175006 -2.1774211 122 0 0 0 39.796223
6.3948545 4.9538188 0.25640282 81 0 0 0 39.796223
5.4531794 5.2911253 -0.91697842 118 0 0 0 39.796223
6.125617 4.0877891 -2.3313391 71 0 0 0 39.796223
6.0116405 4.4381156 2.5071919 241 0 0 0 39.796223
8.6406698 4.0405335 2.7733529 81 0 0 0 39.796223
8.927515 5.8596148 -2.2694526 35 0 0 0 39.796223
7.143084 4.4040341 1.1190053 264 0 0 0 39.796223
8.5991116 4.1951566 1.3127762 137 0 0 0 39.796223
8.5722494 4.4815607 -2.0315578 140 0 0 0 39.796223
7.1455393 4.364543 1.5328463 249 0 0 0 39.796223
4.979177 4.4653392 3.4033062 144 0 0 0 39.796223
5.9219742 3.1137128 -2.4852798 121 0 0 0 39.899902
7.1363997 3.7295995 -2.5468459 72 0 0 0 39.899902
3.2562766 3.3575366 -2.0698757 246 0 0 0 39.899902
5.0280619 4.4536233 3.4130535 118 0 0 0 39.899902
6.1608372 4.0580201 -2.3402677 87 0 0 0 39.899902
5.2641554 4.2919183 -2.1847167 105 0 0 0 39.899902
6.4200816 4.9114556 0.25158882 96 0 0 0 39.899902
10.635009 5.7746363 7.8155394 9 0 0 0 39.899902
6.0812054 4.4324098 2.5198293 227 0 0 0 39.899902
10.126105 4.314517 5.7261829 61 0 0 0 39.899902
10.47574 5.781867 6.9034643 6 0 0 0 39.899902
5.0558796 4.4977741 3.0241892 262 0 0 0 39.899902
5.5680614 5.1626387 0.57405072 140 0 0 0 39.899902
8.694025 4.4002595 -1.0648618 166 0 0 0 39.899902
9.8364372 4.452858 3.7112172 86 0 0 0 39.899902
5.1073303 4.6695666 1.2137709 384 0 0 0 39.899902
6.0791011 4.540431 1.35676 328 0 0 0 39.899902
6.4024973 4.9388785 -0.13957547 210 0 0 0 39.899902
6.068687 4.4948697 1.7319453 308 0 0 0 39.899902
10.234912 3.707423 9.7791243 18 0 0 0 39.899902
8.7478065 4.0884819 2.2940342 123 0 0 0 39.899902
5.5409904 5.2164087 -0.17005044 128 0 0 0 39.899902
4.4162741 2.9595799 -2.2819164 174 0 0 0 39.899902
5.0767469 4.558836 2.2700226 287 0 0 0 39.899902
7.2098584 4.4292612 0.70939267 224 0 0 0 39.899902
8.6948547 4.273479 0.37016866 206 0 0 0 39.899902
5.069768 4.5313768 2.6409249 298 0 0 0 39.899902
8.8218756 4.0604291 2.8167486 39 0 0 0 39.899902
10.987867 3.7918675 11.558916 14 0 0 0 39.899902
8.6662245 4.3465333 -0.57911372 156 0 0 0 39.899902
7.2896647 4.2506728 2.8569157 201 0 0 0 39.899902
5.0221291 2.6567643 -2.437047 153 0 0 0 39.899902
5.272378 5.2198172 -2.0459955 148 0 0 0 39.899902
8.6790705 4.5044804 -2.5732725 67 0 0 0 39.899902
4.4521174 3.6674013 -2.1697257 162 0 0 0 39.899902
10.024539 4.3674717 5.0159106 66 0 0 0 39.899902
5.5406384 5.1747417 0.20149088 127 0 0 0 39.899902
7.8928161 4.9816165 -0.58351964 41 0 0 0 39.899902
3.8379452 2.5941584 -2.2662194 254 0 0 0 39.899902
4.3070383 2.2900102 -2.3875229 208 0 0 0 39.899902
7.915987 4.9530673 -0.12928717 45 0 0 0 39.899902
7.643579 5.4791336 4.2098217 21 0 0 0 39.899902
5.0832624 4.5932035 1.9091716 362 0 0 0 39.899902
5.513936 5.2859907 -0.92633104 100 0 0 0 39.899902
5.0888929 4.6259222 1.5562259 470 0 0 0 39.899902
6.1747236 4.934526 -1.7076608 293 0 0 0 39.899902
7.2533216 4.3229866 1.9686171 199 0 0 0 39.899902
8.6883125 4.4360805 -1.5566639 167 0 0 0 39.899902
7.2185946 4.4736485 0.29809028 47 0 0 0 39.899902
6.3448277 4.9356375 -0.53252047 322 0 0 0 39.899902
10.566479 3.9893332 9.1481972 19 0 0 0 39.899902
10.337278 4.1779032 7.3025393 45 0 0 0 39.899902
8.9344635 5.7874737 -2.2687192 43 0 0 0 39.899902
7.2578053 4.3729215 1.5456556 170 0 0 0 39.899902
8.7028847 4.3240681 -0.10579954 160 0 0 0 39.899902
2.8301742 2.964293 -2.0632498 212 0 0 0 39.899902
6.0896435 4.5823145 0.98537141 306 0 0 0 39.899902
6.059031 4.4524064 2.1157389 279 0 0 0 39.899902
8.730216 4.1374006 1.8028771 130 0 0 0 39.899902
4.4202518 4.4298725 -2.0593829 161 0 0 0 39.899902
6.304141 4.9488959 -0.92479646 338 0 0 0 39.899902
9.9250135 4.4126496 4.3458414 96 0 0 0 39.899902
5.1710372 3.4362054 -2.3100729 123 0 0 0 39.899902
7.8769488 5.0134945 -1.0446728 49 0 0 0 39.899902
6.1147656 4.9355364 -2.1110265 214 0 0 0 39.899902
10.47589 4.1016917 8.2058725 30 0 0 0 39.899902
3.721812 1.988577 -2.3348017 61 0 0 0 39.899902
6.2364321 4.9357967 -1.3148122 335 0 0 0 39.899902
3.7807291 3.8392484 -2.0721333 206 0 0 0 39.899902
7.2753277 4.2897654 2.4072878 192 0 0 0 39.899902
8.9166803 5.7264867 -1.7202156 43 0 0 0 39.899902
10.238582 4.2522349 6.4898872 44 0 0 0 39.899902
5.5139565 5.2380939 -0.54391909 135 0 0 0 39.899902
3.8322062 3.1941638 -2.1628664 243 0 0 0 39.899902
8.6727743 4.4677539 -2.055402 142 0 0 0 39.899902
8.7041903 4.2318039 0.84310037 170 0 0 0 39.899902
6.4430933 4.8861527 0.64521027 87 0 0 0 39.899902
10.360198 5.8088684 6.0860643 5 0 0 0 39.899902
5.1113205 4.7044497 0.87357908 323 0 0 0 39.899902
3.4067497 2.3231938 -2.2797608 13 0 0 0 39.899902
7.2337537 4.3996716 1.1236274 208 0 0 0 39.899902
3.3220716 2.8018804 -2.1446254 251 0 0 0 39.899902
8.6858015 4.1725774 1.3160282 142 0 0 0 39.899902
10.273089 5.8392348 5.3342447 8 0 0 0 39.899902
6.4031477 4.6293387 3.0826395 45 0 0 0 39.899902
7.5824857 4.9525609 -2.3970368 72 0 0 0 39.899902
6.3068075 4.8897567 -0.92521596 313 0 0 0 39.990528
8.8802757 4.0221672 2.8211949 43 0 0 0 39.990528
5.199831 3.4105372 -2.3179073 159 0 0 0 39.990528
6.2230525 4.0456152 -2.3596132 93 0 0 0 39.990528
10.25714 5.747591 5.2995172 7 0 0 0 39.990528
7.9984965 4.8906732 0.31986406 41 0 0 0 39.990528
8.8101053 4.2175274 0.84475112 132 0 0 0 39.990528
6.1049161 4.8673372 -2.1019077 218 0 0 0 39.990528
5.4826002 4.9847541 0.92539757 95 0 0 0 39.990528
7.3749142 4.2882242 2.4258916 151 0 0 0 39.990528
3.8478527 2.5674441 -2.266196 256 0 0 0 39.990528
8.813777 4.16854 1.3253208 124 0 0 0 39.990528
7.9486237 4.9919271 -1.055869 40 0 0 0 39.990528
5.1247373 4.5454636 2.2746899 283 0 0 0 39.990528
8.7954683 4.385057 -1.0802191 163 0 0 0 39.990528
5.1094656 4.4893799 3.0350294 244 0 0 0 39.990528
5.2977014 4.2666879 -2.1922576 117 0 0 0 39.990528
3.2798562 3.3419027 -2.0752485 242 0 0 0 39.990528
6.1481018 4.5680342 0.98574352 330 0 0 0 39.990528
5.1072931 4.4678392 3.443085 56 0 0 0 39.990528
8.7987232 4.4657054 -2.0853746 135 0 0 0 39.990528
6.5232091 4.8848314 0.6453411 118 0 0 0 39.990528
2.8555653 2.955646 -2.0718327 237 0 0 0 39.990528
3.734015 1.9663625 -2.3382609 48 0 0 0 39.990528
5.1574202 4.6579404 1.2148514 463 0 0 0 39.990528
4.3186965 2.2630043 -2.3899386 202 0 0 0 39.990528
3.3884482 2.2811282 -2.2609751 39 0 0 0 39.990528
7.9797873 4.9260316 -0.1354329 40 0 0 0 39.990528
5.0505576 2.6330476 -2.4471979 167 0 0 0 39.990528
10.376772 5.735116 6.0664067 5 0 0 0 39.990528
7.1751862 3.6949852 -2.5580199 89 0 0 0 39.990528
6.4669662 4.6154609 3.0943425 56 0 0 0 39.990528
4.4969106 3.6593993 -2.184788 169 0 0 0 39.990528
8.8185072 4.1139541 1.8097546 150 0 0 0 39.990528
7.9648476 4.960001 -0.59227538 46 0 0 0 39.990528
6.396431 4.872714 -0.14311904 315 0 0 0 39.990528
5.1408496 4.5883856 1.9159745 422 0 0 0 39.990528
6.466598 4.8851881 0.24757279 247 0 0 0 39.990528
6.2351918 4.8739991 -1.3126974 331 0 0 0 39.990528
8.7854137 4.2989883 -0.11248744 200 0 0 0 39.990528
8.2890739 5.2983236 -2.0993717 29 0 0 0 39.990528
7.3281751 4.3548546 1.5496668 205 0 0 0 39.990528
6.3482065 4.8769579 -0.53468472 352 0 0 0 39.990528
6.1432347 4.4567933 2.1306698 258 0 0 0 39.990528
7.3359241 4.311985 1.9784261 203 0 0 0 39.990528
7.6369514 4.9228358 -2.4106009 65 0 0 0 39.990528
9.8143015 4.3711634 3.6858168 93 0 0 0 39.990528
4.4389429 2.9363854 -2.2881846 187 0 0 0 39.990528
5.6326551 5.159246 0.57307231 106 0 0 0 39.990528
8.856823 4.0741787 2.3097291 132 0 0 0 39.990528
6.1405478 4.5283566 1.3596566 327 0 0 0 39.990528
5.9509444 3.0833457 -2.4941683 109 0 0 0 39.990528
10.093835 4.2284389 5.6852078 65 0 0 0 39.990528
11.014428 3.7265708 11.549197 14 0 0 0 39.990528
10.026861 4.2961621 4.9961681 66 0 0 0 39.990528
6.1514401 4.8555646 -1.69735 302 0 0 0 39.990528
4.4505572 4.407289 -2.0649643 176 0 0 0 39.990528
10.223358 3.6332583 9.7353106 21 0 0 0 39.990528
5.6271067 5.191967 0.1989522 115 0 0 0 39.990528
6.1274824 4.4808331 1.7362055 302 0 0 0 39.990528
8.7975826 4.4989042 -2.6069946 85 0 0 0 39.990528
10.620784 5.6830401 7.7695065 7 0 0 0 39.990528
6.1332426 4.4131794 2.5252733 206 0 0 0 39.990528
8.7976007 4.3460894 -0.59239119 175 0 0 0 39.990528
10.47117 4.0266666 8.1727495 35 0 0 0 39.990528
8.769659 4.4110546 -1.5726198 150 0 0 0 39.990528
5.1182041 4.5183949 2.6472197 304 0 0 0 39.990528
7.3195686 4.3912344 1.1274799 188 0 0 0 39.990528
3.3336625 2.7778635 -2.1443326 190 0 0 0 39.990528
10.308111 4.0934072 7.2549653 46 0 0 0 39.990528
9.9156828 4.3365149 4.3228116 82 0 0 0 39.990528
5.3323307 5.2163277 -2.0616574 148 0 0 0 39.990528
5.1394897 4.6148829 1.5589397 408 0 0 0 39.990528
7.3777003 4.2420049 2.8754694 94 0 0 0 39.990528
10.415418 5.6657429 6.8317366 9 0 0 0 39.990528
10.564938 3.9156539 9.115118 21 0 0 0 39.990528
5.5765376 5.2338319 -0.55135167 112 0 0 0 39.990528
3.8439174 3.1652448 -2.1619923 257 0 0 0 39.990528
5.6009355 5.2092667 -0.17527002 130 0 0 0 39.990528
3.8106315 3.823787 -2.0794015 215 0 0 0 39.990528
7.3110981 4.4306364 0.71134466 236 0 0 0 39.990528
8.8927612 5.6355867 -1.7149832 45 0 0 0 39.990528
8.7972231 4.2578769 0.36734056 158 0 0 0 39.990528
10.210999 4.168179 6.4475832 47 0 0 0 39.990528
5.574141 5.2796016 -0.93550605 95 0 0 0 39.990528
6.1932712 4.5094137 1.3605301 309 0 0 0 40.096001
4.490201 4.3937564 -2.0751302 138 0 0 0 40.096001
8.9059124 4.3732123 -1.0968958 162 0 0 0 40.096001
6.2007141 4.4046073 2.5368507 266 0 0 0 40.096001
9.8035994 4.2954025 3.6649082 92 0 0 0 40.096001
7.6929188 4.8936634 -2.4248238 76 0 0 0 40.096001
9.914258 4.2645278 4.3034387 95 0 0 0 40.096001
9.0147409 4.0809731 2.3377302 138 0 0 0 40.096001
10.09447 4.1570277 5.6630507 45 0 0 0 40.096001
6.2500892 4.0099621 -2.3655143 74 0 0 0 40.096001
5.6460109 5.2835388 -0.94687182 129 0 0 0 40.096001
2.6039264 2.7099142 -2.1426318 11 0 0 0 40.096001
5.1548038 4.4734392 3.0408854 232 0 0 0 40.096001
6.2097697 4.5556426 0.98646468 321 0 0 0 40.096001
7.4359212 4.3581262 1.5612155 210 0 0 0 40.096001
8.2677488 5.2147756 -2.0917194 54 0 0 0 40.096001
6.4488935 4.8107657 0.241394 283 0 0 0 40.096001
5.3318443 4.2417827 -2.2002168 115 0 0 0 40.096001
6.3574247 4.8232822 -0.53749371 372 0 0 0 40.096001
5.6862688 5.1452847 0.57088405 102 0 0 0 40.096001
8.9147387 4.2957416 -0.12015524 160 0 0 0 40.096001
7.4169397 4.2992845 1.9876279 235 0 0 0 40.096001
3.8424368 3.8100421 -2.0878694 175 0 0 0 40.096001
5.5183349 4.9563475 0.92207575 104 0 0 0 40.096001
8.0794468 4.8732772 0.316109 64 0 0 0 40.096001
8.8742161 4.4369092 -2.1033058 147 0 0 0 40.096001
6.5249314 4.8246722 0.63803899 265 0 0 0 40.096001
8.9425535 4.106164 1.8236417 141 0 0 0 40.096001
8.9204292 4.1531625 1.3312639 155 0 0 0 40.096001
5.1760893 4.5633655 1.9144685 409 0 0 0 40.096001
3.3755703 2.2432072 -2.2461319 65 0 0 0 40.096001
7.4336739 4.3986979 1.1353385 237 0 0 0 40.096001
2.8796878 2.9454939 -2.0795791 217 0 0 0 40.096001
8.911953 4.415504 -1.5999621 132 0 0 0 40.096001
9.3426247 5.2311215 4.1993856 19 0 0 0 40.096001
3.309118 3.3318896 -2.0844235 232 0 0 0 40.096001
6.1697402 4.8100982 -1.6990218 292 0 0 0 40.096001
5.2126651 4.6505499 1.216964 477 0 0 0 40.096001
11.083673 3.6758416 11.584453 12 0 0 0 40.096001
6.4041357 4.8176761 -0.14713255 344 0 0 0 40.096001
6.1994748 4.4402304 2.1358452 227 0 0 0 40.096001
10.355961 5.641572 6.0253549 7 0 0 0 40.096001
10.544501 3.8358009 9.0663242 26 0 0 0 40.096001
9.9925528 4.2099814 4.95858 74 0 0 0 40.096001
8.9041233 4.3320246 -0.60407609 160 0 0 0 40.096001
5.0658369 2.6023417 -2.4509928 166 0 0 0 40.096001
7.6374617 4.3299551 2.9597189 28 0 0 0 40.096001
6.2123971 4.4852047 1.7475363 320 0 0 0 40.096001
8.9240313 4.252903 0.36523286 158 0 0 0 40.096001
6.5086932 4.5855365 3.0954735 54 0 0 0 40.096001
4.5213752 3.6345847 -2.1898968 166 0 0 0 40.096001
10.190692 4.0880842 6.4103074 50 0 0 0 40.096001
9.7357063 4.3394375 3.0749927 92 0 0 0 40.096001
5.649457 5.2385225 -0.56003672 100 0 0 0 40.096001
10.290678 4.0145659 7.216126 35 0 0 0 40.096001
8.347209 5.2192082 -1.6069201 50 0 0 0 40.096001
10.458657 5.6070008 6.8281665 6 0 0 0 40.096001
7.453846 4.273788 2.4375658 189 0 0 0 40.096001
8.0464411 4.9859405 -1.0708377 41 0 0 0 40.096001
8.9296484 4.2086048 0.84745038 128 0 0 0 40.096001
3.8116672 1.9782494 -2.3836224 16 0 0 0 40.096001
10.450685 3.9464214 8.1278572 33 0 0 0 40.096001
5.1944828 4.6073751 1.5628082 466 0 0 0 40.096001
5.2316132 3.3866589 -2.3272474 146 0 0 0 40.096001
3.8688698 3.1472394 -2.1688898 245 0 0 0 40.096001
8.8576574 4.4624548 -2.6232708 123 0 0 0 40.096001
5.69842 5.1942453 0.19578205 90 0 0 0 40.096001
7.3980379 4.422328 0.71177483 232 0 0 0 40.096001
6.2837377 4.8114786 -0.92184031 314 0 0 0 40.096001
10.223835 3.564132 9.7034855 25 0 0 0 40.096001
4.465302 2.9155049 -2.2965319 191 0 0 0 40.096001
5.1736693 4.5112467 2.6569588 312 0 0 0 40.096001
6.1247373 4.8233047 -2.1034603 247 0 0 0 40.096001
5.6653666 5.2056885 -0.18082148 97 0 0 0 40.096001
3.8493586 2.5352566 -2.2612946 279 0 0 0 40.096001
3.3657329 2.7708058 -2.1576304 196 0 0 0 40.096001
10.23636 5.654367 5.2627044 6 0 0 0 40.096001
6.2201428 4.8021746 -1.3077673 299 0 0 0 40.096001
5.9739156 3.0497389 -2.5006461 119 0 0 0 40.096001
4.3301754 2.2359126 -2.392395 194 0 0 0 40.096001
5.3743925 5.1949019 -2.0704052 159 0 0 0 40.096001
5.1905875 4.5474377 2.2869973 326 0 0 0 40.096001
8.0511875 4.903152 -0.14189644 39 0 0 0 40.096001
7.2188735 3.6626141 -2.5711312 64 0 0 0 40.096001
8.0581055 4.9508119 -0.60288244 49 0 0 0 40.096001
9.9046326 4.1892872 4.2808747 100 0 0 0 40.187904
9.7397509 4.2705569 3.061295 100 0 0 0 40.187904
6.2534194 4.421392 2.1402674 226 0 0 0 40.187904
8.8536558 4.3936024 -2.6202531 93 0 0 0 40.187904
10.230193 3.4970355 9.6777544 18 0 0 0 40.187904
6.2707472 4.5420222 0.98710233 328 0 0 0 40.187904
3.3959513 1.7450879 -2.3839908 3 0 0 0 40.187904
5.6875706 5.2584906 -0.95285314 114 0 0 0 40.187904
8.118351 4.8769479 -0.14822568 40 0 0 0 40.187904
7.4928813 4.3305798 1.5622931 204 0 0 0 40.187904
4.5257826 4.3759537 -2.083312 144 0 0 0 40.187904
8.2789373 5.1523213 -2.0924494 60 0 0 0 40.187904
6.2691312 4.395834 2.5487678 240 0 0 0 40.187904
9.0131426 4.2286139 0.36169949 167 0 0 0 40.187904
10.193108 4.0173836 6.3877368 61 0 0 0 40.187904
5.5480208 4.922359 0.91789389 144 0 0 0 40.187904
9.7940922 4.22053 3.6447744 96 0 0 0 40.187904
5.4185114 5.1751432 -2.07989 144 0 0 0 40.187904
5.7399588 5.1308074 0.56875986 115 0 0 0 40.187904
5.7285151 5.2001328 -0.18626596 106 0 0 0 40.187904
4.5398865 3.6049678 -2.1920609 138 0 0 0 40.187904
3.8753591 2.5192666 -2.2711167 222 0 0 0 40.187904
10.508792 3.7508223 9.0051222 34 0 0 0 40.187904
6.2684283 4.5060334 1.3662187 318 0 0 0 40.187904
6.2837458 4.7515965 -0.92193633 280 0 0 0 40.187904
5.747714 5.1757321 0.19205061 107 0 0 0 40.187904
6.2777705 4.4744706 1.7534224 303 0 0 0 40.187904
2.896934 2.928226 -2.0822299 266 0 0 0 40.187904
10.447812 3.8730872 8.0971842 26 0 0 0 40.187904
3.9058681 3.1387901 -2.1826456 194 0 0 0 40.187904
4.4885116 2.8924305 -2.3032262 184 0 0 0 40.187904
6.2148142 4.785418 -1.7082125 341 0 0 0 40.187904
5.2633157 3.362519 -2.3365393 128 0 0 0 40.187904
6.5556965 4.558898 3.0991859 58 0 0 0 40.187904
7.4964218 4.2846999 1.996394 185 0 0 0 40.187904
9.0632877 4.0953002 1.8367642 122 0 0 0 40.187904
10.235678 5.5727701 5.2366877 14 0 0 0 40.187904
5.2731128 4.5918536 1.9353739 316 0 0 0 40.187904
5.2665133 4.6141005 1.5716627 410 0 0 0 40.187904
5.995883 3.0155427 -2.506717 123 0 0 0 40.187904
8.112421 4.8263664 0.31074911 44 0 0 0 40.187904
6.356688 4.7624555 -0.53931063 322 0 0 0 40.187904
8.9730854 4.3784728 -1.6123455 179 0 0 0 40.187904
5.716053 5.2364235 -0.5679816 119 0 0 0 40.187904
7.7529244 4.8665404 -2.4403002 63 0 0 0 40.187904
3.3300054 3.3133078 -2.0881727 247 0 0 0 40.187904
7.2360806 3.6166224 -2.5746543 86 0 0 0 40.187904
6.53264 4.7693114 0.63145608 305 0 0 0 40.187904
9.0162182 4.319356 -0.61617601 146 0 0 0 40.187904
9.9760628 4.1318645 4.9302502 68 0 0 0 40.187904
10.302399 3.9472725 7.1981368 44 0 0 0 40.187904
11.152097 3.6239021 11.619021 10 0 0 0 40.187904
9.1473322 4.0743904 2.3590682 131 0 0 0 40.187904
9.0196142 4.1844411 0.84741807 141 0 0 0 40.187904
6.2737374 3.9720857 -2.3701069 96 0 0 0 40.187904
4.349463 2.212842 -2.3992872 215 0 0 0 40.187904
8.1453476 4.9794207 -1.0859219 45 0 0 0 40.187904
6.3978043 4.7525373 -0.15062122 350 0 0 0 40.187904
8.1387768 4.9328551 -0.61245823 42 0 0 0 40.187904
9.0067158 4.3553691 -1.1123419 135 0 0 0 40.187904
4.0564895 3.8308828 -1.2421187 17 0 0 0 40.187904
7.4993553 4.3763394 1.1359839 197 0 0 0 40.187904
5.2430367 4.5368876 2.2934387 310 0 0 0 40.187904
10.378852 5.4828353 6.7451997 4 0 0 0 40.187904
6.2021041 4.8241963 -2.1251304 233 0 0 0 40.187904
5.2717485 4.6458573 1.2199575 459 0 0 0 40.187904
5.0711522 2.5665753 -2.4499135 185 0 0 0 40.187904
10.091326 4.0842352 5.6391745 63 0 0 0 40.187904
9.4931393 5.2397094 4.2449665 19 0 0 0 40.187904
5.2321138 4.5059433 2.6681712 320 0 0 0 40.187904
2.5968049 2.6707702 -2.125978 18 0 0 0 40.187904
9.0687046 4.155582 1.3431702 136 0 0 0 40.187904
7.4731607 4.405962 0.71111959 214 0 0 0 40.187904
5.2245026 4.4778543 3.0609171 159 0 0 0 40.187904
9.0082493 4.2738452 -0.12721795 158 0 0 0 40.187904
7.5119643 4.2465949 2.4425194 181 0 0 0 40.187904
6.4514847 4.7520995 0.23602003 335 0 0 0 40.187904
8.918149 4.3917565 -2.1135883 180 0 0 0 40.187904
8.3492346 5.150629 -1.6069808 53 0 0 0 40.187904
6.2468109 4.7629666 -1.3118521 319 0 0 0 40.187904
5.359189 4.2113333 -2.2052877 120 0 0 0 40.187904
3.3994668 2.2299368 -2.2563465 67 0 0 0 40.187904
7.6353912 4.2675247 2.9432173 44 0 0 0 40.187904
3.3964651 2.7623432 -2.1699955 160 0 0 0 40.187904
3.8709159 3.792803 -2.0944428 158 0 0 0 40.187904
5.3893375 4.1830239 -2.2116885 115 0 0 0 40.291073
5.5677495 4.8797398 0.91209829 141 0 0 0 40.291073
8.2821617 5.0853281 -2.0913022 63 0 0 0 40.291073
6.451952 4.6924477 0.23055747 316 0 0 0 40.291073
5.7407174 5.2438478 -0.9609859 95 0 0 0 40.291073
7.5882435 4.3245473 1.5710722 178 0 0 0 40.291073
6.3043919 3.9385972 -2.3775494 85 0 0 0 40.291073
4.1016836 3.7847204 -0.95901483 56 0 0 0 40.291073
9.089653 4.2871966 -0.62561303 162 0 0 0 40.291073
10.277515 3.8665929 7.155066 60 0 0 0 40.291073
6.3414435 4.5348225 0.98907787 330 0 0 0 40.291073
10.604799 5.4272909 7.6542811 8 0 0 0 40.291073
7.5683308 4.2650928 2.0030329 175 0 0 0 40.291073
5.604682 4.7441621 3.2596674 78 0 0 0 40.291073
7.675169 4.2287579 2.9427843 107 0 0 0 40.291073
8.9161301 4.3240342 -2.1129057 115 0 0 0 40.291073
10.867335 5.2199979 10.635948 8 0 0 0 40.291073
8.1864605 4.8035936 0.30667835 36 0 0 0 40.291073
3.3882937 2.1936903 -2.242929 111 0 0 0 40.291073
5.3157744 4.5722346 1.9364321 322 0 0 0 40.291073
9.8651533 5.367197 4.388031 5 0 0 0 40.291073
6.3538175 4.7006578 -0.54101712 300 0 0 0 40.291073
4.075335 3.8026843 -1.2440765 90 0 0 0 40.291073
6.2552066 4.8055177 -2.1384184 207 0 0 0 40.291073
10.155462 5.4492207 5.1706972 8 0 0 0 40.291073
4.5154481 2.8716183 -2.3119903 165 0 0 0 40.291073
5.089314 2.5373755 -2.4552987 186 0 0 0 40.291073
8.225872 4.8741307 -0.15562952 38 0 0 0 40.291073
5.7880449 5.1906981 -0.19169964 88 0 0 0 40.291073
8.237464 4.9248977 -0.62362468 44 0 0 0 40.291073
5.7947145 5.15486 0.18814492 104 0 0 0 40.291073
5.2892346 4.4989834 2.6785488 300 0 0 0 40.291073
3.4216354 2.7491081 -2.1788111 209 0 0 0 40.291073
5.2814698 3.3296194 -2.339834 146 0 0 0 40.291073
3.9214234 3.1129334 -2.184274 214 0 0 0 40.291073
9.1131411 4.2085023 0.35841206 138 0 0 0 40.291073
6.0176401 2.9811754 -2.5128357 101 0 0 0 40.291073
7.27004 3.5789676 -2.584393 70 0 0 0 40.291073
4.3742065 2.1924071 -2.4093587 217 0 0 0 40.291073
4.570189 4.3663678 -2.0957561 146 0 0 0 40.291073
9.975791 4.061141 4.9101844 85 0 0 0 40.291073
8.8612719 4.3309097 -2.6209071 132 0 0 0 40.291073
5.2868443 4.5185442 2.2960489 300 0 0 0 40.291073
3.9035439 2.5044775 -2.2823398 264 0 0 0 40.291073
10.445611 5.4370275 6.7576027 6 0 0 0 40.291073
9.1540642 4.1278734 1.3457878 156 0 0 0 40.291073
6.5918064 4.5245724 3.0977821 62 0 0 0 40.291073
6.2983894 4.7425966 -1.3214643 332 0 0 0 40.291073
5.7724423 5.2243676 -0.57496756 98 0 0 0 40.291073
10.392594 3.7812963 8.0266371 52 0 0 0 40.291073
6.3310518 4.4187121 2.1525314 289 0 0 0 40.291073
9.7150154 4.1897044 3.0388172 106 0 0 0 40.291073
3.9066546 3.7824502 -2.1051388 205 0 0 0 40.291073
4.570662 3.5850327 -2.2004118 155 0 0 0 40.291073
9.1081266 4.253993 -0.13454647 131 0 0 0 40.291073
6.3094759 4.7115164 -0.9260903 310 0 0 0 40.291073
9.1431236 4.1747599 0.85023928 126 0 0 0 40.291073
7.5916572 4.368773 1.140397 199 0 0 0 40.291073
7.5827923 4.4089746 0.71341705 250 0 0 0 40.291073
6.3296447 4.453639 1.7554873 261 0 0 0 40.291073
5.3225384 4.6061354 1.5756619 407 0 0 0 40.291073
8.2384758 4.9683156 -1.100353 39 0 0 0 40.291073
6.5148039 4.6960053 0.62256622 357 0 0 0 40.291073
7.8185863 4.8424215 -2.4577315 58 0 0 0 40.291073
9.1671219 4.0756207 1.8463272 166 0 0 0 40.291073
5.327961 4.6380916 1.222162 383 0 0 0 40.291073
10.509828 3.6798131 8.975914 26 0 0 0 40.291073
8.9967327 4.3229094 -1.6179497 158 0 0 0 40.291073
3.3540187 3.2977602 -2.0940533 249 0 0 0 40.291073
2.5996144 2.6422517 -2.1179113 29 0 0 0 40.291073
6.2675495 4.7662783 -1.7196904 308 0 0 0 40.291073
11.243997 3.5791736 11.678096 10 0 0 0 40.291073
10.238153 3.4309702 9.654007 17 0 0 0 40.291073
10.179647 3.9410563 6.3556156 37 0 0 0 40.291073
9.7787485 4.1438441 3.6227107 76 0 0 0 40.291073
6.391696 4.6882825 -0.15416177 302 0 0 0 40.291073
6.3421373 4.5008388 1.3714279 300 0 0 0 40.291073
9.0869694 4.3266559 -1.125301 202 0 0 0 40.291073
2.9172065 2.9139676 -2.0872309 217 0 0 0 40.291073
7.5960746 4.2335067 2.4556971 176 0 0 0 40.291073
8.3667135 5.0919871 -1.61024 90 0 0 0 40.291073
9.2239685 4.041801 2.3659813 94 0 0 0 40.291073
5.8026218 5.1238399 0.56733549 103 0 0 0 40.291073
9.8909636 4.1130371 4.2568359 87 0 0 0 40.291073
5.4709506 5.1629491 -2.0927653 158 0 0 0 40.291073
10.08347 4.0101662 5.612998 53 0 0 0 40.291073
6.3431149 4.3902793 2.5627406 272 0 0 0 40.291073
8.3246651 4.997736 -1.6017238 50 0 0 0 40.383232
3.9526348 3.0994139 -2.1948142 160 0 0 0 40.383232
2.6156058 2.627269 -2.1208916 34 0 0 0 40.383232
6.3320022 4.7554469 -1.7344147 251 0 0 0 40.383232
3.9241552 2.4846547 -2.2890513 248 0 0 0 40.383232
6.3661275 4.6942501 -0.93494183 274 0 0 0 40.383232
7.6972251 4.2287612 2.4742253 146 0 0 0 40.383232
10.244971 3.36449 9.6296701 11 0 0 0 40.383232
8.9959955 4.2557769 -1.619041 131 0 0 0 40.383232
6.6184921 4.4836035 3.0921428 43 0 0 0 40.383232
10.170478 3.8667181 6.3266163 43 0 0 0 40.383232
5.8385844 5.2204256 -0.58294177 133 0 0 0 40.383232
6.3229132 4.7974291 -2.1567447 204 0 0 0 40.383232
9.2961054 4.0064116 2.3717659 124 0 0 0 40.383232
4.5353384 2.8462033 -2.3170903 194 0 0 0 40.383232
6.4090705 4.5245876 0.99057859 295 0 0 0 40.383232
9.7029438 4.1148362 3.0205679 105 0 0 0 40.383232
9.1585236 4.2521486 -0.63471204 219 0 0 0 40.383232
10.287251 5.3624811 5.9020033 7 0 0 0 40.383232
6.4240098 4.4255834 2.1698177 224 0 0 0 40.383232
6.3594589 4.7288094 -1.3330879 303 0 0 0 40.383232
5.3902884 4.6349072 1.2257192 358 0 0 0 40.383232
9.2423334 4.1526198 0.85083061 154 0 0 0 40.383232
7.7139492 4.1891208 2.9420848 134 0 0 0 40.383232
4.6256819 4.3667989 -2.1133029 78 0 0 0 40.383232
6.4015193 4.4846768 1.3735986 279 0 0 0 40.383232
3.9323468 3.762166 -2.1102731 194 0 0 0 40.383232
10.451977 5.3595276 6.7313752 4 0 0 0 40.383232
4.1385422 3.772882 -0.9655903 82 0 0 0 40.383232
5.3443551 4.489625 2.6878843 297 0 0 0 40.383232
9.2171946 4.2372103 -0.14208098 210 0 0 0 40.383232
7.6565685 4.3445034 1.1407967 179 0 0 0 40.383232
3.3753717 3.2795141 -2.0982323 228 0 0 0 40.383232
10.41367 3.7176743 8.015419 35 0 0 0 40.383232
7.6685519 4.3968649 0.71352816 189 0 0 0 40.383232
5.3801789 4.5988741 1.5801176 392 0 0 0 40.383232
6.4117885 4.6435924 -0.15840007 331 0 0 0 40.383232
10.274827 3.7946167 7.1279035 36 0 0 0 40.383232
8.305336 4.9404721 -1.1111263 41 0 0 0 40.383232
6.506906 4.6305571 0.61475468 325 0 0 0 40.383232
5.8567262 5.1467638 0.184672 103 0 0 0 40.383232
10.500792 3.6054232 8.9386568 22 0 0 0 40.383232
7.3046803 3.5414367 -2.5944014 72 0 0 0 40.383232
9.3161554 4.0745006 1.8647232 121 0 0 0 40.383232
7.6640987 4.3063445 1.5758488 205 0 0 0 40.383232
6.037539 2.9458294 -2.5181999 123 0 0 0 40.383232
10.217797 5.4027281 5.1773982 5 0 0 0 40.383232
6.4149489 4.3823085 2.5757811 208 0 0 0 40.383232
9.7931108 5.2508979 4.3344984 4 0 0 0 40.383232
9.9809504 3.9928014 4.8931055 64 0 0 0 40.383232
7.6582112 4.2546525 2.0143135 175 0 0 0 40.383232
2.9431164 2.9051926 -2.0963345 222 0 0 0 40.383232
6.39676 4.4428616 1.7617064 275 0 0 0 40.383232
9.2278032 4.1938968 0.35559911 156 0 0 0 40.383232
5.6365299 4.7119436 3.2564116 56 0 0 0 40.383232
7.8628573 4.8045726 -2.4683013 64 0 0 0 40.383232
5.8447065 5.1780448 -0.1969758 109 0 0 0 40.383232
10.065149 3.932297 5.5814424 66 0 0 0 40.383232
3.4068549 2.1769147 -2.2496939 119 0 0 0 40.383232
9.0719175 4.2523241 -1.126014 127 0 0 0 40.383232
8.3302279 4.8681164 -0.16298057 39 0 0 0 40.383232
8.2363291 4.7660136 0.30184045 30 0 0 0 40.383232
8.8858747 4.2766538 -2.6266952 115 0 0 0 40.383232
10.89381 5.1510291 10.618301 9 0 0 0 40.383232
9.8758745 4.0366201 4.2325482 95 0 0 0 40.383232
6.3615851 3.9213541 -2.3951814 61 0 0 0 40.383232
5.3502789 4.5163279 2.3070557 312 0 0 0 40.383232
9.2747889 4.1149154 1.3534257 164 0 0 0 40.383232
5.5079842 5.1358714 -2.0995717 141 0 0 0 40.383232
5.3041954 3.2995861 -2.3452194 153 0 0 0 40.383232
6.3850856 4.6643405 -0.54577994 277 0 0 0 40.383232
4.3948655 2.1697717 -2.4171662 222 0 0 0 40.383232
10.604881 5.3458734 7.6209011 9 0 0 0 40.383232
5.128665 2.5185704 -2.4711289 153 0 0 0 40.383232
5.8774743 5.1267462 0.567029 86 0 0 0 40.383232
5.4291539 4.1620097 -2.2221222 100 0 0 0 40.383232
8.2423286 4.9926367 -2.0790741 17 0 0 0 40.383232
4.104043 3.7836332 -1.2491286 99 0 0 0 40.383232
5.8115935 5.2446713 -0.97215211 71 0 0 0 40.383232
8.3415279 4.91892 -0.63522524 62 0 0 0 40.383232
4.5940099 3.5591421 -2.2051103 151 0 0 0 40.383232
6.4414053 4.6253366 0.22489861 283 0 0 0 40.383232
9.7637148 4.0677404 3.6010869 95 0 0 0 40.383232
8.9339237 4.2661715 -2.1170185 155 0 0 0 40.383232
5.5962043 4.8448105 0.90779752 118 0 0 0 40.383232
5.3635726 4.5565791 1.9393708 294 0 0 0 40.383232
3.4174583 2.7123795 -2.1685846 156 0 0 0 40.383232
10.493364 3.5322776 8.9032793 24 0 0 0 40.486912
5.6176081 4.8039627 0.90236485 126 0 0 0 40.486912
4.1412878 3.7722418 -1.2569702 109 0 0 0 40.486912
5.4189696 4.5178604 2.3200934 279 0 0 0 40.486912
5.4060044 4.4852319 2.7003019 310 0 0 0 40.486912
7.7396603 4.3755946 0.71220177 187 0 0 0 40.486912
5.3346882 3.2742727 -2.3542404 131 0 0 0 40.486912
9.0162067 4.1988463 -1.6241186 153 0 0 0 40.486912
6.4893513 4.4126015 2.1777034 212 0 0 0 40.486912
6.4316697 4.72263 -1.3472382 272 0 0 0 40.486912
6.384541 4.78406 -2.1730661 218 0 0 0 40.486912
6.6510897 4.4467406 3.0892916 44 0 0 0 40.486912
3.9572399 3.7410488 -2.1151111 158 0 0 0 40.486912
3.9401147 2.4618025 -2.2931118 213 0 0 0 40.486912
4.5535188 2.8196657 -2.3214312 212 0 0 0 40.486912
8.302125 4.9162731 -1.5972048 34 0 0 0 40.486912
6.4121823 4.7556353 -1.7536609 260 0 0 0 40.486912
10.247902 3.7144346 7.0844221 56 0 0 0 40.486912
7.7587671 4.2014761 2.4800153 168 0 0 0 40.486912
4.6275558 3.5410168 -2.214936 168 0 0 0 40.486912
5.8899074 5.2026997 -0.589463 99 0 0 0 40.486912
8.9628105 4.2136765 -2.1239579 130 0 0 0 40.486912
9.3197069 4.119823 0.84935743 163 0 0 0 40.486912
3.4312017 2.1636825 -2.260457 139 0 0 0 40.486912
8.2964239 4.734015 0.29722944 38 0 0 0 40.486912
9.2741795 4.1474729 0.35029256 172 0 0 0 40.486912
5.9156823 5.177434 -0.20296396 104 0 0 0 40.486912
10.913631 5.0793743 10.594656 16 0 0 0 40.486912
7.7764468 4.2588544 2.0327117 160 0 0 0 40.486912
9.7982435 5.1772265 4.3153076 17 0 0 0 40.486912
9.2034197 4.1635942 -0.14731826 117 0 0 0 40.486912
8.3914738 4.8360844 -0.16943935 40 0 0 0 40.486912
5.8811679 5.2435222 -0.9832117 92 0 0 0 40.486912
9.3675013 4.0884233 1.3569036 177 0 0 0 40.486912
2.6425269 2.6230986 -2.1330156 9 0 0 0 40.486912
4.4162006 2.1473322 -2.4254651 236 0 0 0 40.486912
6.4379497 4.6436024 -0.55263281 280 0 0 0 40.486912
9.7603312 3.9971426 3.5839367 102 0 0 0 40.486912
5.479475 4.148674 -2.2370586 120 0 0 0 40.486912
10.246303 3.2967172 9.600666 25 0 0 0 40.486912
8.3983641 4.8842936 -0.64315128 53 0 0 0 40.486912
6.4702067 4.5869117 0.22035152 268 0 0 0 40.486912
9.0878334 4.1929574 -1.130797 171 0 0 0 40.486912
6.0757289 2.9192574 -2.5314639 103 0 0 0 40.486912
8.9999199 4.2648983 -2.6595161 72 0 0 0 40.486912
10.138003 3.7843409 6.2835951 44 0 0 0 40.486912
2.9613805 2.8887453 -2.0999763 230 0 0 0 40.486912
3.4375093 2.695044 -2.1742375 175 0 0 0 40.486912
5.4231777 4.5505161 1.9463801 359 0 0 0 40.486912
7.3528328 3.5101733 -2.609432 91 0 0 0 40.486912
6.4735007 4.3646989 2.5834031 254 0 0 0 40.486912
6.4575601 4.6174812 -0.16351636 275 0 0 0 40.486912
9.976263 3.9210441 4.8714724 84 0 0 0 40.486912
9.6867161 4.0389094 3.0012252 97 0 0 0 40.486912
6.4518719 4.4232349 1.7645532 302 0 0 0 40.486912
9.1537886 4.1828246 -0.63849044 109 0 0 0 40.486912
3.3979225 3.2623653 -2.1033041 193 0 0 0 40.486912
6.3960366 3.8897014 -2.404217 78 0 0 0 40.486912
5.6822753 4.691278 3.2611072 54 0 0 0 40.486912
7.7485991 4.2922454 1.5822177 227 0 0 0 40.486912
5.4437199 4.6235414 1.2271678 374 0 0 0 40.486912
5.9351525 5.1140084 0.56501931 110 0 0 0 40.486912
7.816925 4.183805 2.965517 73 0 0 0 40.486912
4.1723671 3.8920918 -1.8944227 65 0 0 0 40.486912
9.8653374 3.9627712 4.2104597 82 0 0 0 40.486912
6.4576645 4.4657903 1.3749774 270 0 0 0 40.486912
7.7413454 4.3308358 1.1439357 218 0 0 0 40.486912
5.933918 5.1512537 0.18143003 100 0 0 0 40.486912
6.5057616 4.5705934 0.60756379 324 0 0 0 40.486912
5.4334168 4.5873747 1.583172 390 0 0 0 40.486912
10.376146 3.6337743 7.9596801 34 0 0 0 40.486912
9.4121685 4.048852 1.8724736 142 0 0 0 40.486912
8.3387337 4.892415 -1.1173905 35 0 0 0 40.486912
7.9201393 4.7743349 -2.4831841 60 0 0 0 40.486912
6.4653749 4.5058165 0.99026281 278 0 0 0 40.486912
4.1804991 3.7653491 -0.97349739 98 0 0 0 40.486912
5.1416121 2.4865701 -2.4741108 147 0 0 0 40.486912
6.4299846 4.6817474 -0.94501859 332 0 0 0 40.486912
4.2193503 3.8876121 -1.5923994 46 0 0 0 40.486912
3.9809177 3.0833669 -2.2037942 195 0 0 0 40.486912
9.4300108 3.9966905 2.392946 95 0 0 0 40.486912
8.2033491 4.9016333 -2.0672598 57 0 0 0 40.486912
10.049499 3.8562515 5.551723 63 0 0 0 40.486912
9.9906788 5.2050624 5.0388637 6 0 0 0 40.486912
10.492086 3.4613492 8.8736267 25 0 0 0 40.579582
6.5556087 4.3994584 2.1858678 221 0 0 0 40.579582
4.591836 2.8054304 -2.3362553 179 0 0 0 40.579582
9.2092066 4.0992017 -0.15285277 174 0 0 0 40.579582
7.3854046 3.4711471 -2.6188591 99 0 0 0 40.579582
6.0050817 5.1110578 0.56411749 89 0 0 0 40.579582
5.4904985 4.5784712 1.5873225 353 0 0 0 40.579582
9.3655071 4.0201306 1.3470615 135 0 0 0 40.579582
6.4784446 4.7446241 -1.7689464 274 0 0 0 40.579582
6.5372972 4.575211 0.21693443 295 0 0 0 40.579582
5.1436477 2.4493792 -2.4717965 194 0 0 0 40.579582
7.8547192 4.2399092 2.040731 171 0 0 0 40.579582
5.3610916 3.2462864 -2.3614337 121 0 0 0 40.579582
10.911117 4.9974117 10.550008 15 0 0 0 40.579582
10.375534 3.5631952 7.9327359 36 0 0 0 40.579582
2.9827654 2.8752716 -2.1058819 221 0 0 0 40.579582
6.6671352 4.3987541 3.07901 42 0 0 0 40.579582
5.9442663 5.2357955 -0.99308294 99 0 0 0 40.579582
9.8585997 3.8907764 4.1903086 99 0 0 0 40.579582
6.4931393 4.6680326 -0.95495057 343 0 0 0 40.579582
9.6779442 3.966507 2.9844477 107 0 0 0 40.579582
6.5358267 4.4613371 1.3809186 287 0 0 0 40.579582
7.8436427 4.3258281 1.1495365 213 0 0 0 40.579582
5.9517736 5.1936855 -0.59705973 86 0 0 0 40.579582
8.450057 4.8019528 -0.17579988 47 0 0 0 40.579582
10.239616 5.0939813 6.5369568 6 0 0 0 40.579582
3.4540436 2.1493216 -2.2702127 167 0 0 0 40.579582
9.8971653 5.1526942 4.3373075 14 0 0 0 40.579582
3.4151285 3.2400634 -2.1050062 243 0 0 0 40.579582
10.141461 3.7157547 6.2632174 54 0 0 0 40.579582
6.5212402 4.6036325 -0.16915762 331 0 0 0 40.579582
9.5120258 3.9636319 2.4010472 115 0 0 0 40.579582
5.5977688 4.7283807 0.89075208 177 0 0 0 40.579582
9.1151419 4.1388569 -1.1370189 125 0 0 0 40.579582
8.2779818 4.8787484 -2.0846696 97 0 0 0 40.579582
6.5408154 4.3522582 2.5944626 227 0 0 0 40.579582
10.029127 3.7788124 5.5198355 71 0 0 0 40.579582
9.0578747 4.1917787 -2.1469011 125 0 0 0 40.579582
4.24122 3.8610289 -1.595238 74 0 0 0 40.579582
5.5230088 4.1297555 -2.2491279 100 0 0 0 40.579582
4.1959405 3.7761607 -1.2702156 126 0 0 0 40.579582
8.3452501 4.8286686 -1.1198814 46 0 0 0 40.579582
7.968245 4.738131 -2.495127 36 0 0 0 40.579582
9.7590971 3.9276781 3.5678446 81 0 0 0 40.579582
9.0774279 4.2347226 -2.6813626 89 0 0 0 40.579582
4.4261665 2.1192985 -2.4274395 233 0 0 0 40.579582
5.991672 5.1380358 0.1777366 82 0 0 0 40.579582
9.14221 4.1107945 -0.64168936 170 0 0 0 40.579582
5.4829426 4.5438385 1.9534128 389 0 0 0 40.579582
6.534801 4.4954786 0.99189413 296 0 0 0 40.579582
2.6602588 2.6096489 -2.1375318 13 0 0 0 40.579582
10.24013 3.6415784 7.0546455 37 0 0 0 40.579582
5.9853792 5.1748075 -0.2088694 101 0 0 0 40.579582
9.0549049 4.150435 -1.6326023 122 0 0 0 40.579582
6.5143728 4.6391392 -0.5616222 306 0 0 0 40.579582
5.7123904 4.6574206 3.2570221 56 0 0 0 40.579582
6.5410328 4.5363479 0.60368776 302 0 0 0 40.579582
10.251451 3.2301874 9.5757284 12 0 0 0 40.579582
4.006989 3.0654287 -2.2115161 189 0 0 0 40.579582
3.9506385 2.4355686 -2.2939844 230 0 0 0 40.579582
4.6618094 3.5231762 -2.2250874 152 0 0 0 40.579582
5.4979982 4.6122804 1.2288147 405 0 0 0 40.579582
6.436059 3.861192 -2.4153876 76 0 0 0 40.579582
6.5660419 4.4429941 1.7831762 316 0 0 0 40.579582
10.063301 5.0907793 5.7215672 13 0 0 0 40.579582
5.4783688 4.5108051 2.329134 269 0 0 0 40.579582
6.0851402 2.8787096 -2.5325515 132 0 0 0 40.579582
7.8652272 4.2946944 1.5949315 184 0 0 0 40.579582
8.3782349 4.7136679 0.29331851 41 0 0 0 40.579582
9.4982758 4.01788 1.8782586 149 0 0 0 40.579582
8.2602243 4.8242922 -1.588843 106 0 0 0 40.579582
9.3623199 4.0710397 0.84487528 105 0 0 0 40.579582
7.8517451 4.3764005 0.71442652 203 0 0 0 40.579582
5.4512014 4.4665647 2.7045748 308 0 0 0 40.579582
3.984081 3.7216742 -2.1210046 176 0 0 0 40.579582
4.194808 3.8663809 -1.8975109 67 0 0 0 40.579582
7.8474941 4.1880493 2.4943681 91 0 0 0 40.579582
9.2865143 4.0856576 0.34390143 128 0 0 0 40.579582
10.000425 5.1329255 5.0201101 10 0 0 0 40.579582
9.9058838 5.2257204 3.7312086 33 0 0 0 40.579582
3.4779139 2.6934066 -2.193013 194 0 0 0 40.579582
4.218123 3.7535067 -0.98030692 96 0 0 0 40.579582
9.9124174 3.8266618 4.8215566 82 0 0 0 40.579582
8.351305 4.7895107 -0.64256638 409 0 0 0 40.579582
6.4958053 4.8067904 -2.2065301 174 0 0 0 40.579582
6.4984736 4.7116728 -1.3601738 240 0 0 0 40.579582
4.6074314 2.7770998 -2.3393977 192 0 0 0 40.683521
9.1760588 4.179431 -2.1755762 100 0 0 0 40.683521
10.245594 4.9320331 7.2694278 5 0 0 0 40.683521
7.9878974 4.6849108 -2.4981701 56 0 0 0 40.683521
4.2198701 3.8430758 -1.9019569 54 0 0 0 40.683521
9.7520409 3.8564143 3.5498288 82 0 0 0 40.683521
6.5479302 4.7352695 -1.7852452 287 0 0 0 40.683521
5.5468879 4.5684948 1.5911417 385 0 0 0 40.683521
10.235611 5.0145922 6.505981 10 0 0 0 40.683521
6.6246409 4.4241886 1.7867633 253 0 0 0 40.683521
6.0220127 5.1912932 -0.60568058 82 0 0 0 40.683521
5.5443573 4.0940952 -2.2521236 103 0 0 0 40.683521
6.0659919 5.0997939 0.56227708 76 0 0 0 40.683521
10.237326 3.5711 7.0286689 42 0 0 0 40.683521
7.9344444 4.2702756 1.5980473 200 0 0 0 40.683521
10.009781 3.7025518 5.488874 67 0 0 0 40.683521
8.3498583 4.8093452 -1.606584 183 0 0 0 40.683521
10.468711 3.3838353 8.8258524 31 0 0 0 40.683521
6.6153445 4.3439631 2.6081865 237 0 0 0 40.683521
7.9335141 4.3592548 0.7138555 168 0 0 0 40.683521
5.5188775 4.465838 2.7197349 325 0 0 0 40.683521
4.014226 3.7052405 -2.1288197 190 0 0 0 40.683521
9.9199982 5.1564183 3.717402 104 0 0 0 40.683521
9.2883215 4.0195365 0.33714685 162 0 0 0 40.683521
9.1847954 4.0633621 -0.64899081 158 0 0 0 40.683521
9.5488768 3.9113419 2.3978457 105 0 0 0 40.683521
9.9099216 3.7569773 4.8016996 66 0 0 0 40.683521
5.5614815 4.5519686 1.9668249 312 0 0 0 40.683521
6.1204987 2.8503916 -2.54477 131 0 0 0 40.683521
8.4251099 4.6731515 0.28822136 43 0 0 0 40.683521
9.1697588 4.2106133 -2.7078056 89 0 0 0 40.683521
6.0608931 5.1340399 0.17417499 74 0 0 0 40.683521
4.0271482 3.0428603 -2.2160287 203 0 0 0 40.683521
9.8391428 3.8144367 4.1650414 81 0 0 0 40.683521
6.6100583 4.4884348 0.99423045 308 0 0 0 40.683521
9.1301613 4.118381 -1.6479756 130 0 0 0 40.683521
6.6219182 4.3857665 2.1939089 214 0 0 0 40.683521
10.147414 5.0561376 5.7432761 12 0 0 0 40.683521
3.4901016 2.6696808 -2.1936998 227 0 0 0 40.683521
7.945941 4.22715 2.0519059 175 0 0 0 40.683521
10.898295 4.9116168 10.496117 14 0 0 0 40.683521
6.5886874 4.676723 -0.96997136 302 0 0 0 40.683521
3.0098619 2.8671222 -2.1159992 235 0 0 0 40.683521
6.0074482 5.22751 -1.0030906 103 0 0 0 40.683521
6.598896 4.598938 -0.17537405 341 0 0 0 40.683521
3.4819994 2.1379213 -2.2834837 176 0 0 0 40.683521
6.5492024 4.7856927 -2.2200289 161 0 0 0 40.683521
10.008781 5.0606151 5.0009098 19 0 0 0 40.683521
6.566143 4.7006607 -1.373413 263 0 0 0 40.683521
4.2601638 3.7452466 -0.98827595 86 0 0 0 40.683521
6.4857512 3.8381391 -2.4303842 78 0 0 0 40.683521
10.111798 3.6357148 6.222837 38 0 0 0 40.683521
5.531209 4.4978843 2.3352842 246 0 0 0 40.683521
6.5933881 4.6356673 -0.57098109 281 0 0 0 40.683521
3.9058943 1.851424 -2.4196029 6 0 0 0 40.683521
9.6578903 3.8901579 2.9644094 85 0 0 0 40.683521
10.362836 3.4890928 7.8970199 30 0 0 0 40.683521
6.671834 4.3437037 3.063688 57 0 0 0 40.683521
8.354723 4.7670217 -1.1228936 77 0 0 0 40.683521
9.1729193 4.0984097 -1.1472867 121 0 0 0 40.683521
9.337759 3.9933069 0.83458465 158 0 0 0 40.683521
8.4649019 4.7428832 -0.18114422 52 0 0 0 40.683521
10.011897 5.135417 4.3659811 73 0 0 0 40.683521
9.5061789 3.9535551 1.8688086 115 0 0 0 40.683521
8.272439 4.8084931 -2.0816278 181 0 0 0 40.683521
5.388135 3.2185609 -2.3690453 122 0 0 0 40.683521
6.6007848 4.518806 0.60184717 288 0 0 0 40.683521
6.6102066 4.5668912 0.21354292 315 0 0 0 40.683521
9.3593378 3.9505537 1.3366942 159 0 0 0 40.683521
6.0407815 5.1592278 -0.21431479 72 0 0 0 40.683521
8.2717285 5.3370867 4.351016 20 0 0 0 40.683521
10.255376 3.1637583 9.5501184 15 0 0 0 40.683521
6.6133285 4.4556246 1.3865509 293 0 0 0 40.683521
7.92696 4.3093815 1.1522665 190 0 0 0 40.683521
5.1785159 2.4278119 -2.4856884 192 0 0 0 40.683521
3.4421275 3.2269759 -2.1130047 198 0 0 0 40.683521
9.2273407 4.0405707 -0.15868728 154 0 0 0 40.683521
4.260757 3.8323879 -1.5973153 64 0 0 0 40.683521
4.6855392 3.4972217 -2.2302382 145 0 0 0 40.683521
4.2485752 3.7776093 -1.2828925 110 0 0 0 40.683521
3.9678421 2.4134567 -2.2989469 243 0 0 0 40.683521
5.7422595 4.6234765 3.2528577 51 0 0 0 40.683521
4.4415979 2.0938735 -2.4325943 232 0 0 0 40.683521
5.6069279 4.6780806 0.88363373 215 0 0 0 40.683521
9.8083944 5.1594048 3.0933716 82 0 0 0 40.683521
8.4023371 4.7515411 -0.65006483 65 0 0 0 40.683521
5.5545883 4.6024818 1.2308369 436 0 0 0 40.683521
7.4186149 3.4322433 -2.628659 87 0 0 0 40.683521
6.1316328 5.091743 0.56088787 97 0 0 0 40.773376
6.6894016 4.4479656 1.3918684 269 0 0 0 40.773376
6.6537294 4.6627402 -0.98025733 263 0 0 0 40.773376
5.5892625 4.0756574 -2.2648518 100 0 0 0 40.773376
6.659524 4.622262 -0.57910275 296 0 0 0 40.773376
9.4963655 3.8820746 1.8561321 153 0 0 0 40.773376
10.160993 4.9858327 5.7254391 32 0 0 0 40.773376
5.6004648 4.4975061 2.3482444 314 0 0 0 40.773376
8.0305986 4.6451392 -2.5085351 58 0 0 0 40.773376
10.465606 3.3130713 8.7956839 22 0 0 0 40.773376
9.9982452 3.6295078 5.4625931 66 0 0 0 40.773376
9.8321819 3.7432823 4.1453733 72 0 0 0 40.773376
