# .PCD v0.7 - Point Cloud Data file format
VERSION 0.7
FIELDS x y z intensity normal_x normal_y normal_z curvature
SIZE 4 4 4 4 4 4 4 4
TYPE F F F F F F F F
COUNT 1 1 1 1 1 1 1 1
WIDTH 953
HEIGHT 1
VIEWPOINT 0 0 0 1 0 0 0
POINTS 953
DATA ascii
8.5895176 3.9494009 -0.16935739 68 0 0 0 40.15181
6.5810957 2.9383481 1.6728152 364 0 0 0 40.15181
4.4073095 3.8770711 0.32390845 12 0 0 0 40.15181
3.1326878 2.8288772 -1.0230024 307 0 0 0 40.15181
7.6375332 3.5318706 -0.97708565 72 0 0 0 40.15181
5.1562762 2.0218041 4.4705286 129 0 0 0 40.15181
4.5127645 3.9451718 1.5373085 445 0 0 0 40.15181
4.3116717 2.2611773 4.7165074 39 0 0 0 40.15181
4.1137681 2.4381266 -1.311278 268 0 0 0 40.15181
4.7844067 3.488143 -0.77771598 193 0 0 0 40.15181
5.1588988 3.688169 1.0308948 335 0 0 0 40.15181
3.1613178 2.8469205 4.0155034 246 0 0 0 40.15181
3.4656749 3.1098471 -0.89088929 292 0 0 0 40.15181
4.6565843 3.2947998 2.1281548 530 0 0 0 40.15181
4.6418695 2.7441211 -1.2003628 194 0 0 0 40.15181
3.5267723 3.1196005 3.2357867 407 0 0 0 40.15181
2.8478544 2.5881798 -1.1354189 394 0 0 0 40.15181
3.6355696 3.2031078 2.9780235 433 0 0 0 40.15181
5.2946343 4.6312261 2.9658716 70 0 0 0 40.15181
3.6947691 2.5763409 4.2890105 178 0 0 0 40.15181
6.3046355 3.6077213 1.6106898 110 0 0 0 40.15181
4.9461813 2.7296281 3.1966975 264 0 0 0 40.15181
5.202981 4.5467358 2.5161114 71 0 0 0 40.15181
3.3586404 2.0015464 -1.4968368 317 0 0 0 40.15181
6.5080543 3.0158181 -1.1889642 140 0 0 0 40.15181
6.4556155 3.7127898 1.2733474 104 0 0 0 40.15181
6.9391189 3.1429141 0.99592006 280 0 0 0 40.15181
3.7867293 2.7820997 -1.0856489 243 0 0 0 40.15181
4.3622828 3.1565552 -0.1727358 88 0 0 0 40.15181
3.9433017 2.7576261 3.7206473 248 0 0 0 40.15181
4.8076649 2.6324761 3.47701 248 0 0 0 40.15181
6.75213 3.0365739 1.3399117 364 0 0 0 40.15181
4.1413774 3.6804831 -0.50897455 74 0 0 0 40.15181
3.9379754 1.827858 -1.6356609 284 0 0 0 40.15181
6.4738827 3.7660244 0.17684343 357 0 0 0 40.15181
6.5336967 3.7885883 0.54642951 367 0 0 0 40.15181
4.2039843 2.9503925 3.1957214 317 0 0 0 40.15181
4.5846949 3.2361 2.4161634 358 0 0 0 40.15181
6.7402916 3.949646 -0.57900262 227 0 0 0 40.15181
7.1096587 3.2382565 0.63363028 284 0 0 0 40.15181
3.7441351 3.2886124 2.7243123 507 0 0 0 40.15181
3.0243316 2.7468653 4.280839 175 0 0 0 40.15181
4.4380188 3.8760753 1.826399 217 0 0 0 40.15181
3.7178483 2.2093554 -1.4157683 271 0 0 0 40.15181
5.9929109 3.5214732 -0.85539687 145 0 0 0 40.15181
5.9171233 2.5374472 2.9242163 262 0 0 0 40.15181
3.1039345 2.3022237 -1.3016533 283 0 0 0 40.15181
3.7790654 2.6303673 4.8660703 20 0 0 0 40.15181
5.4783258 3.9775302 -0.56018096 134 0 0 0 40.15181
5.5992732 2.6002121 -1.334371 164 0 0 0 40.15181
4.2331052 3.0957654 -0.94796604 269 0 0 0 40.15181
4.4825473 3.9256995 0.91822946 539 0 0 0 40.15181
6.2470403 2.7397172 2.3114939 311 0 0 0 40.15181
4.9075933 3.4890897 1.594593 510 0 0 0 40.15181
4.2118039 3.7268407 -0.23936564 8 0 0 0 40.15181
5.7694197 4.1341019 0.79944503 157 0 0 0 40.15181
5.013885 3.5733893 1.3114192 547 0 0 0 40.15181
3.8097546 2.6605308 3.9890535 223 0 0 0 40.15181
5.6151047 2.3378022 3.5357659 180 0 0 0 40.15181
3.5770688 1.6582632 -1.7141355 335 0 0 0 40.15181
4.3978243 2.0434394 -1.5578179 257 0 0 0 40.15181
5.2952366 2.1249835 4.142601 61 0 0 0 40.15181
4.7727408 3.3846505 1.8607394 554 0 0 0 40.15181
4.0637946 2.8468964 3.4474206 289 0 0 0 40.15181
4.1799383 3.0145013 0.085953631 134 0 0 0 40.15181
4.4301977 3.1213531 2.6601262 413 0 0 0 40.15181
6.4927812 3.7480826 0.90932739 117 0 0 0 40.15181
5.7549143 2.4347565 3.2238164 235 0 0 0 40.15181
3.424412 2.5277934 -1.2057486 369 0 0 0 40.15181
5.2421312 3.0901575 -1.0491714 212 0 0 0 40.15181
3.2888618 2.9408007 3.7518859 256 0 0 0 40.15181
4.6785522 2.5385566 3.7666314 218 0 0 0 40.15181
8.0936127 3.704083 0.28087008 49 0 0 0 40.15181
4.3202481 3.0377064 2.9289339 341 0 0 0 40.15181
3.408356 3.0294709 3.4892263 353 0 0 0 40.15181
4.1024585 3.5951524 2.6334863 60 0 0 0 40.15181
5.4628501 2.2366979 3.8439038 162 0 0 0 40.15181
5.9601264 3.3779848 2.2407153 89 0 0 0 40.15181
4.4294086 3.9064441 0.03616954 20 0 0 0 40.15181
4.4510417 3.8948302 1.2104105 430 0 0 0 40.15181
3.5558343 3.1064279 3.2431641 410 0 0 0 40.251904
3.7866161 2.6009383 4.8526268 48 0 0 0 40.251904
3.8463275 2.6509082 4.0080304 208 0 0 0 40.251904
4.378819 3.1283493 -0.17392363 84 0 0 0 40.251904
3.973088 1.8152196 -1.6472906 373 0 0 0 40.251904
6.6454873 2.8943844 2.0608602 346 0 0 0 40.251904
5.288516 3.0746858 -1.0565517 164 0 0 0 40.251904
8.4288912 3.8260458 -0.6211468 43 0 0 0 40.251904
4.5177073 3.9082232 0.91906893 515 0 0 0 40.251904
4.4526 3.8486226 1.2032046 481 0 0 0 40.251904
8.5786104 3.8816581 -0.17102665 77 0 0 0 40.251904
4.2352519 2.9336977 3.2039168 307 0 0 0 40.251904
4.8171163 3.3721688 1.8682666 546 0 0 0 40.251904
5.2744942 4.5569658 2.9372983 62 0 0 0 40.251904
4.5935469 3.2004654 2.4089212 442 0 0 0 40.251904
3.7240617 2.5626864 4.30234 178 0 0 0 40.251904
5.0582099 3.5587864 1.3156106 606 0 0 0 40.251904
5.1940513 4.4832745 2.4969299 69 0 0 0 40.251904
4.1731601 3.663868 -0.51151735 45 0 0 0 40.251904
3.5106103 3.1121905 -0.8990249 335 0 0 0 40.251904
5.8024945 2.4133248 3.2399004 216 0 0 0 40.251904
5.4906015 2.2090333 3.8515463 201 0 0 0 40.251904
3.0477765 2.7337017 4.2878513 184 0 0 0 40.251904
4.1412625 3.5844872 2.6425848 140 0 0 0 40.251904
4.7042623 2.51531 3.7727277 194 0 0 0 40.251904
4.9536281 3.4766006 1.6009116 495 0 0 0 40.251904
4.2071314 3.6776268 -0.23885991 5 0 0 0 40.251904
6.7992902 3.9292276 -0.58423913 207 0 0 0 40.251904
5.6525788 2.3130708 3.5481229 194 0 0 0 40.251904
4.1529894 2.4277318 -1.3206806 256 0 0 0 40.251904
5.2384057 2.8904161 2.6359656 385 0 0 0 40.251904
3.4571428 2.5199893 -1.2132599 335 0 0 0 40.251904
4.351615 3.0200717 2.9358287 376 0 0 0 40.251904
7.1838808 3.2196889 0.63612401 148 0 0 0 40.251904
4.9711652 2.7038946 3.2001324 256 0 0 0 40.251904
5.9693131 2.5169291 2.9401305 259 0 0 0 40.251904
5.2249632 2.0120301 4.5165968 44 0 0 0 40.251904
5.6939497 4.0185943 1.1279047 140 0 0 0 40.251904
4.6204371 4.0045271 0.63785404 647 0 0 0 40.251904
6.591291 3.0062504 -1.2032249 117 0 0 0 40.251904
3.9746709 2.7432642 3.7322581 248 0 0 0 40.251904
4.6723619 2.724298 -1.2055583 222 0 0 0 40.251904
8.1505871 3.6706572 0.27954024 50 0 0 0 40.251904
3.7503631 2.1982884 -1.4245524 314 0 0 0 40.251904
6.6231813 3.8149207 -0.19430526 304 0 0 0 40.251904
6.9927182 3.116255 0.99864715 294 0 0 0 40.251904
4.6931939 3.2778952 2.1340125 503 0 0 0 40.251904
2.8674195 2.574697 -1.1380458 377 0 0 0 40.251904
3.1894343 2.8365538 4.0268536 233 0 0 0 40.251904
4.0968142 2.8326356 3.4586945 304 0 0 0 40.251904
4.2437477 3.0216277 0.085222349 247 0 0 0 40.251904
6.0602007 3.5119874 -0.86408353 119 0 0 0 40.251904
6.2159324 3.4902811 1.9482583 108 0 0 0 40.251904
5.8189092 4.116354 0.80092716 124 0 0 0 40.251904
4.5068774 3.8918531 1.5259544 466 0 0 0 40.251904
4.4630456 3.1037943 2.6666656 435 0 0 0 40.251904
6.5225053 3.7126749 0.90833527 125 0 0 0 40.251904
3.4377868 3.0177987 3.4984725 342 0 0 0 40.251904
5.9337406 3.3154318 2.2214584 69 0 0 0 40.251904
4.8557882 4.2301383 0.034603644 73 0 0 0 40.251904
3.91453 3.4521253 -0.73966902 281 0 0 0 40.251904
6.8076715 3.0120502 1.3450619 332 0 0 0 40.251904
7.7939897 3.5473304 -0.99735588 75 0 0 0 40.251904
4.4843721 3.8685489 1.8340873 184 0 0 0 40.251904
5.0945163 2.7931321 2.9124119 279 0 0 0 40.251904
6.5332775 3.7356105 0.54268223 393 0 0 0 40.251904
6.3412709 3.5777075 1.6124357 83 0 0 0 40.251904
6.4740615 3.713836 0.17444956 334 0 0 0 40.251904
6.1355767 2.6189551 2.6355608 325 0 0 0 40.251904
3.7720439 3.2722957 2.7284114 524 0 0 0 40.251904
4.4338369 2.0278316 -1.5678951 288 0 0 0 40.251904
3.6031604 1.6441456 -1.7233397 337 0 0 0 40.251904
5.5361438 3.9686606 -0.56553686 142 0 0 0 40.251904
5.6810794 2.5967319 -1.3523513 187 0 0 0 40.251904
5.3874784 2.9922318 2.3583667 409 0 0 0 40.251904
6.6367106 2.9150026 1.6802131 324 0 0 0 40.251904
3.155256 2.8149989 -1.0259167 325 0 0 0 40.251904
4.3022885 2.2225869 4.6888781 85 0 0 0 40.251904
6.2902703 2.7132063 2.3191857 279 0 0 0 40.251904
4.8325458 3.4787786 -0.78381217 187 0 0 0 40.251904
6.5117822 3.6926718 1.2778403 112 0 0 0 40.251904
3.1349673 2.296195 -1.3101571 305 0 0 0 40.251904
3.6673265 3.1912041 2.9862835 415 0 0 0 40.251904
3.8291652 2.7779438 -1.0944982 293 0 0 0 40.251904
4.8378849 2.6106594 3.4851825 214 0 0 0 40.251904
4.5747805 2.4202731 4.0704694 162 0 0 0 40.251904
3.383899 1.9891676 -1.5040729 321 0 0 0 40.251904
5.0035005 2.2880673 -1.4759101 207 0 0 0 40.251904
4.2841606 3.0936494 -0.95684767 275 0 0 0 40.251904
3.312808 2.9254842 3.7566929 236 0 0 0 40.251904
8.5045414 3.7985432 -0.62772238 149 0 0 0 40.347393
5.9651642 3.2854586 2.223716 93 0 0 0 40.347393
6.1941299 2.5995026 2.6516211 259 0 0 0 40.347393
4.8836002 4.2026119 0.033151038 37 0 0 0 40.347393
4.1947398 2.418381 -1.3309059 261 0 0 0 40.347393
3.8823085 2.6404901 4.0263577 236 0 0 0 40.347393
6.8582997 3.908215 -0.58947831 232 0 0 0 40.347393
6.525516 3.6788299 0.5384295 368 0 0 0 40.347393
5.1357841 2.7750754 2.9242685 338 0 0 0 40.347393
5.8781924 4.1049662 0.80369234 132 0 0 0 40.347393
6.5095329 3.6819546 0.17283352 331 0 0 0 40.347393
3.1828747 2.8054249 -1.0305415 270 0 0 0 40.347393
4.3291721 2.2028069 4.7008052 88 0 0 0 40.347393
5.0563879 2.2755339 -1.489347 198 0 0 0 40.347393
4.4604878 3.808249 1.1977813 600 0 0 0 40.347393
6.5685053 3.6862609 0.90955019 146 0 0 0 40.347393
4.1332231 2.8203771 3.4728079 306 0 0 0 40.347393
3.5357835 3.096664 -0.9018473 284 0 0 0 40.347393
7.0589771 3.0946202 1.0031183 301 0 0 0 40.347393
4.0149922 1.8052796 -1.6618178 347 0 0 0 40.347393
5.3374748 3.0602181 -1.064465 183 0 0 0 40.347393
3.2852483 1.4711124 -1.7875205 362 0 0 0 40.347393
3.2131622 2.8220832 4.0327377 245 0 0 0 40.347393
6.1336284 3.5052416 -0.87367952 108 0 0 0 40.347393
5.7387609 3.9981809 1.1300994 136 0 0 0 40.347393
4.4997787 3.8381021 1.5143898 453 0 0 0 40.347393
4.5249834 3.8556221 1.8394467 164 0 0 0 40.347393
3.812602 3.2666054 2.7415581 497 0 0 0 40.347393
6.2746673 3.4732075 1.9578673 101 0 0 0 40.347393
5.5794306 3.9488599 -0.56929982 169 0 0 0 40.347393
5.2660275 1.9909605 4.5388699 90 0 0 0 40.347393
5.7488136 2.5859191 -1.3668661 161 0 0 0 40.347393
5.009861 2.6853566 3.2123787 297 0 0 0 40.347393
3.7922318 2.5703287 4.8370266 41 0 0 0 40.347393
4.5543385 3.8917313 0.92020947 520 0 0 0 40.347393
3.3349686 2.9084601 3.7595723 256 0 0 0 40.347393
4.8822222 2.5961046 3.5034769 245 0 0 0 40.347393
3.7730467 2.1812019 -1.429493 323 0 0 0 40.347393
8.0088043 3.5318902 0.70107824 70 0 0 0 40.347393
6.329927 2.6847599 2.3256094 278 0 0 0 40.347393
4.7740817 4.0978146 0.34173214 210 0 0 0 40.347393
4.6241317 3.1799407 2.4130445 445 0 0 0 40.347393
8.2102051 3.6378634 0.27829039 51 0 0 0 40.347393
4.9909515 3.4575973 1.6044697 506 0 0 0 40.347393
4.2088385 3.6344633 -0.2387722 7 0 0 0 40.347393
6.6351495 2.841979 2.0503151 311 0 0 0 40.347393
4.0620089 3.5231879 -0.49523783 156 0 0 0 40.347393
6.4016953 3.5606647 1.6201246 126 0 0 0 40.347393
6.5249109 3.6478994 1.2741383 137 0 0 0 40.347393
4.0033984 2.7268147 3.7414365 235 0 0 0 40.347393
6.8848405 2.9963846 1.3543688 331 0 0 0 40.347393
3.7023258 3.1817942 2.9971483 444 0 0 0 40.347393
4.4706907 2.0122397 -1.5782899 260 0 0 0 40.347393
5.2790928 2.8709695 2.6456251 367 0 0 0 40.347393
3.4969189 2.5169146 -1.2233113 310 0 0 0 40.347393
5.851687 2.3920536 3.2568889 263 0 0 0 40.347393
4.1761694 2.9244163 0.33098581 24 0 0 0 40.347393
6.705719 2.8968742 1.6909288 357 0 0 0 40.347393
4.3233504 3.0824585 -0.96294707 257 0 0 0 40.347393
3.4203956 1.9830863 -1.5164518 321 0 0 0 40.347393
5.5432091 2.1909873 3.8765635 204 0 0 0 40.347393
4.4115157 3.1115613 -0.17588939 82 0 0 0 40.347393
4.606555 2.4009962 4.0833006 167 0 0 0 40.347393
4.1718659 3.5664313 2.6465173 142 0 0 0 40.347393
5.433229 2.974436 2.3684611 374 0 0 0 40.347393
3.9478397 3.4393773 -0.74335825 255 0 0 0 40.347393
3.8669529 2.7699668 -1.1019474 255 0 0 0 40.347393
4.6994152 2.7022469 -1.2098494 242 0 0 0 40.347393
6.6739149 3.7905436 -0.19721784 302 0 0 0 40.347393
4.4430547 3.788547 2.1276443 28 0 0 0 40.347393
4.6553688 3.985543 0.63784552 615 0 0 0 40.347393
6.6629677 2.9905078 -1.2153038 138 0 0 0 40.347393
3.6325438 1.6312641 -1.7341775 378 0 0 0 40.347393
5.6988077 2.2915063 3.565974 225 0 0 0 40.347393
5.2381959 4.4699221 2.9003012 77 0 0 0 40.347393
3.7545373 2.5495644 4.3170471 161 0 0 0 40.347393
4.7436924 3.2702339 2.1460838 528 0 0 0 40.347393
4.2848983 3.011975 0.084223323 234 0 0 0 40.347393
4.8733082 3.3673899 1.8802673 504 0 0 0 40.347393
7.8657718 3.5228007 -1.006358 75 0 0 0 40.347393
2.8890817 2.5629652 -1.1415461 347 0 0 0 40.347393
3.5886338 3.0962336 3.2539258 374 0 0 0 40.347393
4.8847928 3.4718118 -0.79059708 213 0 0 0 40.347393
8.5736055 3.8170125 -0.1728123 75 0 0 0 40.347393
4.4914036 3.082876 2.6705904 388 0 0 0 40.347393
4.3829365 3.0021465 2.9427285 396 0 0 0 40.347393
4.2643743 2.9152691 3.2105424 305 0 0 0 40.347393
3.1645157 2.2887595 -1.3180029 332 0 0 0 40.347393
3.0691044 2.7184989 4.2919865 215 0 0 0 40.347393
4.7349358 2.4944923 3.7828531 227 0 0 0 40.347393
5.1001415 3.5420804 1.3191944 553 0 0 0 40.347393
3.4714286 3.0095093 3.5119562 317 0 0 0 40.347393
5.9987421 2.4863963 2.9449687 280 0 0 0 40.347393
6.4044709 2.6706016 2.3446677 308 0 0 0 40.448002
3.7783473 2.5317614 4.324173 155 0 0 0 40.448002
5.1315441 3.5178287 1.3201076 479 0 0 0 40.448002
3.3628309 2.8962941 3.7688794 220 0 0 0 40.448002
8.327426 3.6297133 0.27867764 61 0 0 0 40.448002
3.9878724 3.4321649 -0.74841243 221 0 0 0 40.448002
4.6501775 2.3875933 4.1065698 150 0 0 0 40.448002
6.4664192 3.5454068 1.6288265 100 0 0 0 40.448002
3.8022301 2.1676841 -1.4370184 329 0 0 0 40.448002
4.0393119 2.7150257 3.7572849 252 0 0 0 40.448002
3.9008002 2.7588348 -1.1082556 282 0 0 0 40.448002
3.8478479 3.2560344 2.7508671 477 0 0 0 40.448002
5.2348928 4.4120593 2.8817849 79 0 0 0 40.448002
5.3286176 2.8559413 2.6596446 339 0 0 0 40.448002
5.4756627 2.9544547 2.3771076 391 0 0 0 40.448002
5.6067638 2.1766987 3.9091403 161 0 0 0 40.448002
8.5052881 3.7373466 -0.6284796 212 0 0 0 40.448002
4.6492958 3.1555786 2.4144042 451 0 0 0 40.448002
3.3164017 1.461253 -1.8011971 358 0 0 0 40.448002
6.7585931 2.8711789 1.6976118 315 0 0 0 40.448002
3.2373762 2.8079453 4.0392842 212 0 0 0 40.448002
4.7684655 2.4215415 4.662344 25 0 0 0 40.448002
6.9355316 3.8969152 -0.59643543 269 0 0 0 40.448002
4.2170062 3.5972598 -0.23914579 10 0 0 0 40.448002
4.5449915 3.0789165 2.6893287 480 0 0 0 40.448002
2.9272401 2.5655477 -1.1518232 334 0 0 0 40.448002
5.8046842 3.9919565 1.1362793 153 0 0 0 40.448002
4.8179426 4.0849957 0.34149525 387 0 0 0 40.448002
3.1065378 2.7173049 4.3184495 223 0 0 0 40.448002
4.5222507 2.002835 -1.5940583 278 0 0 0 40.448002
3.7347322 3.1699023 3.0059042 431 0 0 0 40.448002
4.7054291 3.9791496 0.63975966 593 0 0 0 40.448002
7.1188436 3.0695767 1.0066701 305 0 0 0 40.448002
5.6398087 3.9406784 -0.57496732 129 0 0 0 40.448002
6.9484839 2.974108 1.3610249 305 0 0 0 40.448002
4.0560532 1.7945246 -1.6760126 328 0 0 0 40.448002
6.2547679 4.3551455 -0.26589227 75 0 0 0 40.448002
3.4488573 1.972017 -1.5251814 343 0 0 0 40.448002
6.7292686 2.971632 -1.2264141 121 0 0 0 40.448002
3.8096399 2.5478415 4.8366227 42 0 0 0 40.448002
6.4884815 3.5759795 1.2610941 152 0 0 0 40.448002
6.2097678 3.4992144 -0.88371414 122 0 0 0 40.448002
6.7324262 3.7701151 -0.20044863 329 0 0 0 40.448002
4.3870244 3.7586293 -0.5363664 59 0 0 0 40.448002
5.0608501 2.673013 3.2324162 345 0 0 0 40.448002
3.1833193 2.2733727 -1.3212568 314 0 0 0 40.448002
6.0854411 2.47909 2.9776428 211 0 0 0 40.448002
4.8075786 4.0868874 0.031788323 15 0 0 0 40.448002
3.6220639 3.0863264 3.2652223 331 0 0 0 40.448002
5.1013613 2.2589338 -1.5004209 229 0 0 0 40.448002
5.2799768 1.9594457 4.537972 71 0 0 0 40.448002
5.7987642 2.566479 -1.3770592 155 0 0 0 40.448002
5.3821521 3.04286 -1.0715302 200 0 0 0 40.448002
4.7735157 2.4775891 3.7992737 198 0 0 0 40.448002
4.3689737 3.0754409 -0.9705677 250 0 0 0 40.448002
5.9880667 3.2507198 2.2228813 110 0 0 0 40.448002
6.2311482 2.5705805 2.6585491 267 0 0 0 40.448002
8.5635414 3.7505946 -0.17449279 61 0 0 0 40.448002
5.1849208 2.760874 2.9405377 353 0 0 0 40.448002
7.97294 3.5131881 -1.0201225 68 0 0 0 40.448002
3.56756 3.0867238 -0.90646785 254 0 0 0 40.448002
4.4906902 3.7833591 1.5023333 412 0 0 0 40.448002
4.7449989 2.6905608 -1.2191221 224 0 0 0 40.448002
4.2983608 2.8999646 3.2208157 353 0 0 0 40.448002
4.9085674 2.5717142 3.5089631 230 0 0 0 40.448002
4.7927113 3.2610576 2.1574268 484 0 0 0 40.448002
6.5138035 3.6203701 0.5339039 386 0 0 0 40.448002
4.5992393 3.8819771 0.92292577 569 0 0 0 40.448002
4.4156461 2.9849706 2.9505639 360 0 0 0 40.448002
4.5428882 3.8232903 1.8357499 277 0 0 0 40.448002
5.0290141 3.4388452 1.6082469 506 0 0 0 40.448002
3.9195683 2.6306226 4.0459542 195 0 0 0 40.448002
6.5709591 3.6353991 0.90496647 360 0 0 0 40.448002
4.2106705 3.5551512 2.6555891 129 0 0 0 40.448002
4.357904 2.1837997 4.7147908 89 0 0 0 40.448002
5.9268928 4.0857034 0.80502695 111 0 0 0 40.448002
3.2207203 2.8045309 -1.0386292 306 0 0 0 40.448002
3.4978244 2.9947486 3.518158 296 0 0 0 40.448002
4.2289896 2.4043379 -1.3387027 264 0 0 0 40.448002
6.5544434 3.6551661 0.17138399 383 0 0 0 40.448002
5.7745748 2.195816 4.4759226 12 0 0 0 40.448002
4.2185206 2.9161272 0.33146846 141 0 0 0 40.448002
4.4556909 3.7525573 2.1212292 173 0 0 0 40.448002
3.5242567 2.504565 -1.2288746 293 0 0 0 40.448002
4.3219671 2.9991019 0.083147496 187 0 0 0 40.448002
5.9123988 2.3749759 3.2802107 218 0 0 0 40.448002
8.0658941 3.4988732 0.70169771 55 0 0 0 40.448002
6.3274808 3.4523473 1.9656168 105 0 0 0 40.448002
4.1641641 2.8041406 3.4823546 324 0 0 0 40.448002
4.489038 3.7856398 1.1977949 627 0 0 0 40.448002
4.9106836 3.3491786 1.8850733 469 0 0 0 40.448002
4.9395471 3.4660597 -0.79783571 187 0 0 0 40.448002
5.7441778 2.2691929 3.5832927 208 0 0 0 40.448002
3.6643937 1.6192002 -1.7462623 368 0 0 0 40.448002
6.6270676 2.7909677 2.040576 328 0 0 0 40.448002
5.1392589 2.2387671 -1.5093628 205 0 0 0 40.542976
3.4765065 1.9602076 -1.5335414 364 0 0 0 40.542976
6.2704682 3.4836926 -0.89144218 133 0 0 0 40.542976
7.1814184 3.0450509 1.0105914 266 0 0 0 40.542976
4.8128076 2.4606507 3.8162696 210 0 0 0 40.542976
5.8478031 2.5461166 -1.387037 156 0 0 0 40.542976
4.517148 3.7547967 1.8149184 473 0 0 0 40.542976
4.6896033 2.3715804 4.1261454 179 0 0 0 40.542976
5.46206 3.0447133 -1.085867 197 0 0 0 40.542976
5.8609509 3.9783919 1.1406022 130 0 0 0 40.542976
6.5547404 3.5746174 0.89800113 347 0 0 0 40.542976
5.2154727 4.3413835 2.8548474 89 0 0 0 40.542976
4.6449666 3.8724308 0.92579448 557 0 0 0 40.542976
4.4203281 3.0718913 -0.97949302 264 0 0 0 40.542976
6.2982469 4.3290653 -0.2685695 98 0 0 0 40.542976
5.0702572 3.4218979 1.6130342 495 0 0 0 40.542976
6.2784119 2.5454781 2.6698434 242 0 0 0 40.542976
6.032598 3.2274737 2.2300265 94 0 0 0 40.542976
5.1087952 2.6585062 3.2504952 258 0 0 0 40.542976
3.9486134 2.614908 4.0571241 175 0 0 0 40.542976
4.4885726 3.7350426 1.4927431 448 0 0 0 40.542976
4.5630512 3.8617501 -0.55776346 142 0 0 0 40.542976
6.127418 2.4527843 2.988591 255 0 0 0 40.542976
4.0809031 1.7762351 -1.6833342 350 0 0 0 40.542976
4.8363538 3.2477167 2.1663582 451 0 0 0 40.542976
6.8145666 2.9602957 -1.2411045 109 0 0 0 40.542976
4.942327 2.5509534 3.5197799 245 0 0 0 40.542976
5.3003368 1.9302075 4.5427141 57 0 0 0 40.542976
4.7889214 2.6774518 -1.227945 234 0 0 0 40.542976
3.9290848 2.7434845 -1.1129183 302 0 0 0 40.542976
8.06845 3.4972339 -1.0323403 59 0 0 0 40.542976
4.0324979 3.4284184 -0.75435311 227 0 0 0 40.542976
2.9561424 2.5596249 -1.1582797 333 0 0 0 40.542976
5.2380552 2.7482297 2.9590261 338 0 0 0 40.542976
4.194387 2.787148 3.4913414 291 0 0 0 40.542976
4.5295577 3.7728388 1.2009361 600 0 0 0 40.542976
4.2536702 3.5469708 2.6672506 136 0 0 0 40.542976
4.0798745 2.7059419 3.777396 215 0 0 0 40.542976
4.2551103 3.5641391 0.3031815 54 0 0 0 40.542976
3.2012911 2.2572877 -1.3241717 361 0 0 0 40.542976
5.7249432 3.8735678 1.4613942 130 0 0 0 40.542976
3.8824451 3.2445669 2.7597079 521 0 0 0 40.542976
6.4615426 2.6483951 2.3573828 311 0 0 0 40.542976
4.9432797 3.3274121 1.8881006 514 0 0 0 40.542976
4.5642958 1.9886818 -1.6063745 245 0 0 0 40.542976
3.8297446 2.1529508 -1.443899 345 0 0 0 40.542976
6.3683801 3.4245327 1.9697411 80 0 0 0 40.542976
5.8258443 2.2605155 3.6230643 155 0 0 0 40.542976
6.8177123 2.8475497 1.7058413 340 0 0 0 40.542976
4.2493911 2.8995352 0.33114901 143 0 0 0 40.542976
4.7510152 3.9684465 0.64109296 617 0 0 0 40.542976
3.5594349 2.4974735 -1.2372586 317 0 0 0 40.542976
4.5822558 3.0633924 2.6984663 440 0 0 0 40.542976
7.0050445 3.8804436 -0.60268235 245 0 0 0 40.542976
5.9656816 2.3542662 3.2994306 182 0 0 0 40.542976
8.4483576 3.6392519 -0.17351705 29 0 0 0 40.542976
3.6845219 1.6016876 -1.7526284 430 0 0 0 40.542976
5.8194075 2.1722765 4.4976478 26 0 0 0 40.542976
3.762558 3.1538699 3.0110309 357 0 0 0 40.542976
6.7953229 3.7515035 -0.20383388 350 0 0 0 40.542976
6.496388 3.5592785 0.52902007 338 0 0 0 40.542976
5.3757377 2.8391011 2.6724653 395 0 0 0 40.542976
3.3377571 1.4467932 -1.809423 361 0 0 0 40.542976
3.2587724 2.791219 4.0424223 207 0 0 0 40.542976
3.3883488 2.8818917 3.7756162 255 0 0 0 40.542976
3.8200076 2.5206473 4.8275442 21 0 0 0 40.542976
6.6337395 2.7463963 2.0354443 265 0 0 0 40.542976
8.4918938 3.6703012 -0.62812132 285 0 0 0 40.542976
7.0148463 2.9522831 1.368193 329 0 0 0 40.542976
3.2557395 2.8007424 -1.0457323 342 0 0 0 40.542976
4.6888766 3.140732 2.423202 466 0 0 0 40.542976
5.7372022 3.957334 -0.58464885 154 0 0 0 40.542976
6.6115475 3.6346865 0.17019066 386 0 0 0 40.542976
3.6586845 3.0787604 3.2793391 320 0 0 0 40.542976
4.3287883 2.881968 3.2284725 350 0 0 0 40.542976
4.4526978 2.9703984 2.9612923 354 0 0 0 40.542976
3.1225607 2.697175 4.3153629 198 0 0 0 40.542976
4.4774766 3.7243459 2.1192312 157 0 0 0 40.542976
6.5103688 3.5366449 1.2592119 125 0 0 0 40.542976
5.5403671 2.9459045 2.395288 312 0 0 0 40.542976
3.8014817 2.5133328 4.3306208 194 0 0 0 40.542976
4.2080846 3.5459239 -0.2383876 12 0 0 0 40.542976
4.9870944 3.4546759 -0.80383515 169 0 0 0 40.542976
4.1887074 3.5178347 0.031280283 5 0 0 0 40.542976
6.5312099 3.5294619 1.6375242 118 0 0 0 40.542976
4.2632313 2.3899536 -1.3464971 258 0 0 0 40.542976
8.1219749 3.4648645 0.70224416 57 0 0 0 40.542976
3.6030853 3.0796809 -0.91206813 285 0 0 0 40.542976
4.3839898 2.1632142 4.7260084 71 0 0 0 40.542976
5.9747701 4.065412 0.80626309 132 0 0 0 40.542976
5.6483951 2.153285 3.9265175 184 0 0 0 40.542976
4.3656487 2.9903908 0.082144924 115 0 0 0 40.542976
8.3897495 3.5965738 0.27744737 51 0 0 0 40.542976
4.7964993 2.3988068 4.6727552 43 0 0 0 40.542976
3.5217445 2.9776962 3.5219529 302 0 0 0 40.542976
4.8623052 2.4485254 3.8412757 189 0 0 0 40.642303
3.8563809 2.1375082 -1.450479 300 0 0 0 40.642303
8.1935558 3.436902 0.70402849 54 0 0 0 40.642303
3.6845267 3.0619204 3.2838659 281 0 0 0 40.642303
4.3127551 3.5516183 2.6887734 136 0 0 0 40.642303
3.9109273 3.2277925 2.764245 424 0 0 0 40.642303
3.2354443 2.2523971 -1.3340355 379 0 0 0 40.642303
6.1769366 2.4291098 3.0031931 292 0 0 0 40.642303
6.3515463 4.3093686 -0.27176511 99 0 0 0 40.642303
3.1505873 2.6873219 4.3288355 196 0 0 0 40.642303
3.7962465 3.1425462 3.0208099 376 0 0 0 40.642303
3.8405838 2.5002356 4.8314819 29 0 0 0 40.642303
6.0056472 2.3278754 3.3113446 214 0 0 0 40.642303
3.9829259 2.745553 -1.1251137 279 0 0 0 40.642303
3.5907006 2.4873211 -1.244254 298 0 0 0 40.642303
4.6037521 3.8487158 -0.56142676 180 0 0 0 40.642303
3.5041277 1.9481375 -1.5419217 328 0 0 0 40.642303
6.5572257 3.5107188 1.2620394 100 0 0 0 40.642303
7.0602646 2.9211195 1.3713464 327 0 0 0 40.642303
6.6766715 2.7167909 2.0413251 290 0 0 0 40.642303
3.3484066 1.4275701 -1.8117524 422 0 0 0 40.642303
5.8582387 2.2321067 3.6323597 197 0 0 0 40.642303
3.7112722 1.5868727 -1.7622807 381 0 0 0 40.642303
3.2800772 2.7743707 4.0455427 214 0 0 0 40.642303
6.3564086 3.4814026 -0.90295541 128 0 0 0 40.642303
6.5238562 2.6277611 2.3719563 251 0 0 0 40.642303
4.3598609 2.8642094 3.2366302 378 0 0 0 40.642303
4.1103706 3.4214134 -0.23182411 71 0 0 0 40.642303
5.7913494 3.9432604 -0.58965611 118 0 0 0 40.642303
4.8095169 2.3685112 4.6687403 29 0 0 0 40.642303
6.0341625 4.0524764 0.80894673 105 0 0 0 40.642303
5.1082473 3.402456 1.6167898 538 0 0 0 40.642303
4.6830945 3.8562095 0.92717087 611 0 0 0 40.642303
4.3986034 2.9739945 0.0810026 122 0 0 0 40.642303
4.533998 3.724695 2.1334205 383 0 0 0 40.642303
4.1082392 1.7588183 -1.6917607 311 0 0 0 40.642303
8.4761543 3.6027992 -0.62761843 237 0 0 0 40.642303
3.8257442 2.4955482 4.3384242 166 0 0 0 40.642303
2.9887016 2.5565526 -1.1662296 318 0 0 0 40.642303
4.8729606 3.2293277 2.1721592 469 0 0 0 40.642303
6.3515558 2.5302982 2.6919994 264 0 0 0 40.642303
4.4628725 3.0617275 -0.98640162 227 0 0 0 40.642303
3.5443544 2.9594753 3.5245199 281 0 0 0 40.642303
5.228179 4.2980895 2.8455954 67 0 0 0 40.642303
5.1797428 2.2193739 -1.5191327 232 0 0 0 40.642303
3.648385 3.0805428 -0.92026454 317 0 0 0 40.642303
4.2355762 2.7771521 3.5093744 299 0 0 0 40.642303
6.8678813 3.7375481 -0.20760827 336 0 0 0 40.642303
6.509181 3.5151608 0.5264588 380 0 0 0 40.642303
6.9452477 2.9674411 -1.264367 77 0 0 0 40.642303
8.1932507 3.4927459 -1.048502 69 0 0 0 40.642303
5.3381686 1.9071585 4.5624423 9 0 0 0 40.642303
4.0847845 3.4306211 -0.76181567 258 0 0 0 40.642303
5.2729235 2.7256076 2.9672661 374 0 0 0 40.642303
5.7535763 3.8421443 1.4609151 138 0 0 0 40.642303
4.6089363 1.9752231 -1.619664 269 0 0 0 40.642303
6.0804286 3.2056177 2.2383637 85 0 0 0 40.642303
4.4762712 3.6789124 1.4799931 580 0 0 0 40.642303
4.5247588 3.7146907 1.8074616 474 0 0 0 40.642303
5.5728493 2.9197636 2.399668 366 0 0 0 40.642303
5.4204054 2.8205574 2.684057 387 0 0 0 40.642303
4.7198353 2.3506434 4.1376972 146 0 0 0 40.642303
5.9084492 2.5302689 -1.3998946 185 0 0 0 40.642303
4.8473434 2.6719198 -1.2406386 223 0 0 0 40.642303
4.731514 3.1275809 2.4335327 445 0 0 0 40.642303
5.9057627 3.9566197 1.1427248 110 0 0 0 40.642303
4.4897304 2.955519 2.9719934 352 0 0 0 40.642303
5.6875901 2.128603 3.9422405 167 0 0 0 40.642303
6.8740811 2.8222289 1.7133685 285 0 0 0 40.642303
4.61724 3.0460742 2.7062683 423 0 0 0 40.642303
5.8451252 2.141324 4.5047374 31 0 0 0 40.642303
4.2589808 3.5236912 0.30080405 55 0 0 0 40.642303
3.4091225 2.86339 3.7771764 234 0 0 0 40.642303
4.3167949 2.3859608 -1.3606145 277 0 0 0 40.642303
4.2045422 3.4879508 0.030032519 10 0 0 0 40.642303
5.0452981 3.4501219 -0.81166506 165 0 0 0 40.642303
6.5753345 3.5018594 1.6411083 96 0 0 0 40.642303
8.4931898 3.5978067 -0.17653906 51 0 0 0 40.642303
8.4528837 3.563231 0.27620015 46 0 0 0 40.642303
4.3827558 2.1291893 4.7081017 22 0 0 0 40.642303
6.6730242 3.616055 0.16904412 357 0 0 0 40.642303
4.3017354 2.8971913 0.33229077 126 0 0 0 40.642303
4.7981668 3.9586232 0.64258593 595 0 0 0 40.642303
3.2856441 2.7922471 -1.0511398 350 0 0 0 40.642303
4.1065269 2.6873765 3.7847056 229 0 0 0 40.642303
5.1443281 2.6371779 3.2607272 283 0 0 0 40.642303
3.9782469 2.5993905 4.0689206 179 0 0 0 40.642303
5.5102658 3.0281706 -1.0936831 191 0 0 0 40.642303
8.0020838 3.3365576 1.1171782 56 0 0 0 40.642303
6.5485106 3.5198402 0.89241487 376 0 0 0 40.642303
7.0597248 3.8551655 -0.60761541 205 0 0 0 40.642303
4.9805546 3.3085701 1.8928876 465 0 0 0 40.642303
4.5738649 3.7628219 1.205017 587 0 0 0 40.642303
4.991107 2.5375969 3.541209 246 0 0 0 40.642303
6.4066048 3.3950238 1.9730583 107 0 0 0 40.642303
3.8587313 2.4781692 4.8325267 21 0 0 0 40.739586
6.5764632 2.6026113 2.3830359 214 0 0 0 40.739586
7.149353 2.9073429 1.3827654 253 0 0 0 40.739586
3.1881733 2.6852548 4.3552728 153 0 0 0 40.739586
6.5960045 3.4615691 1.6389897 49 0 0 0 40.739586
4.6474586 1.9587009 -1.6307613 228 0 0 0 40.739586
4.1273489 3.4241064 -0.76735514 264 0 0 0 40.739586
4.6506071 3.8403871 -0.56589538 186 0 0 0 40.739586
4.6189852 3.7530169 1.2092837 631 0 0 0 40.739586
4.034523 2.7454219 -1.1366225 315 0 0 0 40.739586
4.7227383 3.8409073 0.92883414 610 0 0 0 40.739586
7.0081434 2.9444237 -1.2748933 89 0 0 0 40.739586
8.0582466 3.3027728 1.1197075 53 0 0 0 40.739586
3.5333595 1.9366938 -1.5510445 334 0 0 0 40.739586
4.9573975 4.0505266 0.34121218 381 0 0 0 40.739586
5.1470017 3.3832035 1.6207904 523 0 0 0 40.739586
6.7561541 2.7014439 2.0582082 313 0 0 0 40.739586
5.3252807 2.7116079 2.9852641 291 0 0 0 40.739586
3.8970933 2.1295435 -1.4625267 330 0 0 0 40.739586
3.4545393 2.8652184 3.8058002 308 0 0 0 40.739586
8.2577276 3.4051406 0.70519286 67 0 0 0 40.739586
3.2103696 1.7639148 -1.6226964 370 0 0 0 40.739586
5.1875863 2.6194458 3.2758343 288 0 0 0 40.739586
4.5782657 3.7144134 2.1418576 185 0 0 0 40.739586
3.5711832 2.9446297 3.5313153 265 0 0 0 40.739586
6.3915591 4.2802792 -0.27432114 96 0 0 0 40.739586
5.4764776 2.80743 2.7012177 333 0 0 0 40.739586
5.7290664 2.104388 3.9595799 169 0 0 0 40.739586
6.047184 2.3017125 3.3241582 213 0 0 0 40.739586
4.5326376 2.9441135 2.9865313 380 0 0 0 40.739586
6.1299114 3.1841691 2.2473023 112 0 0 0 40.739586
3.686296 3.0746884 -0.92649502 300 0 0 0 40.739586
4.4456635 2.9667366 0.079993024 147 0 0 0 40.739586
6.9385381 2.7996092 1.7228655 283 0 0 0 40.739586
4.3620214 2.3767924 -1.3720096 284 0 0 0 40.739586
8.5214663 3.5315404 0.27509278 70 0 0 0 40.739586
3.3192811 2.7865994 -1.0577831 325 0 0 0 40.739586
3.6259334 2.4795821 -1.2526709 292 0 0 0 40.739586
4.3980308 2.8508046 3.2500255 312 0 0 0 40.739586
5.1282573 3.4616029 -0.82366246 152 0 0 0 40.739586
4.8998818 2.6625106 -1.2517695 214 0 0 0 40.739586
4.3932915 2.9202859 0.33608943 81 0 0 0 40.739586
5.6093798 2.8954759 2.4058077 340 0 0 0 40.739586
4.74716 2.3280301 4.1467853 141 0 0 0 40.739586
3.7090235 3.0438263 3.2872674 280 0 0 0 40.739586
4.3433328 3.5323355 2.6926498 130 0 0 0 40.739586
8.5433712 3.5582469 -0.17970665 192 0 0 0 40.739586
5.2228422 2.2006886 -1.5297155 222 0 0 0 40.739586
4.8971758 2.4286003 3.854789 187 0 0 0 40.739586
3.3147626 2.7685826 4.0650606 231 0 0 0 40.739586
3.3704381 1.4131052 -1.8204496 333 0 0 0 40.739586
5.8970008 2.2058146 3.6456387 178 0 0 0 40.739586
8.4599161 3.5356095 -0.62708545 268 0 0 0 40.739586
5.8393745 2.098845 4.4878817 20 0 0 0 40.739586
3.8493235 2.4771628 4.3455396 203 0 0 0 40.739586
4.1423802 1.7440304 -1.7030935 299 0 0 0 40.739586
5.0249743 3.2941012 1.9003453 506 0 0 0 40.739586
4.2719655 2.7636209 3.5234311 322 0 0 0 40.739586
7.6303549 4.1073103 -0.65982616 65 0 0 0 40.739586
5.949707 3.9338956 1.1446869 125 0 0 0 40.739586
4.8250613 2.3394587 4.6673493 29 0 0 0 40.739586
6.5462499 3.4675858 0.88742352 428 0 0 0 40.739586
4.7803421 3.1180444 2.4469771 415 0 0 0 40.739586
4.0040021 2.5811284 4.0768251 179 0 0 0 40.739586
4.4281178 3.5958714 2.4010839 43 0 0 0 40.739586
6.1010842 4.0439038 0.81256741 125 0 0 0 40.739586
6.7371683 3.5982151 0.16793278 324 0 0 0 40.739586
6.4039392 2.5061502 2.7054193 256 0 0 0 40.739586
4.5119643 3.0555596 -0.99481523 227 0 0 0 40.739586
5.5965338 3.0317862 -1.1093396 139 0 0 0 40.739586
6.4644027 3.3754575 1.9823194 100 0 0 0 40.739586
4.1355762 3.4002624 -0.23335193 183 0 0 0 40.739586
4.5171771 3.6625779 1.7942114 450 0 0 0 40.739586
6.9458065 3.7256761 -0.21159472 301 0 0 0 40.739586
5.8314867 3.9192216 -0.59315127 144 0 0 0 40.739586
3.2719882 2.2487731 -1.3448995 340 0 0 0 40.739586
4.8484674 3.9508786 0.644458 548 0 0 0 40.739586
4.6469078 3.0250001 2.7110147 413 0 0 0 40.739586
6.222146 2.4032691 3.0157371 248 0 0 0 40.739586
6.58918 3.4765122 1.2620904 287 0 0 0 40.739586
5.0293179 2.5184219 3.5551813 227 0 0 0 40.739586
6.4285908 3.4706457 -0.9124313 99 0 0 0 40.739586
3.8259706 3.1276813 3.0274687 370 0 0 0 40.739586
4.9103131 3.2111206 2.1782992 441 0 0 0 40.739586
4.2023754 3.4434302 0.028827891 8 0 0 0 40.739586
4.1451159 2.6763303 3.8029578 201 0 0 0 40.739586
8.3127956 3.4845536 -1.0639859 68 0 0 0 40.739586
6.0050693 2.5289481 -1.4215405 169 0 0 0 40.739586
3.0147586 2.5476277 -1.1715372 338 0 0 0 40.739586
3.7320924 1.5693016 -1.7690755 423 0 0 0 40.739586
5.7787728 3.8083513 1.4596304 150 0 0 0 40.739586
6.5560293 3.4893031 0.52648348 356 0 0 0 40.739586
4.5071621 3.6584992 1.4813285 592 0 0 0 40.739586
3.9482265 3.2180066 2.774956 442 0 0 0 40.739586
4.8254151 2.3031521 4.651557 36 0 0 0 40.838402
4.5836177 3.6725676 2.1324 366 0 0 0 40.838402
3.0408115 2.5384803 -1.1768577 308 0 0 0 40.838402
7.6795449 4.0741172 -0.66430241 59 0 0 0 40.838402
4.4333301 2.8352227 3.261306 284 0 0 0 40.838402
6.8022184 3.5802045 0.16680567 318 0 0 0 40.838402
3.7536736 1.5518847 -1.7762893 387 0 0 0 40.838402
5.8431783 3.8000333 1.4680226 156 0 0 0 40.838402
6.5383072 3.4127386 0.88175285 366 0 0 0 40.838402
3.8801894 2.4632778 4.3608794 190 0 0 0 40.838402
4.4022031 2.3644307 -1.3817825 292 0 0 0 40.838402
3.3425133 2.7719927 -1.0609931 316 0 0 0 40.838402
8.4426184 3.479212 -1.080874 77 0 0 0 40.838402
4.5701203 3.0549154 -1.0053128 245 0 0 0 40.838402
4.2138181 3.4103856 0.027596056 9 0 0 0 40.838402
4.1696601 2.6559761 3.8084264 220 0 0 0 40.838402
5.1851535 3.4546363 -0.83126998 177 0 0 0 40.838402
6.1781054 4.0412111 0.81741935 133 0 0 0 40.838402
4.3541102 3.4970071 2.6844795 154 0 0 0 40.838402
4.4335213 2.9084318 0.33632639 47 0 0 0 40.838402
5.9861407 3.9059355 1.145244 164 0 0 0 40.838402
4.6903234 1.9436055 -1.6434555 279 0 0 0 40.838402
8.1280956 3.2740123 1.1240621 53 0 0 0 40.838402
5.3640494 2.6902544 2.9956951 268 0 0 0 40.838402
4.7654505 3.8277521 0.93105924 591 0 0 0 40.838402
4.9515681 3.1951375 2.1861403 462 0 0 0 40.838402
6.6054482 3.4644072 0.52668273 352 0 0 0 40.838402
5.0036936 4.0380068 0.3410612 555 0 0 0 40.838402
4.784327 2.3099964 4.1644664 185 0 0 0 40.838402
4.9567666 2.6548653 -1.2640594 198 0 0 0 40.838402
6.6245861 2.5752141 2.3925107 234 0 0 0 40.838402
7.0026288 3.701786 -0.21485682 323 0 0 0 40.838402
6.4493079 2.4787967 2.7159121 257 0 0 0 40.838402
6.4999905 3.4586792 -0.92181528 84 0 0 0 40.838402
3.6029098 2.9336057 3.542928 277 0 0 0 40.838402
4.8253579 3.1055536 2.458446 419 0 0 0 40.838402
4.9290423 2.4069221 3.8659911 148 0 0 0 40.838402
5.8501515 2.0624888 4.4838767 22 0 0 0 40.838402
4.5143514 3.6148887 1.7830006 366 0 0 0 40.838402
5.4187016 4.3994331 -0.31753758 181 0 0 0 40.838402
4.5733585 2.9308925 2.9996068 305 0 0 0 40.838402
3.3545785 2.7666709 4.0907083 200 0 0 0 40.838402
5.9356618 2.1791537 3.6588991 190 0 0 0 40.838402
6.0568185 2.5078497 -1.4322655 128 0 0 0 40.838402
3.3874753 1.3963795 -1.8264264 346 0 0 0 40.838402
4.4911218 2.9579232 0.078943476 147 0 0 0 40.838402
4.5447817 3.6433148 1.4848289 554 0 0 0 40.838402
5.2136302 2.5927455 3.2801859 240 0 0 0 40.838402
6.0093131 3.9862328 -0.61159086 95 0 0 0 40.838402
6.5479641 3.3685958 1.9993016 102 0 0 0 40.838402
7.0156646 2.7813675 1.7354141 343 0 0 0 40.838402
5.2970381 2.1945009 -1.5496906 242 0 0 0 40.838402
5.2230797 3.3878534 1.6362606 217 0 0 0 40.838402
3.9786909 3.2023873 2.7809005 440 0 0 0 40.838402
8.5212297 3.4886341 -0.18104827 257 0 0 0 40.838402
4.3020954 2.7457776 3.5323722 293 0 0 0 40.838402
3.7182081 3.0635054 -0.93116069 298 0 0 0 40.838402
3.939508 2.1220627 -1.4752387 344 0 0 0 40.838402
5.635304 3.0089579 -1.1152432 172 0 0 0 40.838402
7.0491557 2.9117129 -1.2813509 93 0 0 0 40.838402
5.0806265 3.2864871 1.91194 506 0 0 0 40.838402
4.0258236 2.5602152 4.0808315 185 0 0 0 40.838402
3.2445307 1.7574289 -1.6360761 374 0 0 0 40.838402
3.7379344 3.0292039 3.2945929 321 0 0 0 40.838402
3.4746487 2.8458018 3.8067014 256 0 0 0 40.838402
8.3402891 3.3802416 0.7078172 50 0 0 0 40.838402
6.4189429 4.2426057 -0.27628338 200 0 0 0 40.838402
4.1799278 1.7303222 -1.7158946 317 0 0 0 40.838402
4.6549659 3.7354493 1.211202 592 0 0 0 40.838402
5.0803947 2.5052693 3.5781689 193 0 0 0 40.838402
4.4807358 3.5933046 2.4158907 163 0 0 0 40.838402
3.8589804 3.1152678 3.0367086 360 0 0 0 40.838402
5.519496 2.7871218 2.7119768 337 0 0 0 40.838402
3.6516581 2.4650683 -1.2577059 343 0 0 0 40.838402
5.6474872 2.871716 2.4126344 380 0 0 0 40.838402
4.0660834 2.7312179 -1.1422793 259 0 0 0 40.838402
3.3093791 2.2453175 -1.3561134 365 0 0 0 40.838402
4.7013803 3.8347778 -0.5708887 209 0 0 0 40.838402
4.8872104 3.9333224 0.6448521 540 0 0 0 40.838402
4.1791592 3.4247193 -0.77470809 297 0 0 0 40.838402
8.5381355 3.4780114 0.27251518 46 0 0 0 40.838402
4.687849 3.0109885 2.722281 427 0 0 0 40.838402
3.5568519 1.9218686 -1.5576018 320 0 0 0 40.838402
6.0969701 2.2782757 3.3414915 200 0 0 0 40.838402
3.2178514 2.6762044 4.3708863 195 0 0 0 40.838402
6.8079109 2.6743102 2.0667326 288 0 0 0 40.838402
8.4643888 3.4774866 -0.62820959 260 0 0 0 40.838402
5.7704639 2.0797682 3.9768994 196 0 0 0 40.838402
6.6016989 3.4320395 1.2585508 363 0 0 0 40.838402
3.8662477 2.4493458 4.8205433 22 0 0 0 40.838402
6.1742725 3.1596484 2.2543831 89 0 0 0 40.838402
7.1946383 2.8750315 1.3858756 243 0 0 0 40.838402
6.532208 3.3775904 1.6164247 137 0 0 0 40.838402
6.2783613 2.3812027 3.0335724 262 0 0 0 40.838402
4.2071099 1.7119843 -1.7243463 304 0 0 0 40.933121
4.0481901 2.5395167 4.0854921 206 0 0 0 40.933121
6.6610212 3.4422269 0.5273388 367 0 0 0 40.933121
5.3419137 2.1754591 -1.5608464 209 0 0 0 40.933121
4.9951968 3.1802652 2.1950119 465 0 0 0 40.933121
4.3217125 2.7210643 3.5328231 289 0 0 0 40.933121
5.2446427 3.4487233 -0.83930236 195 0 0 0 40.933121
8.5008383 3.4325025 -0.63186032 217 0 0 0 40.933121
8.5198984 3.4279885 -0.18289943 279 0 0 0 40.933121
4.60958 3.0412235 -1.0115129 201 0 0 0 40.933121
5.1202836 3.2680256 1.9175893 532 0 0 0 40.933121
8.5055428 3.4451582 -1.0888946 70 0 0 0 40.933121
4.6878376 3.7151303 1.2123507 618 0 0 0 40.933121
3.9054885 2.445616 4.3700447 185 0 0 0 40.933121
4.5723848 3.6179314 2.115551 438 0 0 0 40.933121
3.066133 2.5284951 -1.1818814 313 0 0 0 40.933121
3.6757507 2.449261 -1.262171 287 0 0 0 40.933121
5.9101815 3.7926404 1.4770101 146 0 0 0 40.933121
6.5230336 4.2226682 0.47443166 36 0 0 0 40.933121
4.7366891 1.9294858 -1.6574211 282 0 0 0 40.933121
8.2006683 3.2455959 1.128774 42 0 0 0 40.933121
3.781096 1.5366676 -1.7863699 375 0 0 0 40.933121
7.1694326 2.9108956 -1.3026947 106 0 0 0 40.933121
5.9954305 2.1597381 3.685107 150 0 0 0 40.933121
4.2055497 2.6425843 3.8242304 236 0 0 0 40.933121
3.2400346 2.660718 4.3764195 164 0 0 0 40.933121
3.3792031 2.7519202 4.0979147 236 0 0 0 40.933121
4.4432487 2.352107 -1.3918352 263 0 0 0 40.933121
5.8220844 2.058351 4.0012527 159 0 0 0 40.933121
5.8445888 2.0204654 4.467629 25 0 0 0 40.933121
4.5366449 2.9486523 0.077888906 129 0 0 0 40.933121
4.1041069 2.7210171 -1.1498181 273 0 0 0 40.933121
4.7871437 3.8567517 -0.58040291 194 0 0 0 40.933121
7.2700548 2.8541529 1.3946559 144 0 0 0 40.933121
4.2349792 3.4279253 -0.78281558 241 0 0 0 40.933121
4.50453 3.5672987 2.4153414 163 0 0 0 40.933121
3.413507 1.3831838 -1.8374113 376 0 0 0 40.933121
3.8840961 2.4270856 4.8215914 23 0 0 0 40.933121
6.5712795 3.3473251 1.6189679 96 0 0 0 40.933121
6.2355762 3.1432619 2.2675686 97 0 0 0 40.933121
5.5583739 2.7643287 2.7207427 368 0 0 0 40.933121
6.5050511 2.454917 2.7307491 207 0 0 0 40.933121
6.5334821 3.3599107 0.87656909 395 0 0 0 40.933121
5.7027392 3.0008876 -1.1270341 183 0 0 0 40.933121
3.6327796 2.9207902 3.5527318 274 0 0 0 40.933121
6.8784666 2.6539187 2.0808794 284 0 0 0 40.933121
3.7539306 3.0551293 -0.93681544 272 0 0 0 40.933121
6.3362613 2.3591564 3.0522134 238 0 0 0 40.933121
8.4599113 3.3692193 0.71339583 57 0 0 0 40.933121
5.1162724 2.4841602 3.590523 171 0 0 0 40.933121
4.8081884 3.8142025 0.93328589 619 0 0 0 40.933121
4.6022334 2.9097664 3.0050004 341 0 0 0 40.933121
6.5732422 3.4468765 -0.93147361 100 0 0 0 40.933121
5.4685411 4.3852606 -0.32066652 159 0 0 0 40.933121
7.0505629 3.6727014 -0.21780194 336 0 0 0 40.933121
3.8886461 3.0998895 3.0433569 380 0 0 0 40.933121
5.2583609 2.5750253 3.2962482 256 0 0 0 40.933121
6.1311178 2.4954133 -1.4484924 156 0 0 0 40.933121
6.2227454 4.0166793 0.81815106 109 0 0 0 40.933121
4.4998522 3.5584524 1.7674685 490 0 0 0 40.933121
3.7668133 3.0143249 3.3019223 353 0 0 0 40.933121
6.6779456 2.5493381 2.4038727 221 0 0 0 40.933121
6.0598412 3.9672065 -0.61622226 113 0 0 0 40.933121
4.5831556 3.6283932 1.4885747 529 0 0 0 40.933121
4.8719654 3.0935988 2.4706917 413 0 0 0 40.933121
3.9777958 2.1119127 -1.4863498 345 0 0 0 40.933121
3.5843987 1.9090084 -1.5660024 380 0 0 0 40.933121
4.7326055 2.9989805 2.7357221 374 0 0 0 40.933121
4.9851947 2.3966486 3.8961182 208 0 0 0 40.933121
6.1559062 2.2576776 3.3638072 219 0 0 0 40.933121
6.5910988 3.3758168 1.2508103 364 0 0 0 40.933121
5.0594082 4.0325236 0.34147713 466 0 0 0 40.933121
4.1875157 3.3473654 0.026477942 30 0 0 0 40.933121
4.9930735 2.6356916 -1.2709236 215 0 0 0 40.933121
6.6058464 3.3477106 2.0085189 95 0 0 0 40.933121
4.92593 3.9154251 0.6452508 561 0 0 0 40.933121
7.0592127 2.7491472 1.7398 302 0 0 0 40.933121
3.5059655 2.8353586 3.8198466 267 0 0 0 40.933121
5.6997466 2.8547089 2.4254463 372 0 0 0 40.933121
5.4019613 2.6681106 3.005682 284 0 0 0 40.933121
6.8708577 3.5633574 0.16573544 356 0 0 0 40.933121
8.5322094 3.415453 0.26934817 65 0 0 0 40.933121
4.8243093 2.2929313 4.1846032 170 0 0 0 40.933121
3.2650931 1.7432899 -1.642406 343 0 0 0 40.933121
3.3319523 2.2315052 -1.3610467 403 0 0 0 40.933121
6.4352384 4.1976414 -0.27769676 253 0 0 0 40.933121
6.035759 3.8862157 1.1482646 130 0 0 0 40.933121
3.3679492 2.7590387 -1.0649377 253 0 0 0 40.933121
4.3490496 3.4493232 2.6668773 197 0 0 0 40.933121
4.8309751 2.2694781 4.641016 35 0 0 0 40.933121
5.7708707 3.6933753 1.7959306 124 0 0 0 40.933121
7.7268577 4.0395303 -0.66861397 53 0 0 0 40.933121
4.4664502 2.8179345 3.2710164 278 0 0 0 40.933121
4.0125685 3.1892352 2.7892225 452 0 0 0 40.933121
5.6021113 2.7436399 2.7318606 349 0 0 0 41.034496
6.3028679 3.1292648 2.2828393 87 0 0 0 41.034496
4.9716415 3.9027607 0.64647663 585 0 0 0 41.034496
8.5286131 3.3542395 0.26624346 94 0 0 0 41.034496
4.149456 2.7152567 -1.1595124 326 0 0 0 41.034496
5.7561965 2.8392947 2.4399741 376 0 0 0 41.034496
4.0450354 3.1747465 2.7965617 420 0 0 0 41.034496
8.2815027 3.2197127 1.134536 71 0 0 0 41.034496
4.7759938 1.9120575 -1.6688948 297 0 0 0 41.034496
4.3435459 3.4018714 2.6492629 237 0 0 0 41.034496
6.1220403 3.8893914 1.1579829 131 0 0 0 41.034496
3.3646984 2.224273 -1.3703074 353 0 0 0 41.034496
3.5324898 2.8208728 3.8278108 259 0 0 0 41.034496
3.2847853 1.728546 -1.6483406 367 0 0 0 41.034496
3.7141907 2.4427447 -1.27177 335 0 0 0 41.034496
7.2661438 2.8992431 -1.3196658 84 0 0 0 41.034496
4.2747436 3.4176385 -0.7878266 235 0 0 0 41.034496
4.7267995 3.6994181 1.2150108 602 0 0 0 41.034496
6.653019 3.3382547 1.6317732 149 0 0 0 41.034496
8.5069752 3.3631129 -0.18447541 249 0 0 0 41.034496
4.8156862 3.8320301 -0.5825392 226 0 0 0 41.034496
8.5527639 3.3463671 0.71674204 68 0 0 0 41.034496
4.7789078 2.9875412 2.749994 299 0 0 0 41.034496
4.8556862 2.2715085 4.1973348 164 0 0 0 41.034496
5.0390563 3.9666467 0.33728948 6 0 0 0 41.034496
6.6299949 3.3094573 2.0076318 85 0 0 0 41.034496
6.4100361 4.1261683 -0.277114 337 0 0 0 41.034496
4.3649879 2.7110491 3.5524948 286 0 0 0 41.034496
5.8271847 3.6796331 1.8044523 142 0 0 0 41.034496
5.4072971 2.1642227 -1.5782082 222 0 0 0 41.034496
8.5564985 3.3949783 -0.63708586 214 0 0 0 41.034496
3.6193087 1.8997837 -1.5777496 335 0 0 0 41.034496
4.0885935 2.5299199 4.1082549 220 0 0 0 41.034496
7.1244788 2.72493 1.7494231 296 0 0 0 41.034496
3.2626786 2.6455481 4.3826485 168 0 0 0 41.034496
8.0797205 3.1162081 1.5404897 55 0 0 0 41.034496
4.246314 1.6982477 -1.7379082 320 0 0 0 41.034496
4.5339789 3.5457261 2.4178309 271 0 0 0 41.034496
5.3038502 2.5572908 3.3127606 235 0 0 0 41.034496
6.1170278 3.952064 -0.62162435 122 0 0 0 41.034496
3.7980757 3.0531938 -0.94468832 282 0 0 0 41.034496
6.3846927 2.3330991 3.0663197 190 0 0 0 41.034496
6.5800409 3.3198917 1.2430602 343 0 0 0 41.034496
5.8569818 2.0306473 4.0142012 148 0 0 0 41.034496
6.5663414 3.326627 0.87626183 362 0 0 0 41.034496
6.6826735 3.4530132 -0.94652349 128 0 0 0 41.034496
6.9301028 2.6256409 2.0893495 232 0 0 0 41.034496
3.441968 1.3707192 -1.8497851 451 0 0 0 41.034496
6.9261684 3.5390179 0.16436227 323 0 0 0 41.034496
3.0943942 2.5207143 -1.1881115 314 0 0 0 41.034496
4.9068885 3.0739048 2.477051 431 0 0 0 41.034496
7.1268301 3.6578193 -0.22182822 132 0 0 0 41.034496
5.1436672 2.4587398 3.5970049 204 0 0 0 41.034496
4.5060267 2.8044488 3.2854056 256 0 0 0 41.034496
3.9222896 3.0874796 3.0530858 396 0 0 0 41.034496
6.7525501 2.5309732 2.4227548 266 0 0 0 41.034496
5.7938375 3.0043693 -1.1437021 200 0 0 0 41.034496
4.6414323 2.8949442 3.0170813 317 0 0 0 41.034496
6.5537457 2.427912 2.7426455 257 0 0 0 41.034496
3.7904425 2.995153 3.3047283 327 0 0 0 41.034496
5.8571711 1.9849218 4.4653754 15 0 0 0 41.034496
3.660743 2.9062805 3.5606954 287 0 0 0 41.034496
5.4381824 2.6448731 3.0147486 285 0 0 0 41.034496
5.0284767 3.1585307 2.1993794 440 0 0 0 41.034496
8.6891117 3.458658 -1.1129966 42 0 0 0 41.034496
6.7165494 3.4195385 0.52794671 359 0 0 0 41.034496
4.5746279 2.9341035 0.076728366 110 0 0 0 41.034496
4.5443029 3.5508611 2.0912836 418 0 0 0 41.034496
3.4020536 2.7356496 4.1030469 220 0 0 0 41.034496
5.0388141 2.6211393 -1.2803166 212 0 0 0 41.034496
4.0219569 2.104461 -1.4997479 336 0 0 0 41.034496
6.2597451 3.9869854 0.81789351 105 0 0 0 41.034496
4.6214991 3.6131752 1.492282 580 0 0 0 41.034496
5.1606989 3.2497542 1.9234976 480 0 0 0 41.034496
6.5309277 4.1718445 0.47133136 118 0 0 0 41.034496
4.5051875 3.518255 1.7597508 602 0 0 0 41.034496
4.2394004 2.6276515 3.8381793 208 0 0 0 41.034496
6.1701531 2.468029 -1.4561948 144 0 0 0 41.034496
4.4800267 2.3371584 -1.4005486 235 0 0 0 41.034496
4.1354618 3.2649972 0.025432693 905 0 0 0 41.034496
4.6556063 3.0314686 -1.0192506 249 0 0 0 41.034496
3.887691 2.3960609 4.8052664 37 0 0 0 41.034496
4.839035 2.2371523 4.6330781 39 0 0 0 41.034496
3.4219751 2.7690308 -1.0782926 268 0 0 0 41.034496
3.9474285 2.4381137 4.3977036 73 0 0 0 41.034496
4.8563733 3.8045759 0.93648446 571 0 0 0 41.034496
7.8236208 4.030129 -0.67751616 67 0 0 0 41.034496
5.9615698 3.7746611 1.4821157 123 0 0 0 41.034496
6.0535498 2.1391597 3.7102747 168 0 0 0 41.034496
5.015491 2.3735609 3.9061382 186 0 0 0 41.034496
6.205595 2.2331803 3.3810902 190 0 0 0 41.034496
3.8160768 1.5242367 -1.8001628 359 0 0 0 41.034496
5.5387449 4.3867841 -0.32518098 198 0 0 0 41.034496
5.3000741 3.4395411 -0.8466897 148 0 0 0 41.034496
3.6886795 2.8914969 3.568676 297 0 0 0 41.127682
5.848731 1.9423068 4.4473991 23 0 0 0 41.127682
4.0754042 3.1583235 2.8024957 457 0 0 0 41.127682
6.7641635 3.4435072 -0.95742291 122 0 0 0 41.127682
6.173439 3.8695765 1.1612699 121 0 0 0 41.127682
6.3300338 3.0948403 2.2837863 114 0 0 0 41.127682
6.980763 2.5964427 2.097559 272 0 0 0 41.127682
3.7478733 2.4327028 -1.2796584 346 0 0 0 41.127682
6.4196558 4.0776148 -0.27821305 388 0 0 0 41.127682
3.1226878 2.5126698 -1.19433 318 0 0 0 41.127682
4.8777781 3.8334956 -0.58898526 157 0 0 0 41.127682
8.5786819 3.3140645 0.26462781 262 0 0 0 41.127682
3.9485133 3.0689673 3.0571277 373 0 0 0 41.127682
8.8075514 3.4443071 -1.1284508 65 0 0 0 41.127682
4.9402022 3.0528882 2.4826484 403 0 0 0 41.127682
3.4299989 2.7232442 4.1143398 210 0 0 0 41.127682
5.4503427 2.1434112 -1.5888659 205 0 0 0 41.127682
4.5390863 2.7865283 3.2950969 287 0 0 0 41.127682
5.8017435 2.8179297 2.4499354 358 0 0 0 41.127682
5.3506007 3.4265792 -0.85323298 172 0 0 0 41.127682
5.3335614 2.5315526 3.3195341 275 0 0 0 41.127682
4.5519247 3.5102096 1.7679917 556 0 0 0 41.127682
4.1842856 2.702172 -1.1661346 332 0 0 0 41.127682
4.6698375 3.6052916 1.4991478 675 0 0 0 41.127682
8.5103693 3.3049905 -0.18643942 256 0 0 0 41.127682
4.121891 2.5155113 4.1239057 185 0 0 0 41.127682
4.2637501 2.6065574 3.8436394 237 0 0 0 41.127682
6.4287615 2.3049405 3.0783906 240 0 0 0 41.127682
8.6065798 3.3074076 0.71698141 89 0 0 0 41.127682
