# .PCD v0.7 - Point Cloud Data file format
VERSION 0.7
FIELDS x y z intensity normal_x normal_y normal_z curvature
SIZE 4 4 4 4 4 4 4 4
TYPE F F F F F F F F
COUNT 1 1 1 1 1 1 1 1
WIDTH 943
HEIGHT 1
VIEWPOINT 0 0 0 1 0 0 0
POINTS 943
DATA ascii
-5.1772346 5.1629562 -1.315636 354 0 0 0 14.842624
-4.4003186 7.6418333 4.4510803 117 0 0 0 14.842624
-4.1361165 7.2438707 2.7554212 170 0 0 0 14.842624
-4.6050177 7.9850349 5.2443533 58 0 0 0 14.842624
-4.4811869 4.576365 -3.3517578 184 0 0 0 14.842624
-4.3404493 6.2342463 0.81207013 297 0 0 0 14.842624
-4.5043793 5.4322491 -0.75666171 375 0 0 0 14.842624
-4.7166729 6.6488419 2.0964713 215 0 0 0 14.842624
-3.8408046 5.7033648 -0.94932586 456 0 0 0 14.842624
-4.8939142 6.8607516 2.6101525 166 0 0 0 14.842624
-9.1940222 9.7700214 9.7031717 14 0 0 0 14.842624
-5.1432896 8.909338 8.1269903 49 0 0 0 14.842624
-4.6296525 4.7126598 -3.033334 371 0 0 0 14.842624
-8.7107525 9.3749933 8.3146267 52 0 0 0 14.842624
-2.2311332 4.6943812 -3.3862634 412 0 0 0 14.842624
-6.2176819 8.4518518 6.3743582 50 0 0 0 14.842624
-6.4098749 7.2545614 3.3165338 276 0 0 0 14.842624
-3.1734591 5.9801621 -1.5193218 208 0 0 0 14.842624
-4.6710358 7.2358365 -3.5196822 35 0 0 0 14.842624
-4.3168249 6.2368212 0.439668 438 0 0 0 14.842624
-3.0646412 5.8418493 -1.8311723 207 0 0 0 14.842624
-3.1970768 5.9643817 -1.1684138 124 0 0 0 14.842624
-5.0049834 5.0161724 -1.6435802 421 0 0 0 14.842624
-4.5247602 5.4885664 -1.1183906 335 0 0 0 14.842624
-6.8933768 6.5087824 2.0598702 181 0 0 0 14.842624
-3.7971535 6.7349677 1.3467484 198 0 0 0 14.842624
-4.7917204 8.30023 6.1068835 78 0 0 0 14.842624
-2.8318036 4.6023469 -3.6277847 55 0 0 0 14.842624
-10.353098 8.9357595 8.5435705 43 0 0 0 14.842624
-4.4566145 5.4385476 -1.4671583 434 0 0 0 14.842624
-4.4105992 6.9925346 -3.8755507 71 0 0 0 14.945536
-3.6058481 5.8538303 -4.1271234 6 0 0 0 14.945536
-4.2638326 5.2992463 -1.7723682 495 0 0 0 14.945536
-3.4486561 4.4535599 -3.5292985 67 0 0 0 14.945536
-4.5926428 5.5681257 -0.41646177 404 0 0 0 14.945536
-3.9647706 5.0508342 -3.1539023 111 0 0 0 14.945536
-4.0186081 5.9631681 -0.28175372 440 0 0 0 14.945536
-5.4924231 7.664022 4.522728 96 0 0 0 14.945536
-4.3329315 7.6392865 4.435154 100 0 0 0 14.945536
-4.6620979 7.3149281 -3.5430498 43 0 0 0 14.945536
-4.5056391 5.532742 -1.1197791 375 0 0 0 14.945536
-2.5073943 5.0538855 -2.5313692 484 0 0 0 14.945536
-6.5404634 8.8980961 8.3355141 36 0 0 0 14.945536
-4.9501905 5.0206709 -1.6324111 343 0 0 0 14.945536
-6.447165 8.8326349 7.4200492 33 0 0 0 14.945536
-6.2620687 6.0881295 1.0258977 272 0 0 0 14.945536
-5.0282426 8.8476677 7.233223 44 0 0 0 14.945536
-10.25925 8.9723263 8.5223236 44 0 0 0 14.945536
-5.808382 5.7319803 0.15839705 270 0 0 0 14.945536
-4.7199779 8.3021278 6.0876932 59 0 0 0 14.945536
-4.2859135 6.1968231 1.1799288 253 0 0 0 14.945536
-4.6007967 7.0854487 -2.4935098 92 0 0 0 14.945536
-6.4225593 7.299952 3.8749182 94 0 0 0 14.945536
-3.1558843 5.9731264 -1.1652583 151 0 0 0 14.945536
-5.408905 6.3475389 1.562042 221 0 0 0 14.945536
-5.2848353 5.3088527 -0.96500736 365 0 0 0 14.945536
-4.6632161 6.6621561 2.0935857 222 0 0 0 14.945536
-5.1244173 5.1718655 -1.3070942 385 0 0 0 14.945536
-7.2215781 9.7570562 10.163341 16 0 0 0 14.945536
-6.3560357 7.2865276 3.3161538 168 0 0 0 14.945536
-4.4415083 4.5883269 -3.3386664 168 0 0 0 14.945536
-4.1336069 6.091188 0.071292765 462 0 0 0 14.945536
-2.3044043 4.8161201 -3.0920744 557 0 0 0 14.945536
-5.0160728 7.0844951 3.161289 196 0 0 0 14.945536
-4.3917804 5.4250851 -1.4539375 533 0 0 0 14.945536
-3.1842442 5.9237723 -0.48383155 454 0 0 0 14.945536
-4.6780953 9.283042 -4.0790911 29 0 0 0 14.945536
-4.3860908 7.0346675 -4.4169426 50 0 0 0 14.945536
-4.0026951 5.0673127 -2.7716775 336 0 0 0 14.945536
-2.8338032 4.6640267 -3.662667 45 0 0 0 14.945536
-4.6699653 4.7777777 -2.2726738 411 0 0 0 14.945536
-8.044961 7.3616986 4.7426157 83 0 0 0 14.945536
-4.5897679 4.7265444 -3.0220683 382 0 0 0 14.945536
-7.1220698 6.7416239 2.640511 159 0 0 0 14.945536
-4.0074134 5.0407534 -2.3861315 509 0 0 0 14.945536
-4.8499861 5.8073907 0.30207691 352 0 0 0 14.945536
-7.3138356 8.1571331 5.6670604 58 0 0 0 14.945536
-3.1302738 5.9844508 -1.5144783 210 0 0 0 14.945536
-3.479795 6.3342032 0.54341948 369 0 0 0 14.945536
-3.8878348 5.8075352 -0.61671811 518 0 0 0 14.945536
-3.0297787 5.8592272 -1.8299271 209 0 0 0 14.945536
-5.2334499 6.1873035 1.113711 290 0 0 0 14.945536
-4.1860642 7.469532 2.3711283 176 0 0 0 14.945536
-6.1134324 8.481328 5.6643848 32 0 0 0 14.945536
-3.8599617 5.8512845 -1.3227278 271 0 0 0 14.945536
-4.3247113 6.2944841 0.81808209 264 0 0 0 14.945536
-4.5650401 8.0369215 5.2607708 79 0 0 0 14.945536
-2.0923963 4.5759077 -3.6703141 138 0 0 0 14.945536
-3.8344913 5.7685881 -0.9550066 372 0 0 0 14.945536
-3.9275067 5.037775 -3.5570908 38 0 0 0 14.945536
-9.3062649 8.4004002 6.2040319 114 0 0 0 14.945536
-5.8893023 6.8576159 2.1470685 197 0 0 0 14.945536
-4.2698107 6.2508421 0.44069156 446 0 0 0 14.945536
-4.0112877 4.1509056 -3.40657 99 0 0 0 14.945536
-3.0815451 5.7774248 -0.79643577 586 0 0 0 14.945536
-5.6141419 5.5740566 -0.23431949 304 0 0 0 14.945536
-3.7524619 5.732523 -1.6464922 179 0 0 0 14.945536
-4.8061976 4.8965912 -1.9543573 374 0 0 0 14.945536
-4.4873595 5.4787641 -0.7573179 390 0 0 0 14.945536
-4.6773505 4.7998934 -2.6685231 205 0 0 0 14.945536
-6.7795253 7.634748 4.6596794 83 0 0 0 14.945536
-4.4834037 6.4465804 1.6209109 260 0 0 0 14.945536
-3.3772781 6.1895494 0.18620668 510 0 0 0 14.945536
-8.5987911 9.3773756 8.2727976 56 0 0 0 14.945536
-2.4044914 4.9286532 -2.8062146 590 0 0 0 14.945536
-5.4498568 5.4443402 -0.60860455 285 0 0 0 14.945536
-3.7409739 6.7333837 1.3432115 61 0 0 0 14.945536
-4.6481347 7.2229829 -3.0123525 69 0 0 0 14.945536
-6.6206112 6.3856587 1.5406221 259 0 0 0 14.945536
-4.173306 7.3758316 3.7626879 122 0 0 0 14.945536
-4.1474748 7.3723645 2.7953832 137 0 0 0 14.945536
-2.200309 4.6973658 -3.378495 434 0 0 0 14.945536
-5.0573072 6.0163922 0.69447434 283 0 0 0 14.945536
-7.4656186 6.9941673 3.2998352 125 0 0 0 14.945536
-6.7967892 6.4985442 2.047226 159 0 0 0 14.945536
-6.1716175 8.5056925 6.3879733 63 0 0 0 14.945536
-5.067821 8.9164991 8.1053066 41 0 0 0 14.945536
-4.1378736 5.1753321 -2.0824223 453 0 0 0 14.945536
-9.7782507 8.6944885 7.3019991 28 0 0 0 14.945536
-4.2295809 7.5752087 1.9502872 209 0 0 0 14.945536
-7.8204718 7.248826 4.0286069 95 0 0 0 14.945536
-6.1320868 7.0883398 2.7116299 37 0 0 0 14.945536
-4.8163214 6.8434439 2.5944047 206 0 0 0 14.945536
-3.3681493 3.4907544 -3.214576 124 0 0 0 14.945536
-5.9694638 5.8492303 0.57110935 276 0 0 0 14.945536
-3.5895159 6.4973035 0.92554206 352 0 0 0 14.945536
-3.2776577 6.0507092 -0.15559533 631 0 0 0 14.945536
-4.7485156 5.7234526 -0.06665922 396 0 0 0 14.945536
-10.715376 9.1981401 9.851161 12 0 0 0 14.945536
-5.223784 7.3317437 3.7856743 149 0 0 0 14.945536
-4.0923586 7.2512546 3.2156293 112 0 0 0 14.945536
-9.0628004 9.7593107 9.6399517 26 0 0 0 14.945536
-10.134936 8.9809437 8.475709 43 0 0 0 15.038208
-6.6056762 6.4511847 1.5500668 402 0 0 0 15.038208
-5.740593 5.7348876 0.16084318 302 0 0 0 15.038208
-5.0593224 5.1676617 -1.2952534 402 0 0 0 15.038208
-6.4655833 8.9202642 8.3204832 40 0 0 0 15.038208
-5.1756268 6.1965899 1.1123573 302 0 0 0 15.038208
-5.3548889 6.3642573 1.5607806 295 0 0 0 15.038208
-3.9817288 5.9867387 -0.27996275 437 0 0 0 15.038208
-4.2535758 7.6143012 4.4067206 113 0 0 0 15.038208
-4.1068187 7.3869934 3.2654061 128 0 0 0 15.038208
-4.0828781 6.0964222 0.072987139 524 0 0 0 15.038208
-4.2134609 5.3006315 -1.7620491 500 0 0 0 15.038208
-7.0803862 9.7021236 10.062165 22 0 0 0 15.038208
-4.6614852 4.8398781 -2.6727798 336 0 0 0 15.038208
-4.9118104 5.0414348 -1.6267606 389 0 0 0 15.038208
-4.6711254 7.4239111 -3.5808399 65 0 0 0 15.038208
-4.0156422 5.212173 -3.6627288 15 0 0 0 15.038208
-4.7582731 4.9054685 -1.9436911 404 0 0 0 15.038208
-4.2548528 6.2345943 1.1839317 211 0 0 0 15.038208
-2.4711535 5.0538859 -2.523088 563 0 0 0 15.038208
-6.3230772 7.2802114 3.8469014 99 0 0 0 15.038208
-2.9769161 5.841269 -1.8174281 211 0 0 0 15.038208
-7.7449961 7.2710657 4.0185251 94 0 0 0 15.038208
-3.4339359 6.3431973 0.54370141 392 0 0 0 15.038208
-4.7451668 6.8340402 2.5819111 232 0 0 0 15.038208
-8.506917 9.4004021 8.2500467 53 0 0 0 15.038208
-5.0027261 6.0266385 0.69473058 334 0 0 0 15.038208
-3.773895 5.8406549 -1.67002 76 0 0 0 15.038208
-3.971384 5.0558286 -2.3799605 502 0 0 0 15.038208
-3.1389873 5.9254136 -0.48115155 463 0 0 0 15.038208
-4.6293864 7.2872238 -3.0258157 72 0 0 0 15.038208
-3.3566 3.5184333 -3.2200346 96 0 0 0 15.038208
-5.9347978 8.3475828 5.5532227 11 0 0 0 15.038208
-4.1875086 7.5841403 2.4003539 180 0 0 0 15.038208
-4.9363451 7.0671134 3.142158 175 0 0 0 15.038208
-7.3711987 6.9938025 3.2823145 125 0 0 0 15.038208
-3.0835941 5.9815125 -1.5077878 220 0 0 0 15.038208
-6.699224 6.4859638 2.0341623 210 0 0 0 15.038208
-5.3882208 5.4483585 -0.6022445 337 0 0 0 15.038208
-7.9807482 7.3973889 4.7379556 64 0 0 0 15.038208
-5.5498457 5.5777407 -0.22982027 335 0 0 0 15.038208
-3.6939824 6.7477679 1.3429081 53 0 0 0 15.038208
-3.6197369 5.9516158 -4.1801152 9 0 0 0 15.038208
-2.1716397 4.704721 -3.3739893 422 0 0 0 15.038208
-8.9074488 9.5866985 10.523861 9 0 0 0 15.038208
-3.035677 5.7749238 -0.79231006 554 0 0 0 15.038208
-4.0929756 5.1814094 -2.0727839 513 0 0 0 15.038208
-6.1885734 6.0916429 1.0236524 290 0 0 0 15.038208
-6.377408 7.4056058 3.3551176 80 0 0 0 15.038208
-6.6914024 7.6338835 4.6371026 82 0 0 0 15.038208
-7.9287252 8.8625031 6.9211001 23 0 0 0 15.038208
-4.548635 4.7388248 -3.009927 373 0 0 0 15.038208
-3.8248374 5.8298006 -0.95989937 352 0 0 0 15.038208
-3.9962645 5.1200347 -2.785732 319 0 0 0 15.038208
-3.2303531 6.0512085 -0.15380377 641 0 0 0 15.038208
-3.9345438 5.0721989 -3.1506629 116 0 0 0 15.038208
-3.5385723 6.5001431 0.92423123 360 0 0 0 15.038208
-5.9154577 5.8681569 0.57274312 301 0 0 0 15.038208
-4.6400394 9.3422508 -4.0915675 24 0 0 0 15.038208
-6.3608294 8.8364735 7.392189 33 0 0 0 15.038208
-8.9086351 9.7215195 9.551569 25 0 0 0 15.038208
-3.440938 4.4959702 -3.5453284 87 0 0 0 15.038208
-3.1110811 5.9746079 -1.1606449 190 0 0 0 15.038208
-4.4061213 4.6044707 -3.3288198 194 0 0 0 15.038208
-6.1236377 8.5571308 6.4001174 98 0 0 0 15.038208
-4.9967351 8.9305162 8.0904961 38 0 0 0 15.038208
-4.0174112 4.2050996 -3.4295712 105 0 0 0 15.038208
-4.2179699 7.6672034 1.968465 181 0 0 0 15.038208
-4.7868314 5.8038344 0.30296817 355 0 0 0 15.038208
-4.1384745 7.467164 2.8227129 148 0 0 0 15.038208
-4.4031544 7.0707254 -3.9028537 43 0 0 0 15.038208
-5.1584916 7.339426 3.7753193 145 0 0 0 15.038208
-7.2330456 8.172924 5.650207 61 0 0 0 15.038208
-2.8258624 4.710299 -3.6851246 64 0 0 0 15.038208
-4.6913133 5.7252851 -0.063825876 424 0 0 0 15.038208
-4.1056781 7.3668365 3.7465031 142 0 0 0 15.038208
-10.640367 9.2558537 9.8469629 12 0 0 0 15.038208
-3.3250146 6.1837111 0.1867902 535 0 0 0 15.038208
-4.4188356 6.4394612 1.6143765 275 0 0 0 15.038208
-4.5418153 5.5751152 -0.41250262 371 0 0 0 15.038208
-4.5892358 7.1596994 -2.5082383 80 0 0 0 15.038208
-9.6317959 8.676651 7.2418389 29 0 0 0 15.038208
-4.6492686 8.3048573 6.069634 64 0 0 0 15.038208
-5.4029732 7.6431313 4.4929328 110 0 0 0 15.038208
-3.8450332 5.8194394 -0.61372793 528 0 0 0 15.038208
-4.4688582 5.5553379 -1.1166112 479 0 0 0 15.038208
-4.6305728 4.7935205 -2.2642913 384 0 0 0 15.038208
-7.0062227 6.7160096 2.6176512 156 0 0 0 15.038208
-3.8235009 5.8720322 -1.3205032 146 0 0 0 15.038208
-4.3458052 6.4099131 0.83100694 381 0 0 0 15.038208
-4.5114217 8.0650291 5.2619901 90 0 0 0 15.038208
-4.3407035 5.4278479 -1.4453037 556 0 0 0 15.038208
-4.8485956 8.6654606 7.0611124 44 0 0 0 15.038208
-2.3710363 4.9314837 -2.7990026 611 0 0 0 15.038208
-4.3850932 7.1234303 -4.4549441 49 0 0 0 15.038208
-4.2138767 6.2512555 0.44091034 474 0 0 0 15.038208
-9.2520332 8.4602661 6.2105598 101 0 0 0 15.038208
-4.603189 6.6654606 2.0877998 234 0 0 0 15.038208
-2.2702479 4.8146591 -3.0817473 547 0 0 0 15.038208
-4.4836988 5.5422702 -0.76036596 334 0 0 0 15.038208
-2.0641642 4.5812473 -3.6643744 183 0 0 0 15.038208
-5.2245345 5.3118663 -0.9567247 373 0 0 0 15.038208
-4.3807163 7.1259155 -3.9174452 52 0 0 0 15.142656
-3.356761 3.5587564 -3.2372687 98 0 0 0 15.142656
-3.4872422 6.5017591 0.92264855 347 0 0 0 15.142656
-4.6317277 5.7235403 -0.061095472 446 0 0 0 15.142656
-6.9918394 9.7176275 10.034452 22 0 0 0 15.142656
-8.4084253 9.415328 8.2205019 43 0 0 0 15.142656
-5.0060406 5.1748819 -1.2866607 364 0 0 0 15.142656
-8.8391094 9.7749815 9.5530787 19 0 0 0 15.142656
-6.2435803 8.7958488 7.327661 35 0 0 0 15.142656
-2.805654 4.7366424 -3.6919494 79 0 0 0 15.142656
-3.1766202 6.0389829 -0.15176032 544 0 0 0 15.142656
-5.2996025 6.3790894 1.5589913 248 0 0 0 15.142656
-3.4292562 4.5336709 -3.5576992 79 0 0 0 15.142656
-4.3658023 4.6151667 -3.3153539 212 0 0 0 15.142656
-5.838912 5.864028 0.57214653 348 0 0 0 15.142656
-7.3496504 8.7173433 3.299757 6 0 0 0 15.142656
-5.0885792 7.3398485 3.7613075 143 0 0 0 15.142656
-4.0349717 6.1054535 0.074554496 472 0 0 0 15.142656
-4.0927563 7.4741383 3.2936056 129 0 0 0 15.142656
-10.544164 9.2947683 9.8230667 27 0 0 0 15.142656
-3.9074302 5.0976038 -3.1502149 105 0 0 0 15.142656
-6.6237044 6.4937267 2.0273907 189 0 0 0 15.142656
-5.5024867 5.5979867 -0.22630204 332 0 0 0 15.142656
-3.0636446 5.9705029 -1.1551147 163 0 0 0 15.142656
-3.7518675 5.8829117 -1.6742699 175 0 0 0 15.142656
-4.0089045 5.198245 -2.8138592 234 0 0 0 15.142656
-2.1436124 4.7133646 -3.3706872 444 0 0 0 15.142656
-4.5848484 8.3182487 6.0594158 49 0 0 0 15.142656
-4.6310239 7.3849878 -3.0534906 77 0 0 0 15.142656
-6.113852 6.0931239 1.0209906 281 0 0 0 15.142656
-9.5008612 8.6710529 7.1925516 33 0 0 0 15.142656
-7.1278143 8.1600399 5.6138802 56 0 0 0 15.142656
-5.3274474 7.6407776 4.4741216 112 0 0 0 15.142656
-7.6722655 7.2953377 4.0096354 98 0 0 0 15.142656
-5.1671195 5.3171921 -0.94913203 348 0 0 0 15.142656
-4.0035963 4.2388334 -3.4357276 87 0 0 0 15.142656
-4.1692009 7.6652274 2.4188941 185 0 0 0 15.142656
-4.2300158 7.8048878 1.997943 178 0 0 0 15.142656
-4.5753846 7.2316046 -2.5222425 78 0 0 0 15.142656
-4.128871 7.5630426 2.8502123 149 0 0 0 15.142656
-8.043437 7.5520968 4.8086205 56 0 0 0 15.142656
-6.0663681 8.5958729 6.402739 92 0 0 0 15.142656
-4.0416756 5.1788483 -2.0599251 482 0 0 0 15.142656
-4.9226675 8.9386625 8.0705214 27 0 0 0 15.142656
-4.4935484 5.5848145 -0.40894189 390 0 0 0 15.142656
-8.8365211 9.6387806 10.52332 23 0 0 0 15.142656
-4.6899834 6.8469605 2.5777388 218 0 0 0 15.142656
-3.6450648 6.7583985 1.3417794 80 0 0 0 15.142656
-4.9330392 6.017972 0.69281 315 0 0 0 15.142656
-4.8558006 5.0436602 -1.6152502 398 0 0 0 15.142656
-4.5068502 4.7500839 -2.9974935 380 0 0 0 15.142656
-7.2763982 6.9919686 3.2642586 127 0 0 0 15.142656
-4.1685557 5.3084283 -1.754189 444 0 0 0 15.142656
-4.8719807 7.0707808 3.1323438 170 0 0 0 15.142656
-6.3777089 8.923831 8.2883816 34 0 0 0 15.142656
-3.0361443 5.9764762 -1.5007873 223 0 0 0 15.142656
-3.9685268 5.1135235 -2.3943655 388 0 0 0 15.142656
-3.5648224 5.936789 -4.1533647 10 0 0 0 15.142656
-6.2598038 7.3012691 3.8403883 93 0 0 0 15.142656
-6.6095328 7.6392202 4.6184382 88 0 0 0 15.142656
-3.3857279 6.3474913 0.54348654 383 0 0 0 15.142656
-4.2516251 6.3140807 1.1954798 189 0 0 0 15.142656
-2.9967711 5.7852864 -0.7902196 543 0 0 0 15.142656
-3.0919549 5.9231925 -0.47829905 436 0 0 0 15.142656
-6.3135266 7.4264822 3.3498137 50 0 0 0 15.142656
-3.7945912 5.8193641 -0.60957164 517 0 0 0 15.142656
-3.2776105 6.1863155 0.18743855 473 0 0 0 15.142656
-4.6337886 4.8677096 -2.6703987 367 0 0 0 15.142656
-4.2915354 5.4324846 -1.4374427 564 0 0 0 15.142656
-2.9329782 5.8400569 -1.8105302 203 0 0 0 15.142656
-4.366056 6.4488831 1.6118412 252 0 0 0 15.142656
-7.9155202 8.9649334 6.9656506 8 0 0 0 15.142656
-4.195847 7.6270804 4.4000821 122 0 0 0 15.142656
-5.3350582 5.4603992 -0.59704703 313 0 0 0 15.142656
-4.6035056 4.8219395 -2.2622497 412 0 0 0 15.142656
-4.47755 5.6036053 -0.7631824 294 0 0 0 15.142656
-2.5620017 5.2369289 -2.2659652 235 0 0 0 15.142656
-4.7050681 4.9083762 -1.9309334 400 0 0 0 15.142656
-4.0638866 7.4038873 3.753536 106 0 0 0 15.142656
-4.2981396 6.424993 0.8313598 405 0 0 0 15.142656
-4.5252852 6.6419005 2.0737228 250 0 0 0 15.142656
-10.034329 9.0095358 8.4483919 40 0 0 0 15.142656
-5.8208447 8.3014021 5.5006533 35 0 0 0 15.142656
-2.3341703 4.9268317 -2.78775 647 0 0 0 15.142656
-4.6536512 7.4923782 -3.5988986 43 0 0 0 15.142656
-5.0939217 6.176373 1.1058018 350 0 0 0 15.142656
-2.4333811 5.0503187 -2.5132596 586 0 0 0 15.142656
-3.9156384 5.9658213 -0.27596441 536 0 0 0 15.142656
-4.1569715 6.2495809 0.44086325 443 0 0 0 15.142656
-6.9346309 6.7317262 2.6107857 138 0 0 0 15.142656
-4.4446063 8.0692778 5.2477436 75 0 0 0 15.142656
-4.7897978 8.6958332 7.0621767 47 0 0 0 15.142656
-4.4264164 5.5707278 -1.1121366 481 0 0 0 15.142656
-9.2717094 8.5888329 6.2668934 43 0 0 0 15.142656
-2.2372372 4.815259 -3.0730467 618 0 0 0 15.142656
-2.034265 4.5826759 -3.655565 209 0 0 0 15.142656
-6.589457 6.5161295 1.5592151 320 0 0 0 15.142656
-5.6806908 5.7450337 0.16328329 356 0 0 0 15.142656
-4.733974 5.8121519 0.30426288 316 0 0 0 15.142656
-3.8274677 5.911046 -0.9683125 326 0 0 0 15.142656
-3.7837157 5.8875875 -1.3172688 153 0 0 0 15.142656
-4.689568 9.4480352 -3.5307648 25 0 0 0 15.142656
-5.464417 6.5268154 2.0295331 140 0 0 0 15.142656
-4.3712907 7.1927848 -4.4807606 40 0 0 0 15.142656
-4.5704875 5.7189212 -0.058280643 433 0 0 0 15.235072
-4.4733057 5.6681838 -0.76635039 368 0 0 0 15.235072
-7.5429759 7.2643476 3.9712157 114 0 0 0 15.235072
-4.0601168 7.5114665 3.7961712 99 0 0 0 15.235072
-4.6406355 7.4974694 -3.0870669 60 0 0 0 15.235072
-2.1111345 4.7119713 -3.3601725 502 0 0 0 15.235072
-9.3954582 8.6871805 7.1622801 31 0 0 0 15.235072
-4.5867476 7.3450522 -2.5507779 74 0 0 0 15.235072
-3.9940507 5.1803956 -2.0488517 511 0 0 0 15.235072
-5.7788477 8.3568058 5.5156064 15 0 0 0 15.235072
-5.4061399 6.5402646 2.0260699 215 0 0 0 15.235072
-3.4300177 6.4915571 0.91958064 381 0 0 0 15.235072
-3.8138285 5.9683404 -0.97251302 290 0 0 0 15.235072
-3.3803473 3.6247821 -3.2778234 65 0 0 0 15.235072
-5.2516956 7.6369672 4.4549441 124 0 0 0 15.235072
-5.8547177 7.0328736 2.6577716 218 0 0 0 15.235072
-10.468124 9.3507357 9.8181276 20 0 0 0 15.235072
-4.0675621 7.5424452 3.3136852 141 0 0 0 15.235072
-5.0189013 7.3396254 3.7473607 143 0 0 0 15.235072
-6.0626054 8.7113495 6.4624887 27 0 0 0 15.235072
-3.7119122 5.8971748 -1.6703191 203 0 0 0 15.235072
-8.2929602 9.4097614 8.1741419 28 0 0 0 15.235072
-4.5963659 4.8715491 -2.2702737 242 0 0 0 15.235072
-3.1360657 6.0511637 -0.15044035 534 0 0 0 15.235072
-3.233562 6.1947613 0.18830149 436 0 0 0 15.235072
-4.3240242 5.747757 -4.0028439 16 0 0 0 15.235072
-3.0469117 5.9241595 -0.47569451 468 0 0 0 15.235072
-2.9915049 5.9763193 -1.4950705 233 0 0 0 15.235072
-9.1541853 8.5902061 6.2312622 14 0 0 0 15.235072
-4.3729744 8.0637579 5.2276602 50 0 0 0 15.235072
-4.1024604 6.2507639 0.44108912 396 0 0 0 15.235072
-3.0159466 5.9651666 -1.1493471 150 0 0 0 15.235072
-4.3144422 6.459497 1.6097678 250 0 0 0 15.235072
-4.603406 4.8926907 -2.66646 380 0 0 0 15.235072
-5.7458844 5.8420668 0.57001978 276 0 0 0 15.235072
-5.2337651 6.3805151 1.5541835 259 0 0 0 15.235072
-7.3821993 8.471385 6.5514135 41 0 0 0 15.235072
-2.2985823 4.9243522 -2.7778273 672 0 0 0 15.235072
-6.5788808 6.531085 2.0299253 200 0 0 0 15.235072
-3.9850688 5.1973839 -2.4210165 307 0 0 0 15.235072
-6.5420442 6.5503392 1.5613074 311 0 0 0 15.235072
-6.840425 6.7243967 2.5954499 156 0 0 0 15.235072
-4.2472944 5.4428973 -1.4312029 528 0 0 0 15.235072
-4.3772717 5.5772586 -1.1058459 527 0 0 0 15.235072
-3.7360179 5.8904409 -1.3111106 158 0 0 0 15.235072
-4.2395182 6.4231005 0.82973093 371 0 0 0 15.235072
-4.8025093 7.066092 3.1191955 159 0 0 0 15.235072
-4.0217371 4.3071451 -3.4699967 129 0 0 0 15.235072
-4.2147532 7.894752 2.0154479 208 0 0 0 15.235072
-2.0044341 4.5839462 -3.6467032 237 0 0 0 15.235072
-3.8640893 5.966115 -0.27306512 566 0 0 0 15.235072
-4.6793375 5.8176827 0.30550265 319 0 0 0 15.235072
-4.172843 7.7888432 2.4507372 160 0 0 0 15.235072
-7.0068517 8.1272202 5.5647578 56 0 0 0 15.235072
-4.1334696 7.6307316 4.3885856 116 0 0 0 15.235072
-3.5599174 6.0054317 -4.1856403 16 0 0 0 15.235072
-2.4989095 5.1842041 -2.2353172 551 0 0 0 15.235072
-2.8900344 5.8402624 -1.8041154 210 0 0 0 15.235072
-5.1077905 5.3198624 -0.94110525 356 0 0 0 15.235072
-6.0470605 6.1016536 1.0196152 267 0 0 0 15.235072
-4.6626716 9.5336456 -3.5510809 33 0 0 0 15.235072
-8.767931 9.6930962 10.526017 15 0 0 0 15.235072
-4.1266842 5.3197017 -1.7475634 475 0 0 0 15.235072
-3.7475436 5.8239093 -0.60591769 466 0 0 0 15.235072
-4.4745131 5.6308637 -0.40825281 347 0 0 0 15.235072
-3.3325129 6.341702 0.54256529 410 0 0 0 15.235072
-2.9547138 5.7892036 -0.78717905 550 0 0 0 15.235072
-5.2702112 5.4597816 -0.59039652 377 0 0 0 15.235072
-4.4511313 6.6224198 2.0611701 244 0 0 0 15.235072
-4.8019633 5.0475125 -1.6043954 403 0 0 0 15.235072
-4.8446245 8.9385319 8.0438242 38 0 0 0 15.235072
-5.034585 6.1822653 1.1039259 329 0 0 0 15.235072
-7.9948182 7.6034098 4.8138428 72 0 0 0 15.235072
-5.619504 5.7532091 0.16573523 336 0 0 0 15.235072
-9.9231634 9.0273876 8.4121246 51 0 0 0 15.235072
-4.3128567 4.611989 -3.2920327 249 0 0 0 15.235072
-2.2053914 4.8180165 -3.0658112 569 0 0 0 15.235072
-2.7856793 4.7636552 -3.6992733 77 0 0 0 15.235072
-4.4601455 4.7557316 -2.981648 376 0 0 0 15.235072
-4.6553078 4.9143157 -1.9195334 346 0 0 0 15.235072
-3.9428318 5.2057333 -3.2013423 33 0 0 0 15.235072
-3.4223351 4.578187 -3.5753524 84 0 0 0 15.235072
-6.1407199 7.2557487 3.7996602 133 0 0 0 15.235072
-8.6495695 9.6935816 9.4245729 30 0 0 0 15.235072
-6.119504 7.2915888 3.2755411 113 0 0 0 15.235072
-5.4418898 5.6042104 -0.22209477 353 0 0 0 15.235072
-4.2924376 6.4612584 1.2195038 137 0 0 0 15.235072
-4.625752 6.8459477 2.568646 206 0 0 0 15.235072
-6.5166745 7.6306043 4.5919662 87 0 0 0 15.235072
-7.1799035 6.9871745 3.245316 112 0 0 0 15.235072
-4.8686857 6.0148516 0.69160402 350 0 0 0 15.235072
-3.5975702 6.7712669 1.3412271 84 0 0 0 15.235072
-4.1276884 7.676621 2.8843555 175 0 0 0 15.235072
-6.168498 8.8130074 7.3119655 50 0 0 0 15.235072
-4.3650293 7.2758541 -4.5149918 42 0 0 0 15.235072
-3.973052 5.214047 -2.8075683 212 0 0 0 15.235072
-4.5293398 8.347394 6.0610819 58 0 0 0 15.235072
-4.6800122 7.6334224 -3.6519597 51 0 0 0 15.235072
-3.9816682 6.1057353 0.076133497 470 0 0 0 15.235072
-4.3821988 7.2212968 -3.9541895 50 0 0 0 15.235072
-2.4000483 5.0555406 -2.5079434 637 0 0 0 15.235072
-6.8648276 9.6778355 9.9510107 12 0 0 0 15.235072
-4.7273326 8.7192631 7.0581322 45 0 0 0 15.235072
-4.9528704 5.1816435 -1.2780281 345 0 0 0 15.235072
-6.292407 8.9297943 8.2593641 41 0 0 0 15.235072
-5.2075996 5.4607549 -0.58417302 379 0 0 0 15.3408
-7.1000261 6.9976039 3.2334671 132 0 0 0 15.3408
-8.5514708 9.7125759 9.3941984 26 0 0 0 15.3408
-4.2248683 8.0348997 2.0453269 183 0 0 0 15.3408
-3.9990635 4.3321552 -3.4690087 103 0 0 0 15.3408
-4.1988716 5.4475374 -1.4236541 511 0 0 0 15.3408
-3.671371 5.9103265 -1.6662799 164 0 0 0 15.3408
-4.2804227 4.6303997 -3.2847373 207 0 0 0 15.3408
-6.7417932 6.711472 2.5780656 137 0 0 0 15.3408
-3.3965318 3.6838136 -3.3117509 57 0 0 0 15.3408
-2.1760311 4.826014 -3.0622356 531 0 0 0 15.3408
-8.68398 9.7303295 10.510277 21 0 0 0 15.3408
-2.6752675 4.6342587 -3.5843542 178 0 0 0 15.3408
-8.9097815 8.4695148 6.1084242 62 0 0 0 15.3408
-1.9746104 4.5849581 -3.6379507 236 0 0 0 15.3408
-4.0524092 6.2582469 0.4415772 452 0 0 0 15.3408
-4.1538944 7.8727822 2.4700143 178 0 0 0 15.3408
-3.8131912 5.966855 -0.27037129 577 0 0 0 15.3408
-4.6341052 5.8345327 0.3071149 348 0 0 0 15.3408
-4.1848607 6.4266019 0.82864362 412 0 0 0 15.3408
-4.4538245 5.6753273 -0.40757135 380 0 0 0 15.3408
-3.2877331 6.351469 0.54274803 408 0 0 0 15.3408
-2.8513734 5.848784 -1.8005738 241 0 0 0 15.3408
-5.3515844 6.5578361 2.023792 224 0 0 0 15.3408
-4.2714748 6.4828658 1.6107053 224 0 0 0 15.3408
-4.0460763 7.6024327 3.8301733 98 0 0 0 15.3408
-4.7432356 7.0757408 3.1123092 169 0 0 0 15.3408
-5.5514688 5.7536783 0.16784246 301 0 0 0 15.3408
-4.9017887 5.1900935 -1.2700998 362 0 0 0 15.3408
-3.9365587 5.2288318 -2.8010166 219 0 0 0 15.3408
-4.751205 6.3503222 -3.8950148 43 0 0 0 15.3408
-10.366302 9.3832502 9.7888613 32 0 0 0 15.3408
-6.0551476 8.8237619 6.5194674 25 0 0 0 15.3408
-3.9349782 6.1157045 0.077609971 475 0 0 0 15.3408
-3.9685524 5.2390409 -2.4276874 330 0 0 0 15.3408
-3.1872199 6.198473 0.18890217 467 0 0 0 15.3408
-3.0019412 5.9248009 -0.47323954 442 0 0 0 15.3408
-4.7488818 5.0515962 -1.5939298 416 0 0 0 15.3408
-3.704819 5.834826 -0.60316116 515 0 0 0 15.3408
-4.0748043 5.3175964 -1.7367173 523 0 0 0 15.3408
-4.4140968 4.7616148 -2.9663689 393 0 0 0 15.3408
-4.442163 5.6991982 -0.76486993 466 0 0 0 15.3408
-7.4465413 7.2635345 3.9494326 93 0 0 0 15.3408
-4.3172226 5.8074975 -4.0249591 15 0 0 0 15.3408
-4.300127 6.5612655 1.2346683 289 0 0 0 15.3408
-6.2055039 8.9326172 8.2276869 38 0 0 0 15.3408
-4.0733204 7.6379538 4.3791366 106 0 0 0 15.3408
-4.3840728 7.3192053 -3.9923613 30 0 0 0 15.3408
-6.1089873 8.8522367 7.3145394 38 0 0 0 15.3408
-9.2902689 8.7025242 7.1317139 60 0 0 0 15.3408
-2.9109039 5.7892756 -0.78377742 540 0 0 0 15.3408
-6.0564351 7.2498078 3.7796986 151 0 0 0 15.3408
-4.6357703 4.9717417 -2.3022258 318 0 0 0 15.3408
-2.4620256 5.1846199 -2.2283831 607 0 0 0 15.3408
-4.3251538 5.5794921 -1.0989157 532 0 0 0 15.3408
-2.2678857 4.9320555 -2.7740176 640 0 0 0 15.3408
-5.1612949 6.3730178 1.5471883 281 0 0 0 15.3408
-4.304884 8.0639238 5.2113099 64 0 0 0 15.3408
-2.3659279 5.0588551 -2.5019195 649 0 0 0 15.3408
-2.9508214 5.9836888 -1.4915216 236 0 0 0 15.3408
-3.7879932 6.0072579 -0.97372967 135 0 0 0 15.3408
-6.6225204 6.7143126 1.5933868 204 0 0 0 15.3408
-3.5771945 6.1132751 -4.2454996 4 0 0 0 15.3408
-5.7105923 8.3743563 5.5056343 25 0 0 0 15.3408
-4.396132 6.6306114 2.0570509 279 0 0 0 15.3408
-9.8421326 9.0720158 8.4010086 42 0 0 0 15.3408
-7.3146162 8.5054178 6.5454268 44 0 0 0 15.3408
-2.976295 5.9753203 -1.1468891 164 0 0 0 15.3408
-4.1318784 7.8031545 2.9230096 169 0 0 0 15.3408
-6.5668964 6.6014977 2.0424018 226 0 0 0 15.3408
-4.0802045 7.6833792 3.3650875 155 0 0 0 15.3408
-4.972249 6.1838441 1.1012031 352 0 0 0 15.3408
-3.4210026 4.630878 -3.5995219 93 0 0 0 15.3408
-4.5168796 5.7232108 -0.055794992 424 0 0 0 15.3408
-7.9062476 7.6163416 4.7949605 97 0 0 0 15.3408
-8.1763086 9.4014273 8.1258421 34 0 0 0 15.3408
-4.7690353 8.9421177 8.020607 33 0 0 0 15.3408
-4.4859776 8.399394 6.0791674 80 0 0 0 15.3408
-4.6852288 7.7425575 -3.6895134 69 0 0 0 15.3408
-4.6250005 9.5987377 -3.5639081 29 0 0 0 15.3408
-6.7847514 7.9735479 5.4341435 67 0 0 0 15.3408
-2.0780239 4.7087712 -3.348671 503 0 0 0 15.3408
-4.8113761 6.0197697 0.69114625 352 0 0 0 15.3408
-5.3786297 5.6070356 -0.21793365 336 0 0 0 15.3408
-6.431829 7.6303024 4.5706334 83 0 0 0 15.3408
-3.0868115 6.0461721 -0.14874171 509 0 0 0 15.3408
-3.9540057 5.1913877 -2.0418859 483 0 0 0 15.3408
-4.6524739 8.7193985 7.0353565 54 0 0 0 15.3408
-4.3278413 7.3082314 -4.5176659 13 0 0 0 15.3408
-5.6950126 5.8622031 0.57159287 295 0 0 0 15.3408
-4.9499459 7.3396845 3.7335932 125 0 0 0 15.3408
-4.5665431 4.9106479 -2.6589141 366 0 0 0 15.3408
-5.1681108 7.6206765 4.4286509 98 0 0 0 15.3408
-4.5933723 7.4531498 -2.5774441 70 0 0 0 15.3408
-6.7431049 9.6433458 9.873682 23 0 0 0 15.3408
-3.3748667 6.4844537 0.91682112 431 0 0 0 15.3408
-4.6180611 4.9331517 -1.9135723 423 0 0 0 15.3408
-3.7388973 5.973649 -1.3235728 56 0 0 0 15.3408
-4.5595894 6.8412957 2.5581872 186 0 0 0 15.3408
-6.1018944 7.3653593 3.2942519 84 0 0 0 15.3408
-3.5376868 6.7602715 1.3359685 74 0 0 0 15.3408
-7.1801615 8.7382011 3.2808888 17 0 0 0 15.3408
-4.6436419 7.6014342 -3.1171062 58 0 0 0 15.3408
-5.9824615 6.1117725 1.0183861 297 0 0 0 15.3408
-5.0431323 5.3162522 -0.93219572 406 0 0 0 15.3408
-6.6368327 6.6906624 2.5581293 207 0 0 0 15.43296
-2.2405 4.9468708 -2.7742877 626 0 0 0 15.43296
-4.7306366 6.3993425 -3.905699 66 0 0 0 15.43296
-4.7535992 6.0234008 0.69066954 350 0 0 0 15.43296
-2.8152397 5.862267 -1.7985897 212 0 0 0 15.43296
-6.055769 8.9005299 7.3250885 42 0 0 0 15.43296
-4.3687601 4.7678084 -2.9514596 403 0 0 0 15.43296
-4.6756353 7.8290315 -3.7158628 57 0 0 0 15.43296
-4.3229108 7.3959942 -4.5547676 39 0 0 0 15.43296
-4.238625 8.0665464 5.1970305 76 0 0 0 15.43296
-1.9486387 4.5947084 -3.6362579 234 0 0 0 15.43296
-8.8396873 8.5120497 6.1039801 44 0 0 0 15.43296
-2.3318734 5.0619664 -2.4958282 647 0 0 0 15.43296
-4.2577758 6.5511065 1.6226867 240 0 0 0 15.43296
-3.7461674 6.0208588 -0.97061318 150 0 0 0 15.43296
-2.8681064 5.7908063 -0.78055412 527 0 0 0 15.43296
-6.591836 6.7670369 1.5997005 98 0 0 0 15.43296
-7.2379832 8.5282745 6.5315042 36 0 0 0 15.43296
-4.5052004 4.9016914 -2.6367338 450 0 0 0 15.43296
-5.3238006 5.6179924 -0.21411404 359 0 0 0 15.43296
-6.0578609 7.4076166 3.2991967 78 0 0 0 15.43296
-6.3403096 7.6207561 4.5443993 107 0 0 0 15.43296
-3.9294412 5.2226605 -2.0430684 408 0 0 0 15.43296
-3.4866934 6.7654104 1.3339859 55 0 0 0 15.43296
-4.1736732 8.032897 2.5129328 169 0 0 0 15.43296
-4.5934463 7.5525975 -2.6008127 53 0 0 0 15.43296
-4.3422918 6.6399536 2.0535059 239 0 0 0 15.43296
-3.3876042 3.7161267 -3.3211126 58 0 0 0 15.43296
-3.2375445 6.3502431 0.54216671 449 0 0 0 15.43296
-4.266593 5.5726695 -1.0901715 558 0 0 0 15.43296
-3.6600091 5.8420568 -0.59995896 505 0 0 0 15.43296
-4.3962936 5.7111259 -0.76065195 462 0 0 0 15.43296
-5.9866943 7.2602386 3.7686639 145 0 0 0 15.43296
-6.7112265 7.9915204 5.4210033 75 0 0 0 15.43296
-4.4299684 8.4279327 6.0807409 79 0 0 0 15.43296
-4.6262045 5.0203953 -2.3095875 330 0 0 0 15.43296
-4.1346488 6.4363427 0.82845688 364 0 0 0 15.43296
-4.3712077 7.394073 -4.0175686 30 0 0 0 15.43296
-4.593154 4.9651351 -1.9128271 364 0 0 0 15.43296
-5.0891509 6.3648295 1.540252 266 0 0 0 15.43296
-4.2294707 4.6283498 -3.2629137 318 0 0 0 15.43296
-3.4241924 4.6905742 -3.6289485 106 0 0 0 15.43296
-2.1452739 4.8307123 -3.0565689 583 0 0 0 15.43296
-4.1523423 5.4541292 -1.4166675 498 0 0 0 15.43296
-2.4244573 5.1831164 -2.2206447 634 0 0 0 15.43296
-3.7656481 5.9722567 -0.26786754 564 0 0 0 15.43296
-7.7922907 7.6033773 4.7605991 100 0 0 0 15.43296
-4.5634351 8.6913891 6.9906983 32 0 0 0 15.43296
-4.0035205 6.2670126 0.44225132 438 0 0 0 15.43296
-3.8820047 5.2190895 -2.7812443 137 0 0 0 15.43296
-4.5660615 5.8219185 0.30745396 432 0 0 0 15.43296
-4.4694414 5.7670903 -0.41049513 265 0 0 0 15.43296
-7.3564477 7.2676449 3.9308772 95 0 0 0 15.43296
-2.9584367 5.9277854 -0.47094002 444 0 0 0 15.43296
-4.6799116 7.0785913 3.1027856 178 0 0 0 15.43296
-5.5555048 8.2620802 5.4115782 91 0 0 0 15.43296
-4.0136929 7.6454396 4.3702321 103 0 0 0 15.43296
-5.8050427 8.5794849 6.315094 14 0 0 0 15.43296
-8.3892937 9.6565762 9.2929373 33 0 0 0 15.43296
-4.4634123 5.7270417 -0.053245742 362 0 0 0 15.43296
-7.1120257 8.7676954 3.2788827 14 0 0 0 15.43296
-4.114861 7.8920712 2.9477952 149 0 0 0 15.43296
-4.0382714 7.7072268 3.8711665 128 0 0 0 15.43296
-10.271191 9.420785 9.7659903 41 0 0 0 15.43296
-3.0467477 6.0586534 -0.1475208 546 0 0 0 15.43296
-5.6399918 5.8775816 0.57284117 252 0 0 0 15.43296
-4.6368737 7.6911917 -3.1409845 63 0 0 0 15.43296
-3.3263063 6.4892597 0.91581619 453 0 0 0 15.43296
-4.8827572 7.3414059 3.7210667 141 0 0 0 15.43296
-2.936656 5.9852166 -1.1443511 192 0 0 0 15.43296
-9.2283602 8.7576485 7.1343846 98 0 0 0 15.43296
-3.9901366 4.3723283 -3.4802358 125 0 0 0 15.43296
-2.6266263 4.609508 -3.5519123 271 0 0 0 15.43296
-3.138267 6.1964836 0.1894521 471 0 0 0 15.43296
-4.2654376 6.5976567 1.2383109 367 0 0 0 15.43296
-4.4994745 6.844821 2.5510366 213 0 0 0 15.43296
-3.7244391 6.0303745 -1.3298365 189 0 0 0 15.43296
-4.6863446 8.9310808 7.9851093 43 0 0 0 15.43296
-4.222631 8.1546278 2.0701602 179 0 0 0 15.43296
-5.0900044 7.6110616 4.4067464 100 0 0 0 15.43296
-3.9606771 5.2926979 -2.4398999 325 0 0 0 15.43296
-3.6216967 5.9083056 -1.6578702 202 0 0 0 15.43296
-4.0752063 7.7940974 3.4033873 119 0 0 0 15.43296
-6.5549884 6.6726565 2.0552154 397 0 0 0 15.43296
-6.9987888 6.9857073 3.2118814 109 0 0 0 15.43296
-8.0388899 9.3670464 8.0563526 7 0 0 0 15.43296
-5.1417766 5.4575253 -0.57749039 373 0 0 0 15.43296
-2.0470397 4.7099757 -3.3404093 525 0 0 0 15.43296
-2.9140177 5.9986811 -1.48991 250 0 0 0 15.43296
-4.6913095 5.0502272 -1.5818083 439 0 0 0 15.43296
-4.9113441 6.186409 1.0988117 363 0 0 0 15.43296
-3.8840535 6.1185608 0.079119757 481 0 0 0 15.43296
-4.8581772 5.2060299 -1.2641013 347 0 0 0 15.43296
-6.6269913 9.6144876 9.8034954 23 0 0 0 15.43296
-9.7331114 9.0897923 8.3661146 50 0 0 0 15.43296
-2.6083131 5.4978075 -2.0152371 165 0 0 0 15.43296
-5.5022712 5.7730646 0.17044713 297 0 0 0 15.43296
-6.1229362 8.9404936 8.2015257 44 0 0 0 15.43296
-3.4920309 6.0459967 -4.1824837 14 0 0 0 15.43296
-5.2970462 6.5749359 2.0215936 243 0 0 0 15.43296
-4.99159 5.3258014 -0.92573804 373 0 0 0 15.43296
-4.0190363 5.3096695 -1.7240185 534 0 0 0 15.43296
-8.6066456 9.7743235 10.502803 20 0 0 0 15.43296
-5.895226 6.0977044 1.013438 297 0 0 0 15.43296
-9.1982002 8.8433933 7.161705 56 0 0 0 15.53792
-6.0109372 8.9617414 7.346087 65 0 0 0 15.53792
-2.6006167 4.6239758 -3.5504475 266 0 0 0 15.53792
-3.0898798 6.1950397 0.18987142 482 0 0 0 15.53792
-4.2038684 6.5922399 1.2342211 290 0 0 0 15.53792
-4.5861254 5.0168529 -1.9199771 386 0 0 0 15.53792
-4.4394855 6.8479352 2.5437045 197 0 0 0 15.53792
-4.5901275 5.0403938 -2.3037059 408 0 0 0 15.53792
-4.6450629 5.0605388 -1.5737399 403 0 0 0 15.53792
-3.6807997 6.0401769 -1.3255912 192 0 0 0 15.53792
-7.6866608 7.5971608 4.7307534 79 0 0 0 15.53792
-6.5363016 6.7376714 2.0659797 334 0 0 0 15.53792
-3.9790831 5.3221583 -1.7183932 542 0 0 0 15.53792
-7.2553716 7.2597733 3.9060764 116 0 0 0 15.53792
-5.9141316 7.2665811 3.755574 133 0 0 0 15.53792
-10.171263 9.4532757 9.7382402 56 0 0 0 15.53792
-8.5260658 9.8144541 10.4913 19 0 0 0 15.53792
-4.8585238 6.1986456 1.0979811 331 0 0 0 15.53792
-4.4319801 5.7589912 -0.051304754 403 0 0 0 15.53792
-4.1263828 8.0386343 2.9935939 155 0 0 0 15.53792
-4.2243013 5.5866103 -1.0858819 582 0 0 0 15.53792
-5.7111993 8.561511 6.2774863 13 0 0 0 15.53792
-8.2909765 9.672308 9.2611742 38 0 0 0 15.53792
-2.2068295 4.94771 -2.7668378 609 0 0 0 15.53792
-4.3492093 5.7211266 -0.75636637 450 0 0 0 15.53792
-3.8316233 6.1184988 0.080453254 440 0 0 0 15.53792
-5.0221667 6.3622251 1.5345802 296 0 0 0 15.53792
-4.0322008 7.8180108 3.9148314 119 0 0 0 15.53792
-3.0030682 6.0637159 -0.14622396 537 0 0 0 15.53792
-4.2884932 6.6489449 2.0497882 215 0 0 0 15.53792
-4.3271065 4.7776299 -2.9392109 458 0 0 0 15.53792
-6.4926538 9.5568724 9.7047691 24 0 0 0 15.53792
-4.168117 8.0602837 5.1771207 77 0 0 0 15.53792
-4.8056278 7.3272462 3.7006149 148 0 0 0 15.53792
-3.9923432 4.4252696 -3.5017858 99 0 0 0 15.53792
-8.7245436 8.5103855 6.0682068 63 0 0 0 15.53792
-3.7011766 6.029108 -0.96679896 137 0 0 0 15.53792
-4.2003918 8.2381725 2.0857351 177 0 0 0 15.53792
-2.8986883 5.9983864 -1.1426558 189 0 0 0 15.53792
-4.1070256 5.4619107 -1.4102448 543 0 0 0 15.53792
-4.6133976 8.9376688 7.9654903 41 0 0 0 15.53792
-4.7992001 5.2049742 -1.2541076 380 0 0 0 15.53792
-5.8282571 6.1036925 1.0116104 283 0 0 0 15.53792
-4.1454182 8.1034889 2.5279503 186 0 0 0 15.53792
-2.0154107 4.7093859 -3.3311558 559 0 0 0 15.53792
-5.0910792 5.4697714 -0.57278186 395 0 0 0 15.53792
-3.5741501 5.9092073 -1.6505662 168 0 0 0 15.53792
-3.7186809 5.978159 -0.26556057 527 0 0 0 15.53792
-4.1928477 4.641583 -3.2524257 327 0 0 0 15.53792
-6.9214034 6.9966207 3.2007816 121 0 0 0 15.53792
-7.9039378 9.3334265 7.9881835 12 0 0 0 15.53792
-2.3857865 5.1787815 -2.2119255 647 0 0 0 15.53792
-5.4160705 6.7626944 2.5266013 175 0 0 0 15.53792
-6.5823765 6.719985 2.5571358 192 0 0 0 15.53792
-2.8258021 5.7929187 -0.77759701 543 0 0 0 15.53792
-5.2676468 5.6270471 -0.21039692 344 0 0 0 15.53792
-5.495945 8.2898026 5.4090672 69 0 0 0 15.53792
-4.6180868 7.7624602 -3.1573315 82 0 0 0 15.53792
-3.4085081 4.7250295 -3.6386909 143 0 0 0 15.53792
-3.3722794 3.741607 -3.324441 60 0 0 0 15.53792
-4.3666863 7.4845982 -4.0514779 45 0 0 0 15.53792
-5.4434338 5.7818913 0.17264977 284 0 0 0 15.53792
-6.6383228 8.0097103 5.4080963 78 0 0 0 15.53792
-2.1155338 4.8375335 -3.0525322 616 0 0 0 15.53792
-4.6038017 7.6711736 -2.6309166 69 0 0 0 15.53792
-3.9567831 6.27882 0.44298309 461 0 0 0 15.53792
-4.4689264 5.839438 -0.41198212 405 0 0 0 15.53792
-4.7134881 7.9976497 -3.781625 40 0 0 0 15.53792
-3.4335215 6.7658253 1.3309963 51 0 0 0 15.53792
-2.4786029 5.3047185 -1.936653 666 0 0 0 15.53792
-7.1364045 8.5208464 6.494709 61 0 0 0 15.53792
-5.2315903 6.5779605 2.0150852 208 0 0 0 15.53792
-5.0157137 7.6061506 4.3876505 102 0 0 0 15.53792
-3.8694367 5.2657876 -2.7922897 82 0 0 0 15.53792
-3.9261873 5.2828693 -2.0559254 389 0 0 0 15.53792
-4.3594232 8.4285192 6.0622563 66 0 0 0 15.53792
-6.2486086 7.6097836 4.5175138 79 0 0 0 15.53792
-2.865741 5.989696 -1.4823906 246 0 0 0 15.53792
-4.0770583 7.9209123 3.4483356 125 0 0 0 15.53792
-2.7761292 5.8694153 -1.7948345 188 0 0 0 15.53792
-4.6996121 6.031302 0.69053334 346 0 0 0 15.53792
-5.5685167 5.8751473 0.57233238 278 0 0 0 15.53792
-1.92258 4.6042457 -3.6346691 255 0 0 0 15.53792
-3.2760038 6.4902029 0.91417342 474 0 0 0 15.53792
-4.2692761 6.6599007 1.6443019 181 0 0 0 15.53792
-5.9844112 7.4136162 3.2881052 61 0 0 0 15.53792
-9.6347666 9.1166773 8.3399515 36 0 0 0 15.53792
-3.9522772 5.3464146 -2.4522223 193 0 0 0 15.53792
-3.9914784 7.7247968 4.4020262 86 0 0 0 15.53792
-2.2955682 5.0598402 -2.4873664 614 0 0 0 15.53792
-4.6151948 7.078649 3.0920506 163 0 0 0 15.53792
-4.4967084 8.7047796 6.9793763 37 0 0 0 15.53792
-4.2871356 7.4319725 -4.5598578 58 0 0 0 15.53792
-10.009299 10.409434 2.4324491 20 0 0 0 15.53792
-4.9306655 5.3247299 -0.91760439 403 0 0 0 15.53792
-2.9061756 5.91257 -0.46724552 593 0 0 0 15.53792
-4.7090874 6.4475579 -3.9160814 62 0 0 0 15.53792
-4.4484339 4.8969545 -2.6173253 435 0 0 0 15.53792
-4.0807276 6.4398618 0.82738298 375 0 0 0 15.53792
-4.5209498 5.8379617 0.30897397 335 0 0 0 15.53792
-3.1825464 6.338861 0.54065084 451 0 0 0 15.53792
-6.0427885 8.9511862 8.1781349 33 0 0 0 15.53792
-3.6141725 5.8472676 -0.59672034 499 0 0 0 15.53792
-6.3991017 9.5570259 9.6658335 23 0 0 0 15.630592
-3.653681 6.0327959 -0.96221381 149 0 0 0 15.630592
-4.383781 6.8569651 2.538795 210 0 0 0 15.630592
-4.4166679 5.8122592 -0.049617782 369 0 0 0 15.630592
-4.2084055 8.3836517 2.1168129 118 0 0 0 15.630592
-3.2271676 6.4934168 0.91296101 429 0 0 0 15.630592
-4.6018257 5.0943632 -1.9370209 254 0 0 0 15.630592
-5.961916 8.9597797 8.1536264 47 0 0 0 15.630592
-2.1739588 4.9499741 -2.7602522 619 0 0 0 15.630592
-4.5420218 8.9463825 7.9484434 38 0 0 0 15.630592
-4.4073644 4.9090066 -2.6072083 418 0 0 0 15.630592
-5.7621446 6.1097798 1.0099438 266 0 0 0 15.630592
-2.3507304 5.181808 -2.20646 640 0 0 0 15.630592
-5.5013962 5.8764052 0.57225859 295 0 0 0 15.630592
-4.6829805 6.4899554 -3.9228158 47 0 0 0 15.630592
-3.1318164 6.3350725 0.53983802 446 0 0 0 15.630592
-3.5673914 5.8504305 -0.59323496 578 0 0 0 15.630592
-5.7927036 7.2701545 3.212002 117 0 0 0 15.630592
-4.7463822 5.2099442 -1.2456948 405 0 0 0 15.630592
-8.4448566 9.853219 10.479272 36 0 0 0 15.630592
-4.3703246 7.5910287 -4.093811 83 0 0 0 15.630592
-3.9488611 5.3793502 -2.082967 301 0 0 0 15.630592
-4.2782474 4.7790179 -2.9218781 387 0 0 0 15.630592
-5.946867 8.9943419 7.3441787 74 0 0 0 15.630592
-2.8206077 5.9865251 -1.4763741 228 0 0 0 15.630592
-4.6210823 7.8720036 -3.1892595 24 0 0 0 15.630592
-5.0404415 5.4815912 -0.56802273 355 0 0 0 15.630592
-4.9461522 7.607347 4.37251 102 0 0 0 15.630592
-4.4352064 8.7277546 6.9762526 49 0 0 0 15.630592
-5.2414179 8.0188913 5.2138548 47 0 0 0 15.630592
-4.8112178 6.217494 1.0984184 293 0 0 0 15.630592
-7.5665784 7.5749154 4.6917577 90 0 0 0 15.630592
-7.1461964 7.2421961 3.8767102 96 0 0 0 15.630592
-2.4428115 5.3090487 -1.9320834 706 0 0 0 15.630592
-8.2179413 9.7167215 9.257678 32 0 0 0 15.630592
-2.0840993 4.8402395 -3.045908 582 0 0 0 15.630592
-1.9234731 4.6791682 -3.6852393 145 0 0 0 15.630592
-4.3525195 6.0696616 -4.1479092 12 0 0 0 15.630592
-10.090468 9.5027199 9.72892 46 0 0 0 15.630592
-3.6697135 5.9802947 -0.26301706 534 0 0 0 15.630592
-5.2149906 5.6392817 -0.20679194 396 0 0 0 15.630592
-4.1521096 4.6499405 -3.2386265 317 0 0 0 15.630592
-4.2560334 6.731781 1.6570557 208 0 0 0 15.630592
-8.6575994 8.5547647 6.0658064 42 0 0 0 15.630592
-4.152554 6.6021838 1.233077 331 0 0 0 15.630592
-3.0416515 6.1932225 0.19035777 521 0 0 0 15.630592
-5.3853951 5.790926 0.17491773 308 0 0 0 15.630592
-6.485682 7.9295731 5.3299956 64 0 0 0 15.630592
-4.9651027 6.3714142 1.5318767 263 0 0 0 15.630592
-4.4527836 5.8234735 0.30915198 385 0 0 0 15.630592
-2.2645884 5.0691118 -2.4846532 626 0 0 0 15.630592
-4.2425766 6.6697497 2.0498483 202 0 0 0 15.630592
-7.8015199 9.3363047 7.9522591 20 0 0 0 15.630592
-4.7489429 7.343328 3.6956887 155 0 0 0 15.630592
-3.6351762 6.0463076 -1.3205194 196 0 0 0 15.630592
-4.0165987 7.9126558 3.9505324 139 0 0 0 15.630592
-9.1754465 8.9369116 7.1955137 28 0 0 0 15.630592
-5.8336177 7.262095 3.7373695 127 0 0 0 15.630592
-4.1696219 5.5836205 -1.0781986 550 0 0 0 15.630592
-4.1272173 8.1677933 3.0329826 148 0 0 0 15.630592
-4.0588703 5.4654174 -1.402728 555 0 0 0 15.630592
-5.5948672 8.5076151 6.2145033 6 0 0 0 15.630592
-4.6372304 6.0276833 0.68925846 399 0 0 0 15.630592
-2.9585862 6.0666647 -0.14480443 502 0 0 0 15.630592
-3.9397168 5.3351417 -1.7129661 540 0 0 0 15.630592
-4.1022406 8.061902 5.1627226 83 0 0 0 15.630592
-2.8547637 5.9988732 -1.1384391 154 0 0 0 15.630592
-3.531719 5.9180984 -1.6455805 208 0 0 0 15.630592
-1.9867963 4.7155433 -3.3267992 535 0 0 0 15.630592
-4.3039751 5.7331448 -0.75235194 430 0 0 0 15.630592
-4.8806486 5.3348236 -0.91152358 355 0 0 0 15.630592
-7.0484791 8.5283699 6.4700489 60 0 0 0 15.630592
-3.9016416 6.2767019 0.4429082 435 0 0 0 15.630592
-3.7830403 6.1239657 0.08189027 466 0 0 0 15.630592
-4.2795167 8.4096708 6.0304399 59 0 0 0 15.630592
-2.5713351 4.6325374 -3.5444391 303 0 0 0 15.630592
-3.3964894 4.7650018 -3.6526375 129 0 0 0 15.630592
-3.9717031 5.4714875 -2.888432 55 0 0 0 15.630592
-4.592454 7.7555251 -2.6488609 56 0 0 0 15.630592
-4.6027966 5.0748081 -1.5669971 405 0 0 0 15.630592
-5.3334103 6.7464495 2.5109315 202 0 0 0 15.630592
-4.5502033 5.0559287 -2.2958157 418 0 0 0 15.630592
-4.1689773 8.278203 2.5750802 157 0 0 0 15.630592
-6.533875 6.7550883 2.5585492 165 0 0 0 15.630592
-3.9838159 7.8343682 4.4510064 71 0 0 0 15.630592
-6.8249159 6.9870262 3.1808321 157 0 0 0 15.630592
-3.9941051 4.4784155 -3.5232525 133 0 0 0 15.630592
-4.0757799 8.0446711 3.491977 148 0 0 0 15.630592
-6.4853215 6.7694736 2.0668881 293 0 0 0 15.630592
-4.7072921 8.0942783 -3.812562 53 0 0 0 15.630592
-3.3634188 3.7745211 -3.3343842 64 0 0 0 15.630592
-3.3602247 6.7252593 1.3203297 83 0 0 0 15.630592
-4.4262252 5.8570118 -0.40915066 532 0 0 0 15.630592
-2.745188 5.8937564 -1.7964598 219 0 0 0 15.630592
-6.167079 7.6099091 4.497736 88 0 0 0 15.630592
-2.784888 5.7974119 -0.77495337 596 0 0 0 15.630592
-3.9241033 5.373755 -2.4521613 155 0 0 0 15.630592
-4.2594061 7.4823732 -4.5738344 41 0 0 0 15.630592
-4.0269451 6.4429379 0.82637507 360 0 0 0 15.630592
-2.8624895 5.9139824 -0.4649494 578 0 0 0 15.630592
-4.5451012 7.0694251 3.0776353 184 0 0 0 15.630592
-5.1477079 6.5566468 2.0015106 236 0 0 0 15.630592
-6.2210002 6.547308 1.5375581 214 0 0 0 15.630592
-2.8024721 4.9812741 -3.4128451 50 0 0 0 15.630592
-9.5090199 9.1161671 8.2899446 44 0 0 0 15.630592
-8.1198139 9.7309666 9.2257557 36 0 0 0 15.734016
-4.9871454 5.4900517 -0.56308132 395 0 0 0 15.734016
-2.5404134 4.6379561 -3.5362852 312 0 0 0 15.734016
-5.8681784 9.0044661 7.3240962 72 0 0 0 15.734016
-5.5617795 8.5796356 6.2432303 19 0 0 0 15.734016
-5.320673 5.7921209 0.17685443 320 0 0 0 15.734016
-7.4728475 7.5777044 4.6684957 91 0 0 0 15.734016
-6.8979979 8.4582491 6.3872662 54 0 0 0 15.734016
-4.8777585 7.6095848 4.3580523 105 0 0 0 15.734016
-2.7833834 5.9998083 -1.4747354 225 0 0 0 15.734016
-3.1818922 6.5034361 0.9125703 451 0 0 0 15.734016
-9.3788738 9.1098967 8.2353964 34 0 0 0 15.734016
-4.0113678 5.4693203 -1.3955508 498 0 0 0 15.734016
-4.1716099 8.4155712 2.6104424 158 0 0 0 15.734016
-3.3850682 4.8063259 -3.6677403 154 0 0 0 15.734016
-7.0564647 7.2430768 3.8573759 100 0 0 0 15.734016
-6.5058408 6.8115797 2.5678594 190 0 0 0 15.734016
-3.8450909 6.2716122 0.44252244 508 0 0 0 15.734016
-3.3581083 3.8117876 -3.3482866 54 0 0 0 15.734016
-6.7110066 6.9580812 3.1523705 160 0 0 0 15.734016
-4.3757911 8.7548189 6.9764166 38 0 0 0 15.734016
-3.9414532 5.4361358 -2.0942957 336 0 0 0 15.734016
-6.383451 7.9087796 5.2920923 78 0 0 0 15.734016
-3.9649131 6.4320779 0.82356209 393 0 0 0 15.734016
-4.9027143 6.3731718 1.5273736 279 0 0 0 15.734016
-8.3755922 9.9058428 10.482065 32 0 0 0 15.734016
-4.0776486 8.1779919 3.5394244 115 0 0 0 15.734016
-2.6345477 4.7454319 -3.2374947 455 0 0 0 15.734016
-3.9732833 7.9410515 4.4980516 83 0 0 0 15.734016
-6.553637 6.9274015 2.1054285 157 0 0 0 15.734016
-4.5818191 7.9108448 -3.1922758 23 0 0 0 15.734016
-4.5721774 5.1018033 -1.5644926 412 0 0 0 15.734016
-4.8326554 5.3467159 -0.90597236 402 0 0 0 15.734016
-4.1087723 8.2616177 3.0591419 145 0 0 0 15.734016
-4.7103415 6.1659222 1.0867631 375 0 0 0 15.734016
-4.4783273 7.0644383 3.0650935 147 0 0 0 15.734016
-4.161942 8.4228411 2.1212983 60 0 0 0 15.734016
-4.6923342 5.2129965 -1.2370626 424 0 0 0 15.734016
-4.5995641 7.8730788 -2.6783855 43 0 0 0 15.734016
-5.8298903 7.4132886 3.2613258 38 0 0 0 15.734016
-2.8100736 5.9972563 -1.1339989 156 0 0 0 15.734016
-4.4728527 8.9589224 7.9349198 41 0 0 0 15.734016
-6.2687283 9.5002909 9.5701218 22 0 0 0 15.734016
-3.7350323 6.1299367 0.08319518 435 0 0 0 15.734016
-5.8908401 8.9825544 8.1421671 36 0 0 0 15.734016
-3.3067088 6.7229939 1.316923 63 0 0 0 15.734016
-5.0812044 7.8856568 5.1087861 87 0 0 0 15.734016
-2.4058518 5.3105268 -1.9266621 723 0 0 0 15.734016
-7.4490342 9.0345764 7.6594267 17 0 0 0 15.734016
-2.8205867 5.918685 -0.46308523 633 0 0 0 15.734016
-3.8875039 5.3895235 -2.4469466 136 0 0 0 15.734016
-1.9184207 4.741508 -3.7258036 153 0 0 0 15.734016
-2.747818 5.8096886 -0.77356416 559 0 0 0 15.734016
-9.1698494 9.0484343 7.2433219 19 0 0 0 15.734016
-4.5911846 5.1435227 -1.9430572 357 0 0 0 15.734016
-4.5008068 5.0605307 -2.2831736 429 0 0 0 15.734016
-4.0252852 8.0582218 4.0111551 121 0 0 0 15.734016
-5.0875306 6.5646124 1.9967233 248 0 0 0 15.734016
-5.2706633 6.7545094 2.5042229 204 0 0 0 15.734016
-4.3174281 6.8486524 2.5275428 204 0 0 0 15.734016
-3.5915844 6.0554762 -1.3163401 174 0 0 0 15.734016
-2.9948478 6.1937618 0.19077711 508 0 0 0 15.734016
-4.4302316 5.9047761 -0.048621736 227 0 0 0 15.734016
-4.0898008 6.5933042 1.228441 337 0 0 0 15.734016
-4.2079906 8.4061108 6.0097055 71 0 0 0 15.734016
-2.9137242 6.0684042 -0.14348629 473 0 0 0 15.734016
-2.2317135 5.0739946 -2.4799693 625 0 0 0 15.734016
-4.3810644 5.8710899 -0.40621042 520 0 0 0 15.734016
-6.0471916 7.5610948 4.4495139 72 0 0 0 15.734016
-4.2551799 5.7400341 -0.74781364 471 0 0 0 15.734016
-4.5804763 6.0306983 0.68859959 390 0 0 0 15.734016
-9.9792786 9.5228844 9.6900883 31 0 0 0 15.734016
-2.3156898 5.1845694 -2.2011011 678 0 0 0 15.734016
-4.3999901 5.8283386 0.31010357 401 0 0 0 15.734016
-5.1421542 5.6289415 -0.20238376 398 0 0 0 15.734016
-4.2279582 6.7403636 2.0648537 218 0 0 0 15.734016
-4.2565513 6.8270774 1.6752843 209 0 0 0 15.734016
-5.6975183 6.1167789 1.0083396 265 0 0 0 15.734016
-4.3595057 4.9130692 -2.5931141 471 0 0 0 15.734016
-3.4759755 5.9040756 -1.6343015 220 0 0 0 15.734016
-2.6052358 5.6809344 -1.7244052 141 0 0 0 15.734016
-4.6559806 6.531486 -3.9292357 84 0 0 0 15.734016
-5.4486666 5.8924885 0.57342005 316 0 0 0 15.734016
