# .PCD v0.7 - Point Cloud Data file format
VERSION 0.7
FIELDS x y z intensity normal_x normal_y normal_z curvature
SIZE 4 4 4 4 4 4 4 4
TYPE F F F F F F F F
COUNT 1 1 1 1 1 1 1 1
WIDTH 937
HEIGHT 1
VIEWPOINT 0 0 0 1 0 0 0
POINTS 937
DATA ascii
-8.5070047 4.6931472 -1.8998326 196 0 0 0 5.6494079
-12.210406 6.7537189 3.5396774 54 0 0 0 5.6494079
-12.482285 5.3463836 -0.12465852 142 0 0 0 5.6494079
-12.911924 5.5276837 0.55508655 73 0 0 0 5.6494079
-10.258702 5.6305161 0.038217556 202 0 0 0 5.6494079
-9.5658636 5.2570939 -1.03711 145 0 0 0 5.6494079
-31.154737 6.6411266 0.44170344 6 0 0 0 5.6494079
-8.2152929 4.5417562 -2.3220518 180 0 0 0 5.6494079
-8.3935652 2.6483505 -2.3876576 111 0 0 0 5.6494079
-6.2374268 3.4952292 -2.9491892 107 0 0 0 5.6494079
-8.5271387 1.7850783 -2.0362055 88 0 0 0 5.6494079
-10.284781 5.6448174 0.61270326 112 0 0 0 5.6494079
-10.728646 5.8931203 1.2422761 80 0 0 0 5.6494079
-10.362739 4.4452314 -2.3385446 121 0 0 0 5.6494079
-9.8714294 5.4181333 -0.51712161 226 0 0 0 5.6494079
-8.121438 3.4925375 -2.7568572 68 0 0 0 5.6494079
-10.699509 2.2643764 -1.4465344 163 0 0 0 5.6494079
-6.631146 2.8560605 -2.6427832 122 0 0 0 5.6494079
-12.216179 2.5971074 -1.0343326 87 0 0 0 5.6494079
-10.789188 4.6258674 -1.839785 111 0 0 0 5.6494079
-6.0045795 1.2338003 -2.0826728 101 0 0 0 5.6494079
-7.9032631 4.3856993 -2.7176545 178 0 0 0 5.6494079
-5.2110572 2.937717 -2.8216977 127 0 0 0 5.6494079
-12.688095 5.5242476 0.54742908 71 0 0 0 5.746944
-31.130981 6.8360262 0.44193277 5 0 0 0 5.746944
-6.0199976 1.2755318 -2.0908697 91 0 0 0 5.746944
-9.5351658 5.3166585 -1.0373062 26 0 0 0 5.746944
-10.176523 4.4395032 -2.301986 144 0 0 0 5.746944
-9.8606911 5.4912276 -0.51840079 51 0 0 0 5.746944
-13.25012 5.7743955 1.2754776 67 0 0 0 5.746944
-8.6453238 1.8653266 -2.0677693 71 0 0 0 5.746944
-12.095919 6.7682271 2.7954323 61 0 0 0 5.746944
-5.5983052 2.4557879 -2.5853543 161 0 0 0 5.746944
-3.8714728 2.2496135 -2.6901584 11 0 0 0 5.746944
-33.954716 7.2887726 11.124623 5 0 0 0 5.746944
-30.894148 6.7839885 -1.1171005 6 0 0 0 5.746944
-8.1094418 4.548471 -2.299577 153 0 0 0 5.746944
-12.417158 5.4088998 -0.12424313 205 0 0 0 5.746944
-4.4292922 2.5522623 -2.7313011 222 0 0 0 5.746944
-5.8579297 1.8783989 -2.3344662 154 0 0 0 5.746944
-6.6547046 2.9147341 -2.6595304 129 0 0 0 5.746944
-10.592542 2.2999909 -1.9833875 78 0 0 0 5.746944
-12.244003 3.9632428 -1.5383644 100 0 0 0 5.746944
-10.772662 3.4805701 -1.9146472 124 0 0 0 5.746944
-11.109415 4.8394027 -1.2943344 88 0 0 0 5.746944
-10.128634 5.6403151 0.6058647 104 0 0 0 5.746944
-10.722199 2.3380203 -1.4516522 163 0 0 0 5.746944
-10.628448 4.6343765 -1.8166939 106 0 0 0 5.746944
-5.2281709 2.9897532 -2.8411558 120 0 0 0 5.746944
-13.271145 7.4101424 -2.2205255 21 0 0 0 5.746944
-9.8022985 4.2803864 -2.771065 122 0 0 0 5.746944
-8.2666912 3.6152349 -2.8145463 36 0 0 0 5.746944
-6.9521632 2.2349288 -2.3706758 104 0 0 0 5.746944
-10.592299 5.9031596 1.2309741 102 0 0 0 5.746944
-10.918312 6.0972257 1.8921336 87 0 0 0 5.746944
-8.3530865 4.6753836 -1.8712244 163 0 0 0 5.746944
-12.159907 5.294342 -0.76866293 78 0 0 0 5.746944
-10.306975 5.7395468 0.038234137 95 0 0 0 5.746944
-8.4248619 2.7151852 -2.4015017 70 0 0 0 5.746944
-6.2728128 3.5657642 -2.9766228 63 0 0 0 5.746944
-7.8261895 4.4059834 -2.7001221 160 0 0 0 5.746944
-12.671336 7.1365938 4.4634681 44 0 0 0 5.746944
-12.129826 6.806694 3.5284555 79 0 0 0 5.746944
-12.233102 2.6792738 -1.0372427 104 0 0 0 5.746944
-7.5171156 4.2495146 -3.0722539 179 0 0 0 5.746944
-7.1129379 1.5209146 -2.0791516 139 0 0 0 5.746944
-10.619534 3.4310753 -2.4565747 68 0 0 0 5.746944
-5.2331367 3.0353317 -2.8541279 144 0 0 0 5.8434558
-10.073064 4.4681492 -2.2844296 126 0 0 0 5.8434558
-12.247532 2.7613063 -1.0399816 104 0 0 0 5.8434558
-8.7305584 1.9399031 -2.0914423 72 0 0 0 5.8434558
-10.747289 2.4126799 -1.4571739 108 0 0 0 5.8434558
-9.8207235 5.5481915 -0.51805639 59 0 0 0 5.8434558
-9.6317692 4.2765017 -2.7295926 126 0 0 0 5.8434558
-8.2347708 3.6616311 -2.8112237 52 0 0 0 5.8434558
-6.0683513 1.3247751 -2.1108701 171 0 0 0 5.8434558
-7.99792 4.5507054 -2.2753921 181 0 0 0 5.8434558
-10.770754 3.5530896 -1.9182216 94 0 0 0 5.8434558
-13.238339 7.4987421 -2.2227323 13 0 0 0 5.8434558
-6.9969497 2.2968028 -2.3910854 126 0 0 0 5.8434558
-31.0826 7.0255904 0.44185632 5 0 0 0 5.8434558
-7.7259068 4.4122186 -2.6744082 221 0 0 0 5.8434558
-6.2939777 3.6290395 -2.9974878 65 0 0 0 5.8434558
-10.041649 5.6728988 0.60291278 91 0 0 0 5.8434558
-6.7206006 2.9928582 -2.6937225 111 0 0 0 5.8434558
-10.595502 3.4952536 -2.4559193 95 0 0 0 5.8434558
-9.9171333 5.6026125 0.038163099 85 0 0 0 5.8434558
-12.492215 5.5304093 0.5408814 76 0 0 0 5.8434558
-8.537138 2.8093314 -2.4390399 82 0 0 0 5.8434558
-12.356307 5.4728427 -0.1238871 95 0 0 0 5.8434558
-7.4378481 4.2651711 -3.0501826 174 0 0 0 5.8434558
-12.103005 6.8896246 3.5328467 65 0 0 0 5.8434558
-12.051603 6.840867 2.7948453 48 0 0 0 5.8434558
-7.1784611 1.5810913 -2.1015646 124 0 0 0 5.8434558
-5.6292734 2.510659 -2.6071005 146 0 0 0 5.8434558
-12.453701 7.1150904 4.4025021 47 0 0 0 5.8434558
-4.7306862 2.1151133 -2.4994814 10 0 0 0 5.8434558
-33.910282 7.4971833 11.124928 7 0 0 0 5.8434558
-3.8524489 2.2702994 -2.686506 18 0 0 0 5.8434558
-10.944088 4.8475122 -1.2780356 112 0 0 0 5.8434558
-4.4241734 2.5855889 -2.7379878 199 0 0 0 5.8434558
-13.013 7.4646206 5.437181 23 0 0 0 5.8434558
-29.872349 6.7518773 -1.0804489 6 0 0 0 5.8434558
-5.8808584 1.9256337 -2.3485379 172 0 0 0 5.8434558
-8.2551527 4.6873593 -1.8553528 213 0 0 0 5.8434558
-11.351353 5.0254741 -0.71706784 94 0 0 0 5.8434558
-10.812695 6.1256099 1.8805113 75 0 0 0 5.8434558
-12.980328 5.751874 1.2534808 51 0 0 0 5.8434558
-10.429377 5.8965759 1.2166256 101 0 0 0 5.8434558
-10.600292 2.3698833 -1.9876105 78 0 0 0 5.8434558
-10.48968 4.650692 -1.7973987 120 0 0 0 5.8434558
-12.234533 4.0432811 -1.5403116 101 0 0 0 5.8434558
-12.068064 6.9681196 3.5350423 129 0 0 0 5.9412479
-12.413391 5.586864 0.53906876 109 0 0 0 5.9412479
-9.2136497 5.2867618 -1.0082674 181 0 0 0 5.9412479
-12.949061 7.5339241 5.429718 31 0 0 0 5.9412479
-10.598962 2.4379709 -1.990181 88 0 0 0 5.9412479
-5.2354069 3.0797136 -2.8658025 121 0 0 0 5.9412479
-12.232299 2.8368547 -1.0401528 90 0 0 0 5.9412479
-6.299468 3.6838701 -3.0110114 86 0 0 0 5.9412479
-5.0667481 1.6893955 -2.3315682 8 0 0 0 5.9412479
-10.303203 5.9089994 1.2064047 103 0 0 0 5.9412479
-12.264129 7.1070065 4.351162 45 0 0 0 5.9412479
-8.8843966 5.1062722 -1.4839011 270 0 0 0 5.9412479
-12.252755 4.1328716 -1.5459096 69 0 0 0 5.9412479
-4.8050561 2.18381 -2.5466723 29 0 0 0 5.9412479
-8.5855255 2.8837693 -2.4582086 78 0 0 0 5.9412479
-13.382671 6.0286193 2.0196331 38 0 0 0 5.9412479
-6.7413859 3.0518098 -2.7097719 136 0 0 0 5.9412479
-10.589628 6.0854502 1.8487335 95 0 0 0 5.9412479
-9.822691 5.6290712 0.038151059 239 0 0 0 5.9412479
-12.78127 5.7577667 1.2380745 62 0 0 0 5.9412479
-10.351117 4.6654806 -1.7781034 117 0 0 0 5.9412479
-6.0720892 1.364686 -2.1151326 158 0 0 0 5.9412479
-7.3611131 4.2814336 -3.02913 165 0 0 0 5.9412479
-11.247482 5.0622644 -0.71221185 119 0 0 0 5.9412479
-8.1539898 4.6963544 -1.8386973 166 0 0 0 5.9412479
-9.8818388 5.6629391 0.59582824 133 0 0 0 5.9412479
-12.258668 5.5198245 -0.12305634 65 0 0 0 5.9412479
-10.734213 2.4790251 -1.4574434 122 0 0 0 5.9412479
-9.5454044 4.3084741 -2.712291 141 0 0 0 5.9412479
-9.931283 4.4784031 -2.2579916 154 0 0 0 5.9412479
-7.918602 4.5701494 -2.2604902 208 0 0 0 5.9412479
-5.9299603 1.982096 -2.3734338 152 0 0 0 5.9412479
-7.0484381 2.3617241 -2.4140067 98 0 0 0 5.9412479
-5.6396985 2.5569038 -2.6193573 130 0 0 0 5.9412479
-8.8180437 2.0162468 -2.1158113 71 0 0 0 5.9412479
-9.495266 5.4415889 -0.5015257 132 0 0 0 5.9412479
-8.2868586 3.7458472 -2.837199 45 0 0 0 5.9412479
-11.914199 6.8599081 2.7729378 24 0 0 0 5.9412479
-7.2285333 1.6387246 -2.1194952 106 0 0 0 5.9412479
-10.788906 3.6326365 -1.9255407 106 0 0 0 5.9412479
-4.4301543 2.6256583 -2.7518387 180 0 0 0 5.9412479
-10.62657 3.577956 -2.4683728 74 0 0 0 5.9412479
-3.8333168 2.2908366 -2.6828539 19 0 0 0 5.9412479
-7.6415725 4.4264913 -2.6542459 227 0 0 0 5.9412479
-10.734673 4.8337846 -1.256377 132 0 0 0 5.9412479
-5.6581097 2.6072128 -2.6355681 131 0 0 0 6.0395522
-3.8279488 2.3196108 -2.6891148 48 0 0 0 6.0395522
-12.741338 7.5181494 5.3622112 34 0 0 0 6.0395522
-7.280036 1.6974683 -2.1379859 103 0 0 0 6.0395522
-10.185838 4.6664114 -1.7540634 149 0 0 0 6.0395522
-12.431881 5.689796 -0.12576224 15 0 0 0 6.0395522
-7.549108 4.4350562 -2.6311617 192 0 0 0 6.0395522
-8.8708344 2.085706 -2.1318254 72 0 0 0 6.0395522
-6.7821345 3.1205261 -2.7341948 101 0 0 0 6.0395522
-10.618238 2.5111163 -1.9967909 67 0 0 0 6.0395522
-6.3172188 3.7464247 -3.0307171 105 0 0 0 6.0395522
-10.813008 3.7147818 -1.9340512 104 0 0 0 6.0395522
-10.633946 3.6532414 -2.4753644 70 0 0 0 6.0395522
-9.8787642 5.7419691 0.038169384 126 0 0 0 6.0395522
-13.297673 6.0887594 2.0125227 61 0 0 0 6.0395522
-12.653296 5.7937832 1.2293442 58 0 0 0 6.0395522
-5.9538751 2.0307968 -2.388227 145 0 0 0 6.0395522
-10.743864 2.5508029 -1.460945 104 0 0 0 6.0395522
-13.058994 7.6103549 -2.2078733 32 0 0 0 6.0395522
-29.708389 7.0990949 0.42501333 4 0 0 0 6.0395522
-7.2682533 4.2873664 -3.001286 193 0 0 0 6.0395522
-10.161785 5.9110966 1.1944149 75 0 0 0 6.0395522
-6.1307831 1.4174982 -2.1390676 178 0 0 0 6.0395522
-29.711432 7.099822 -1.0776042 8 0 0 0 6.0395522
-5.0580163 1.7210418 -2.3323817 31 0 0 0 6.0395522
-9.6845312 5.6291637 0.58657891 126 0 0 0 6.0395522
-11.112728 5.0838556 -0.70529199 107 0 0 0 6.0395522
-4.4591651 2.6799073 -2.7804959 187 0 0 0 6.0395522
-8.3356228 3.8296454 -2.8622682 49 0 0 0 6.0395522
-9.4291248 4.3258414 -2.6863389 145 0 0 0 6.0395522
-10.96559 6.4039907 2.5636418 69 0 0 0 6.0395522
-7.0904074 2.4242899 -2.4337883 129 0 0 0 6.0395522
-12.212724 2.9113946 -1.0399816 113 0 0 0 6.0395522
-7.8267922 4.58145 -2.241924 192 0 0 0 6.0395522
-8.6369658 2.9601564 -2.478442 84 0 0 0 6.0395522
-13.182568 4.5368881 -1.6697962 44 0 0 0 6.0395522
-11.974024 7.0121574 3.5201612 32 0 0 0 6.0395522
-8.0310087 4.6914353 -1.8169473 177 0 0 0 6.0395522
-12.36888 5.6583538 0.53866184 163 0 0 0 6.0395522
-9.835125 4.5078735 -2.2420876 142 0 0 0 6.0395522
-9.2705088 5.3952217 -1.0184702 21 0 0 0 6.0395522
-4.8355689 2.2335629 -2.5704882 53 0 0 0 6.0395522
-12.09245 7.1070399 4.3059478 50 0 0 0 6.0395522
-10.583692 4.844141 -1.2417191 158 0 0 0 6.0395522
-10.463198 6.0985417 1.8334332 78 0 0 0 6.0395522
-5.255146 3.1348486 -2.8874226 158 0 0 0 6.0395522
-10.90844 5.0715909 -0.69369829 124 0 0 0 6.1363201
-6.172513 1.4671384 -2.1571009 161 0 0 0 6.1363201
-13.177022 7.775353 -1.4693562 18 0 0 0 6.1363201
-9.3278971 4.3488908 -2.664712 173 0 0 0 6.1363201
-11.746633 5.4636722 -0.11725291 59 0 0 0 6.1363201
-10.07555 4.6909075 -1.739671 113 0 0 0 6.1363201
-9.2134848 5.4314823 -0.48927531 25 0 0 0 6.1363201
-10.307201 6.0927062 1.8129836 94 0 0 0 6.1363201
-5.2736325 3.1898751 -2.9086103 167 0 0 0 6.1363201
-10.024163 5.9137049 1.1828181 118 0 0 0 6.1363201
-8.9335003 2.158406 -2.1503925 72 0 0 0 6.1363201
-9.5835428 5.6494493 0.58279061 122 0 0 0 6.1363201
-5.0732493 1.761039 -2.3445837 44 0 0 0 6.1363201
-6.8002167 3.1795399 -2.7495463 128 0 0 0 6.1363201
-13.597363 4.775876 -1.012554 9 0 0 0 6.1363201
-3.8631017 2.3733728 -2.7245941 86 0 0 0 6.1363201
-7.1498003 2.4937155 -2.4598496 115 0 0 0 6.1363201
-9.8597174 5.8121185 0.0381727 93 0 0 0 6.1363201
-6.3304839 3.8069601 -3.0484912 89 0 0 0 6.1363201
-29.667309 7.2819943 -1.0776042 8 0 0 0 6.1363201
-12.184954 2.9839027 -1.0391257 114 0 0 0 6.1363201
-5.689425 2.6640725 -2.6581051 143 0 0 0 6.1363201
-12.317592 5.7317886 1.2009281 61 0 0 0 6.1363201
-8.7269135 3.0509672 -2.5101233 67 0 0 0 6.1363201
-11.843205 7.0335269 3.4945459 44 0 0 0 6.1363201
-10.902458 6.4571681 2.5581648 90 0 0 0 6.1363201
-8.47785 5.0121903 -1.4246123 135 0 0 0 6.1363201
-4.8315239 2.2677648 -2.5757806 80 0 0 0 6.1363201
-12.008347 7.1571202 4.2916541 41 0 0 0 6.1363201
-10.638037 3.7277834 -2.4817004 61 0 0 0 6.1363201
-7.7326417 4.5903134 -2.222625 229 0 0 0 6.1363201
-29.671068 7.282918 0.4251025 4 0 0 0 6.1363201
-12.999958 4.5634294 -1.6497164 83 0 0 0 6.1363201
-7.9370918 4.702167 -1.8018595 145 0 0 0 6.1363201
-2.9383533 1.8429959 -2.6000466 38 0 0 0 6.1363201
-7.1844821 4.2976294 -2.9771774 194 0 0 0 6.1363201
-12.291337 5.714345 0.53692323 126 0 0 0 6.1363201
-7.4757309 4.4539037 -2.6147983 205 0 0 0 6.1363201
-8.3707094 3.9081345 -2.8828065 55 0 0 0 6.1363201
-10.806942 2.6359611 -1.4719886 79 0 0 0 6.1363201
-9.730998 4.5326161 -2.2243247 118 0 0 0 6.1363201
-10.646565 2.5869141 -2.0052369 57 0 0 0 6.1363201
-4.4704113 2.7241099 -2.7981679 177 0 0 0 6.1363201
-12.538339 7.5025268 5.2964005 33 0 0 0 6.1363201
-13.117203 6.1037779 1.9911913 51 0 0 0 6.1363201
-5.9703674 2.0774114 -2.4001338 173 0 0 0 6.1363201
-7.327354 1.7560083 -2.1553562 117 0 0 0 6.1363201
-10.523125 4.8947401 -1.2379999 143 0 0 0 6.1363201
-10.818839 3.7911649 -1.9393276 78 0 0 0 6.1363201
-4.8628888 2.3189893 -2.6004786 117 0 0 0 6.2338562
-12.301366 4.3958101 -2.2155776 66 0 0 0 6.2338562
-29.621944 7.463861 0.42505154 10 0 0 0 6.2338562
-8.437602 5.0585246 -1.4229939 390 0 0 0 6.2338562
-12.844625 4.5976057 -1.6331657 65 0 0 0 6.2338562
-5.2924094 3.2457163 -2.9302304 180 0 0 0 6.2338562
-8.8024492 3.1381345 -2.537811 73 0 0 0 6.2338562
-9.873229 5.9066792 1.1696489 110 0 0 0 6.2338562
-7.6444969 4.6016932 -2.2050359 218 0 0 0 6.2338562
-5.7103 2.716681 -2.6758976 139 0 0 0 6.2338562
-6.8559241 3.2569816 -2.7805984 112 0 0 0 6.2338562
-12.21103 5.7736225 1.1941664 72 0 0 0 6.2338562
-10.485703 4.9558196 -1.2371248 186 0 0 0 6.2338562
-10.6508 3.8057973 -2.4902213 58 0 0 0 6.2338562
-11.915898 7.2014918 4.2744436 50 0 0 0 6.2338562
-8.8790436 5.3144879 -0.98119074 140 0 0 0 6.2338562
-10.704549 6.429069 2.5213912 70 0 0 0 6.2338562
-10.165251 6.0933204 1.794888 75 0 0 0 6.2338562
-9.5756445 4.5319824 -2.1945822 166 0 0 0 6.2338562
-3.8520889 2.3992832 -2.7272029 103 0 0 0 6.2338562
-11.708593 7.1042695 4.9659901 25 0 0 0 6.2338562
-10.72586 2.6760223 -2.0235977 75 0 0 0 6.2338562
-29.621099 7.4636483 -1.0775678 12 0 0 0 6.2338562
-9.2293653 4.3721037 -2.6438484 167 0 0 0 6.2338562
-12.909282 6.1036844 1.9657011 55 0 0 0 6.2338562
-5.1398468 1.8195935 -2.3811901 89 0 0 0 6.2338562
-9.4440861 5.6456618 0.57678843 117 0 0 0 6.2338562
-9.0928345 2.2561226 -2.1928644 62 0 0 0 6.2338562
-12.265884 3.0722487 -1.6787193 38 0 0 0 6.2338562
-5.994421 2.1271136 -2.4152877 141 0 0 0 6.2338562
-10.792274 5.0983605 -0.68799245 126 0 0 0 6.2338562
-9.9144688 4.6901655 -1.7162635 146 0 0 0 6.2338562
-4.4685683 2.7607114 -2.8077202 180 0 0 0 6.2338562
-11.203882 5.2951484 -0.11057124 119 0 0 0 6.2338562
-7.3745685 4.4552178 -2.5884998 230 0 0 0 6.2338562
-8.3870554 3.9786198 -2.8970025 32 0 0 0 6.2338562
-6.2037697 1.5148717 -2.1715276 160 0 0 0 6.2338562
-7.3695655 1.8140426 -2.1713254 117 0 0 0 6.2338562
-9.1259632 5.455646 -0.48617581 124 0 0 0 6.2338562
-7.1629877 2.5477257 -2.4698975 105 0 0 0 6.2338562
-6.3432431 3.8677988 -3.0662651 87 0 0 0 6.2338562
-2.9390719 1.8686494 -2.6109719 71 0 0 0 6.2338562
-9.4761715 5.6648264 0.038102016 166 0 0 0 6.2338562
-12.073513 5.7034521 0.52945071 73 0 0 0 6.2338562
-11.973489 7.2105751 3.5455322 25 0 0 0 6.2338562
-13.373446 4.7895899 -0.99750185 48 0 0 0 6.2338562
-7.1105137 4.3128757 -2.9571435 221 0 0 0 6.2338562
-7.8845477 4.7366505 -1.796373 148 0 0 0 6.2338562
-12.172213 3.0600712 -1.0396392 121 0 0 0 6.2338562
-12.706327 6.1034174 1.9408816 58 0 0 0 6.3324161
-4.8744183 2.3612976 -2.6145918 127 0 0 0 6.3324161
-11.07552 6.7631011 3.2940161 45 0 0 0 6.3324161
-10.74369 3.9135087 -2.5179687 41 0 0 0 6.3324161
-12.252561 3.1489346 -1.6795274 119 0 0 0 6.3324161
-10.471227 5.0278082 -1.2390938 278 0 0 0 6.3324161
-13.258143 6.3769755 2.7632363 37 0 0 0 6.3324161
-7.8251786 4.7665882 -1.7893189 196 0 0 0 6.3324161
-6.3609858 3.9323282 -3.0867436 82 0 0 0 6.3324161
-2.5924683 1.6914328 -2.5827701 85 0 0 0 6.3324161
-9.7306395 4.6765084 -1.6887441 153 0 0 0 6.3324161
-10.797792 2.7644911 -2.0406733 95 0 0 0 6.3324161
-12.085287 4.4023824 -2.1808548 107 0 0 0 6.3324161
-13.218655 8.0106926 -0.72380418 22 0 0 0 6.3324161
-9.4030313 4.5211372 -2.1607087 171 0 0 0 6.3324161
-7.5647855 4.6172142 -2.1898897 230 0 0 0 6.3324161
-29.583334 7.6474805 0.42515346 6 0 0 0 6.3324161
-7.0334253 4.325408 -2.9357512 213 0 0 0 6.3324161
-2.9282193 1.8870776 -2.6115789 62 0 0 0 6.3324161
-7.4513531 1.8827944 -2.199342 111 0 0 0 6.3324161
-4.4709144 2.8001869 -2.8201382 189 0 0 0 6.3324161
-6.0233498 2.1790934 -2.4326067 150 0 0 0 6.3324161
-6.9024935 3.3311539 -2.8081615 108 0 0 0 6.3324161
-9.3041868 5.6398602 0.570737 125 0 0 0 6.3324161
-10.587101 5.0811505 -0.67627734 139 0 0 0 6.3324161
-9.725316 5.8995738 1.1567745 139 0 0 0 6.3324161
-9.0794859 4.3695359 -2.6079733 160 0 0 0 6.3324161
-13.29228 4.8527408 -0.9935025 57 0 0 0 6.3324161
-7.2079105 2.6136482 -2.4912488 107 0 0 0 6.3324161
-9.6969843 5.8777618 0.0381542 17 0 0 0 6.3324161
-12.171535 3.1394348 -1.0412655 109 0 0 0 6.3324161
-8.4466515 4.0705523 -2.9266021 47 0 0 0 6.3324161
-11.906747 5.714313 0.52404982 90 0 0 0 6.3324161
-7.2948842 4.4684381 -2.5697987 248 0 0 0 6.3324161
-8.8400984 3.2128375 -2.5545833 70 0 0 0 6.3324161
-8.4393759 5.1302257 -1.4287316 522 0 0 0 6.3324161
-11.781757 7.2195249 4.2423563 55 0 0 0 6.3324161
-13.00488 7.8905458 -1.4606249 26 0 0 0 6.3324161
-10.017768 6.0888305 1.7757626 100 0 0 0 6.3324161
-5.3168263 3.305712 -2.9553094 149 0 0 0 6.3324161
-9.2060585 2.3443329 -2.2241962 68 0 0 0 6.3324161
-12.877268 7.9617629 6.3593779 20 0 0 0 6.3324161
-6.2245927 1.5605098 -2.1823475 167 0 0 0 6.3324161
-11.092754 5.326149 -0.10953873 113 0 0 0 6.3324161
-10.553477 6.4268265 2.4953759 85 0 0 0 6.3324161
-5.7175088 2.763253 -2.6873636 145 0 0 0 6.3324161
-29.583454 7.6475115 -1.077896 17 0 0 0 6.3324161
-12.005627 5.766922 1.1779897 89 0 0 0 6.3324161
-12.663258 4.6205201 -1.6132076 69 0 0 0 6.3324161
-11.558999 7.1109471 4.9212112 27 0 0 0 6.3324161
-5.1397548 1.8551317 -2.3864777 134 0 0 0 6.3324161
-3.8488433 2.4301498 -2.7355511 152 0 0 0 6.3324161
-2.9205811 1.9076115 -2.6152208 54 0 0 0 6.4281602
-9.2357283 2.4123485 -2.2351043 89 0 0 0 6.4281602
-10.831013 2.8439426 -2.0504045 129 0 0 0 6.4281602
-9.6210098 4.6967182 -1.6743517 138 0 0 0 6.4281602
-9.8850441 6.0915794 1.7591381 84 0 0 0 6.4281602
-11.760071 5.7329755 0.5194627 111 0 0 0 6.4281602
-12.186716 3.2232413 -1.0443467 84 0 0 0 6.4281602
-13.143674 6.4215274 2.7477171 43 0 0 0 6.4281602
-7.2120667 4.4788327 -2.5499289 254 0 0 0 6.4281602
-10.507273 5.1224017 -0.67299956 154 0 0 0 6.4281602
-7.4926195 1.942238 -2.2153113 85 0 0 0 6.4281602
-10.419532 6.4332733 2.4732728 73 0 0 0 6.4281602
-6.0544891 2.2324762 -2.4510081 147 0 0 0 6.4281602
-9.2030182 5.6560764 0.56689954 116 0 0 0 6.4281602
-6.3938103 4.0070071 -3.1149499 78 0 0 0 6.4281602
-8.5181332 5.2416668 -0.94705051 38 0 0 0 6.4281602
-29.532108 7.8278637 -1.0777501 6 0 0 0 6.4281602
-5.154851 1.8964187 -2.3990865 148 0 0 0 6.4281602
-6.9248438 3.3944733 -2.8259552 118 0 0 0 6.4281602
-10.815263 6.695725 3.2293684 66 0 0 0 6.4281602
-8.5413952 4.1809621 -2.9688873 59 0 0 0 6.4281602
-11.435316 7.1319818 4.8872886 39 0 0 0 6.4281602
-4.4818482 2.8454378 -2.8382878 189 0 0 0 6.4281602
-5.7614679 2.8282211 -2.7166221 92 0 0 0 6.4281602
-11.853604 5.7836933 1.166863 61 0 0 0 6.4281602
-5.4102979 1.3790063 -2.211055 26 0 0 0 6.4281602
-12.460228 6.0796041 1.9094884 58 0 0 0 6.4281602
-4.875946 2.3990822 -2.6234126 126 0 0 0 6.4281602
-11.672226 7.2513199 4.2190199 46 0 0 0 6.4281602
-7.2514009 2.6798878 -2.5122864 97 0 0 0 6.4281602
-9.6402845 5.9245915 0.038150012 31 0 0 0 6.4281602
-9.2924643 4.5383964 -2.1412933 179 0 0 0 6.4281602
-6.9604445 4.339644 -2.9160569 233 0 0 0 6.4281602
-2.5960367 1.7165308 -2.5970199 117 0 0 0 6.4281602
-13.087461 4.8691592 -0.97990459 52 0 0 0 6.4281602
-8.944046 3.3129053 -2.5910568 74 0 0 0 6.4281602
-9.6397581 5.9289155 1.1510744 105 0 0 0 6.4281602
-7.733192 4.7758961 -1.774623 234 0 0 0 6.4281602
-6.2642984 1.611415 -2.200053 175 0 0 0 6.4281602
-8.8191614 5.4203587 -0.47235107 30 0 0 0 6.4281602
-11.859438 4.4026971 -2.1442599 114 0 0 0 6.4281602
-13.658174 5.0842733 -0.31423873 7 0 0 0 6.4281602
-8.35215 5.1476831 -1.4190217 170 0 0 0 6.4281602
-5.3155212 3.3502796 -2.9661195 134 0 0 0 6.4281602
-10.433032 5.0884786 -1.2382187 349 0 0 0 6.4281602
-3.8554294 2.467495 -2.7512035 166 0 0 0 6.4281602
-7.4761 4.6263223 -2.1720564 245 0 0 0 6.4281602
-10.91707 4.0527368 -2.5651612 58 0 0 0 6.4281602
-8.9951563 4.397141 -2.5911808 154 0 0 0 6.4281602
-12.778137 8.0092831 6.3346801 28 0 0 0 6.4281602
-12.444888 4.627543 -1.5883815 80 0 0 0 6.4281602
-12.244505 3.2270896 -1.6811435 118 0 0 0 6.4281602
-10.924149 5.3279395 -0.10774667 105 0 0 0 6.4281602
-7.2756901 2.7397292 -2.5267301 94 0 0 0 6.5269761
-13.415475 5.0878448 -0.30879593 62 0 0 0 6.5269761
-10.255146 6.4190793 2.4439321 74 0 0 0 6.5269761
-5.3108282 3.3930156 -2.9751999 168 0 0 0 6.5269761
-9.467267 4.6938353 -1.6520514 124 0 0 0 6.5269761
-8.4292259 5.2585654 -0.94047755 338 0 0 0 6.5269761
-10.695104 6.7124944 3.2059488 75 0 0 0 6.5269761
-11.01795 4.1673017 -2.5953121 125 0 0 0 6.5269761
-9.7459564 6.0887403 1.7413367 88 0 0 0 6.5269761
-9.107976 5.674983 0.038048085 174 0 0 0 6.5269761
-5.1721988 1.938923 -2.4129155 139 0 0 0 6.5269761
-9.4824152 5.9126992 1.1370207 130 0 0 0 6.5269761
-29.486416 8.0097084 -1.0778595 10 0 0 0 6.5269761
-12.871758 4.8790059 -0.96543407 77 0 0 0 6.5269761
-8.8744497 4.4058199 -2.5637021 179 0 0 0 6.5269761
-6.309092 1.6643153 -2.2197256 169 0 0 0 6.5269761
-10.456858 5.1774778 -0.67172486 177 0 0 0 6.5269761
-7.1423512 4.4965267 -2.5347342 253 0 0 0 6.5269761
-5.7612705 2.8721213 -2.7249253 93 0 0 0 6.5269761
-12.233056 3.3159637 -1.0502524 88 0 0 0 6.5269761
-11.743722 4.441906 -2.1279197 87 0 0 0 6.5269761
-9.301548 2.490644 -2.255064 83 0 0 0 6.5269761
-2.9161174 1.9303114 -2.6218972 59 0 0 0 6.5269761
-4.8739805 2.4353704 -2.6304691 171 0 0 0 6.5269761
-6.8859649 4.3521438 -2.8956833 210 0 0 0 6.5269761
-12.2956 4.6580906 -1.572561 72 0 0 0 6.5269761
-12.377514 7.8645091 6.1606364 18 0 0 0 6.5269761
-12.235951 3.3052642 -1.6827596 90 0 0 0 6.5269761
-8.5616808 4.2562013 -2.9851973 98 0 0 0 6.5269761
-7.3818378 4.6309128 -2.152513 248 0 0 0 6.5269761
-6.4096012 4.0718589 -3.1350422 65 0 0 0 6.5269761
-2.5936921 1.7379278 -2.6054404 147 0 0 0 6.5269761
-9.2197371 4.5731606 -2.1307595 151 0 0 0 6.5269761
-9.0092182 3.4000678 -2.6163485 74 0 0 0 6.5269761
-10.78641 5.3429508 -0.10635812 124 0 0 0 6.5269761
-7.6513648 4.7904959 -1.7622783 242 0 0 0 6.5269761
-8.7976074 5.4817605 -0.47303984 139 0 0 0 6.5269761
-3.8531075 2.499449 -2.7605953 214 0 0 0 6.5269761
-7.9000421 4.936419 -1.3453151 195 0 0 0 6.5269761
-10.386471 5.1448998 -1.2363591 244 0 0 0 6.5269761
-9.0587606 5.6443434 0.56055295 141 0 0 0 6.5269761
-12.952532 6.4269032 2.7163136 58 0 0 0 6.5269761
-10.82285 2.9129052 -2.0522406 123 0 0 0 6.5269761
-5.4169798 1.4161754 -2.2174261 52 0 0 0 6.5269761
-7.524159 1.9997877 -2.2284789 90 0 0 0 6.5269761
-11.276025 7.1291571 4.8381 45 0 0 0 6.5269761
-6.9970174 3.4832416 -2.8646832 77 0 0 0 6.5269761
-6.0799613 2.2843535 -2.4672446 143 0 0 0 6.5269761
-11.507703 7.2473989 4.175848 73 0 0 0 6.5269761
-11.628625 5.7625494 1.1487176 79 0 0 0 6.5269761
-4.4857416 2.8866544 -2.8521388 164 0 0 0 6.5269761
-11.177458 5.5341635 0.4968603 89 0 0 0 6.5269761
-12.316133 6.1031547 1.8933892 76 0 0 0 6.5269761
-7.3207893 2.8081334 -2.5487096 84 0 0 0 6.6229758
-11.550738 4.4500952 -2.0972819 107 0 0 0 6.6229758
-7.0573697 4.503767 -2.5139878 282 0 0 0 6.6229758
-11.434619 5.7540903 1.1334826 72 0 0 0 6.6229758
-5.426095 1.4542003 -2.2249215 71 0 0 0 6.6229758
-6.3443522 1.7153537 -2.2361195 156 0 0 0 6.6229758
-3.3870745 2.2470646 -2.7333336 8 0 0 0 6.6229758
-7.8227978 4.9551802 -1.3370764 217 0 0 0 6.6229758
-8.4010077 5.3128452 -0.9409681 448 0 0 0 6.6229758
-9.2427921 3.5532024 -2.6916914 35 0 0 0 6.6229758
-10.083877 6.3983865 2.4128311 95 0 0 0 6.6229758
-12.245116 3.4000354 -1.0531626 89 0 0 0 6.6229758
-11.065611 5.5635977 0.49364194 126 0 0 0 6.6229758
-12.036569 7.7520761 6.0151496 29 0 0 0 6.6229758
-11.371896 7.2597404 4.1428852 41 0 0 0 6.6229758
-9.5997562 6.0796661 1.7222112 84 0 0 0 6.6229758
-4.8941669 2.4830887 -2.6498747 175 0 0 0 6.6229758
-9.4239368 5.95225 0.038120516 33 0 0 0 6.6229758
-10.810458 2.980828 -2.0533423 140 0 0 0 6.6229758
-4.4900331 2.9285045 -2.8664672 174 0 0 0 6.6229758
-5.1858048 1.9804066 -2.4251177 143 0 0 0 6.6229758
-10.578423 6.7301245 3.1835053 66 0 0 0 6.6229758
-6.434144 4.1430411 -3.1597712 84 0 0 0 6.6229758
-8.9614534 5.6603742 0.55691224 148 0 0 0 6.6229758
-7.3008995 4.6428418 -2.1368785 231 0 0 0 6.6229758
-7.019845 3.5485084 -2.8831747 68 0 0 0 6.6229758
-12.106592 4.6716137 -1.5515076 64 0 0 0 6.6229758
-6.0945716 2.332624 -2.4791512 152 0 0 0 6.6229758
-12.220215 3.3816032 -1.6834331 88 0 0 0 6.6229758
-10.575649 5.3196378 -0.1039964 117 0 0 0 6.6229758
-12.108486 6.0931025 1.8676307 55 0 0 0 6.6229758
-11.137008 7.1373324 4.7973924 58 0 0 0 6.6229758
-6.8187261 4.3684573 -2.8783658 257 0 0 0 6.6229758
-3.8469715 2.5291276 -2.7673781 238 0 0 0 6.6229758
-7.5867591 2.066391 -2.2511723 107 0 0 0 6.6229758
-12.743384 6.4208894 2.6810758 50 0 0 0 6.6229758
-13.348976 6.7318048 3.5723436 12 0 0 0 6.6229758
-2.8507104 1.9123796 -2.5727336 23 0 0 0 6.6229758
-9.4174004 2.5837555 -2.2875562 79 0 0 0 6.6229758
-10.989441 4.2337756 -2.5946567 116 0 0 0 6.6229758
-29.444416 8.192627 -1.0781512 4 0 0 0 6.6229758
-13.278629 5.1293488 -0.30607453 61 0 0 0 6.6229758
-5.33004 3.4514866 -2.9981172 155 0 0 0 6.6229758
-8.4307213 4.2558303 -2.9480467 158 0 0 0 6.6229758
-10.360035 5.2112126 -1.2370154 72 0 0 0 6.6229758
-7.5696516 4.8042727 -1.7499337 213 0 0 0 6.6229758
-12.615495 4.8705816 -0.9477641 107 0 0 0 6.6229758
-9.3424654 5.905407 1.1249325 117 0 0 0 6.6229758
-8.7677956 4.4201484 -2.5402942 196 0 0 0 6.6229758
-12.916083 8.1561632 -0.71489924 39 0 0 0 6.6229758
-9.3783112 4.7216511 -1.6412966 93 0 0 0 6.6229758
-9.0726519 4.5698018 -2.1026692 205 0 0 0 6.6229758
-2.5955992 1.7623495 -2.6183946 206 0 0 0 6.6229758
-10.424001 5.2410946 -0.67166412 238 0 0 0 6.6229758
-5.8123846 2.9422491 -2.7581377 136 0 0 0 6.6229758
-11.915116 4.6819053 -1.5300891 121 0 0 0 6.7182078
-7.2306938 4.660778 -2.1244195 210 0 0 0 6.7182078
-10.934244 5.5818753 0.48960975 99 0 0 0 6.7182078
-11.92928 7.786974 5.985435 50 0 0 0 6.7182078
-11.4269 4.4830856 -2.0794101 96 0 0 0 6.7182078
-6.7341871 4.3728499 -2.8535781 248 0 0 0 6.7182078
-12.864113 8.2341852 -0.71480083 36 0 0 0 6.7182078
-8.9782305 4.5915351 -2.0869718 169 0 0 0 6.7182078
-9.4884472 2.6659968 -2.3091402 67 0 0 0 6.7182078
-6.9733734 4.5106544 -2.4935334 244 0 0 0 6.7182078
-9.9503775 6.3996964 2.3905323 72 0 0 0 6.7182078
-5.2135682 2.0277631 -2.4442344 159 0 0 0 6.7182078
-3.3149676 2.2287362 -2.6853235 47 0 0 0 6.7182078
-13.137133 5.1675363 -0.3032327 73 0 0 0 6.7182078
-6.3855934 1.7686564 -2.2548084 147 0 0 0 6.7182078
-12.563096 4.939137 -0.94601893 115 0 0 0 6.7182078
-13.669933 5.3826952 0.3996779 13 0 0 0 6.7182078
-8.6759396 4.4408245 -2.5212116 149 0 0 0 6.7182078
-9.4441233 4.8276324 -1.6583778 119 0 0 0 6.7182078
-10.385423 5.3017802 -0.67123926 297 0 0 0 6.7182078
-9.3552265 5.9894848 0.038113881 28 0 0 0 6.7182078
-11.292624 5.7697573 1.1232116 80 0 0 0 6.7182078
-7.620163 2.1258254 -2.2651806 104 0 0 0 6.7182078
-12.24798 3.4819248 -1.0553024 85 0 0 0 6.7182078
-8.8752308 5.6824222 0.55391115 126 0 0 0 6.7182078
-5.424221 1.4894361 -2.2279196 97 0 0 0 6.7182078
-7.0287919 3.6073418 -2.8960841 53 0 0 0 6.7182078
-6.147048 2.396071 -2.5069337 103 0 0 0 6.7182078
-7.3794694 2.8827231 -2.5757129 95 0 0 0 6.7182078
-12.719114 8.3498545 7.30864 22 0 0 0 6.7182078
-10.998318 7.1440725 4.7566848 54 0 0 0 6.7182078
-4.5020456 2.9758382 -2.8860497 156 0 0 0 6.7182078
-10.783451 3.0446966 -2.0516899 136 0 0 0 6.7182078
-7.7248087 4.9598293 -1.3251598 208 0 0 0 6.7182078
-8.3699265 5.365366 -0.94116426 313 0 0 0 6.7182078
-9.4623632 6.0743699 1.7045571 106 0 0 0 6.7182078
-5.3690953 3.523664 -3.0327091 101 0 0 0 6.7182078
-9.2314625 5.914865 1.1161858 109 0 0 0 6.7182078
-10.755248 6.9595819 3.9351921 64 0 0 0 6.7182078
-10.922379 4.2850833 -2.5848248 114 0 0 0 6.7182078
-5.8211842 2.9917071 -2.7711854 154 0 0 0 6.7182078
-10.468893 5.3466883 -0.10301135 153 0 0 0 6.7182078
-12.503293 6.3964367 2.6392653 49 0 0 0 6.7182078
-10.408943 6.7124319 3.1452045 53 0 0 0 6.7182078
-4.9147472 2.5315566 -2.6697214 159 0 0 0 6.7182078
-6.4495535 4.209136 -3.1802497 91 0 0 0 6.7182078
-11.986152 6.1240091 1.8547515 84 0 0 0 6.7182078
-3.8462994 2.5626032 -2.7783349 201 0 0 0 6.7182078
-13.280568 6.7998405 3.565196 21 0 0 0 6.7182078
-9.2459469 3.6196907 -2.6991458 45 0 0 0 6.7182078
-7.4930091 4.8204088 -1.7387649 192 0 0 0 6.7182078
-9.9808331 5.0974965 -1.1941355 238 0 0 0 6.7182078
-12.207815 3.4589553 -1.6846451 106 0 0 0 6.7182078
-8.3577862 4.2835727 -2.9314346 127 0 0 0 6.7182078
-2.5897636 1.7816894 -2.6235764 242 0 0 0 6.7182078
-6.917563 4.5350194 -2.4833062 229 0 0 0 6.8175359
-9.3678703 4.8613906 -1.6499953 189 0 0 0 6.8175359
-8.3985491 5.4504085 -0.4556236 231 0 0 0 6.8175359
-5.8369241 3.0452056 -2.7877915 120 0 0 0 6.8175359
-7.3967352 4.8229418 -1.7228932 202 0 0 0 6.8175359
-10.802543 4.3147278 -2.5623209 132 0 0 0 6.8175359
-13.412102 5.3764338 0.39368087 56 0 0 0 6.8175359
-9.1006632 5.9101849 1.1050805 125 0 0 0 6.8175359
-9.9520149 5.1600142 -1.1944637 303 0 0 0 6.8175359
-12.526073 5.013535 -0.94550991 170 0 0 0 6.8175359
-12.942773 5.1829929 -0.29901814 64 0 0 0 6.8175359
-5.2341499 2.0728416 -2.4600971 160 0 0 0 6.8175359
-5.3661513 3.5690131 -3.0435193 85 0 0 0 6.8175359
-3.3483241 2.2810388 -2.7242963 113 0 0 0 6.8175359
-6.4373221 1.825629 -2.277432 146 0 0 0 6.8175359
-12.329432 6.4032631 2.6111481 64 0 0 0 6.8175359
-9.3594017 6.0897236 1.6929346 102 0 0 0 6.8175359
-8.7544537 5.6811767 0.037996598 204 0 0 0 6.8175359
-11.141142 5.7788548 1.1119993 93 0 0 0 6.8175359
-7.8877654 5.125103 -0.88838434 198 0 0 0 6.8175359
-12.24743 3.5631411 -1.0571853 91 0 0 0 6.8175359
-7.6411572 4.9726295 -1.3157443 216 0 0 0 6.8175359
-6.1721029 2.449578 -2.523531 124 0 0 0 6.8175359
-6.6482811 4.3753376 -2.8281112 270 0 0 0 6.8175359
-9.5579014 2.7489369 -2.3304923 83 0 0 0 6.8175359
-12.96316 6.7380667 3.4916477 50 0 0 0 6.8175359
-7.7001891 2.1992166 -2.2934771 92 0 0 0 6.8175359
-10.226281 6.6839008 3.1027565 87 0 0 0 6.8175359
-4.5070724 3.0190334 -2.9013336 188 0 0 0 6.8175359
-3.8665857 2.6104653 -2.8049443 193 0 0 0 6.8175359
-10.870971 7.1566195 4.720726 55 0 0 0 6.8175359
-11.700016 4.6804376 -1.5055065 91 0 0 0 6.8175359
-11.758331 6.0989041 1.8257731 75 0 0 0 6.8175359
-12.61957 8.3957787 7.2810068 13 0 0 0 6.8175359
-8.5369596 4.4360223 -2.4881353 207 0 0 0 6.8175359
-7.0140061 3.6542976 -2.899224 75 0 0 0 6.8175359
-8.7706394 5.6916714 0.54982769 159 0 0 0 6.8175359
-6.437458 4.2577815 -3.1872048 130 0 0 0 6.8175359
-2.584414 1.8014586 -2.629406 248 0 0 0 6.8175359
-10.409257 5.3970189 -0.10265531 155 0 0 0 6.8175359
-7.1369944 4.6626592 -2.104876 213 0 0 0 6.8175359
-8.8656492 4.602818 -2.066937 203 0 0 0 6.8175359
-8.256074 4.2956252 -2.9045534 152 0 0 0 6.8175359
-12.213959 3.5418079 -1.6885508 87 0 0 0 6.8175359
-10.358013 5.3681593 -0.67160344 264 0 0 0 6.8175359
-9.772872 6.370707 2.3576708 94 0 0 0 6.8175359
-10.786216 5.5900173 0.4848747 114 0 0 0 6.8175359
-5.4542418 1.5337629 -2.2444096 120 0 0 0 6.8175359
-7.4251571 2.9532232 -2.5983202 84 0 0 0 6.8175359
-9.3345871 3.7206247 -2.7321582 47 0 0 0 6.8175359
-4.9373026 2.5816166 -2.690891 163 0 0 0 6.8175359
-11.869732 7.8523927 5.9796462 42 0 0 0 6.8175359
-10.591541 6.9462748 3.8911448 42 0 0 0 6.8175359
-11.272898 4.5026598 -2.0559211 115 0 0 0 6.8175359
-10.760789 3.1097121 -2.0509553 128 0 0 0 6.8175359
-5.2382765 2.1117547 -2.4682317 168 0 0 0 6.91328
-8.4351549 4.449079 -2.4659996 248 0 0 0 6.91328
-10.399088 5.4706411 -0.67670226 67 0 0 0 6.91328
-3.849791 2.6336601 -2.8044226 199 0 0 0 6.91328
-6.3590937 4.26231 -3.1609304 184 0 0 0 6.91328
-4.9380193 2.6206939 -2.7001529 153 0 0 0 6.91328
-8.6504126 5.6894312 0.54480946 130 0 0 0 6.91328
-6.8194847 4.5308423 -2.4575922 292 0 0 0 6.91328
-12.053169 8.126298 6.9839482 30 0 0 0 6.91328
-4.2526803 2.2629416 -2.6291547 23 0 0 0 6.91328
-9.3658228 4.9335017 -1.6550564 100 0 0 0 6.91328
-10.755645 3.1798663 -2.0537095 173 0 0 0 6.91328
-8.1595898 4.3092628 -2.8794842 207 0 0 0 6.91328
-10.665584 4.3360796 -2.535666 131 0 0 0 6.91328
-8.7558689 4.6142621 -2.0475216 186 0 0 0 6.91328
-8.9644518 5.9002962 1.0932871 123 0 0 0 6.91328
-5.8562846 3.1011577 -2.8063745 141 0 0 0 6.91328
-9.38482 3.8075562 -2.753989 35 0 0 0 6.91328
-12.520012 5.100461 -0.94747323 233 0 0 0 6.91328
-12.618197 5.1430449 -0.29140782 97 0 0 0 6.91328
-6.581387 4.3894529 -2.8107936 218 0 0 0 6.91328
-7.5559897 4.9835033 -1.3060343 245 0 0 0 6.91328
-9.235961 6.0904388 1.6776342 96 0 0 0 6.91328
-9.9588718 5.2413459 -1.1992768 153 0 0 0 6.91328
-8.342412 5.4870281 -0.45429525 365 0 0 0 6.91328
-7.2982597 4.822855 -1.7064338 209 0 0 0 6.91328
-11.502855 4.6836233 -1.4832361 117 0 0 0 6.91328
-11.058845 4.4960136 -2.0211983 108 0 0 0 6.91328
-11.828225 7.9296975 5.9831195 54 0 0 0 6.91328
-2.5795419 1.8216677 -2.6358831 235 0 0 0 6.91328
-12.221442 3.6254301 -1.6927258 105 0 0 0 6.91328
-9.6266928 2.832829 -2.3518443 55 0 0 0 6.91328
-7.0436487 3.7248573 -2.9212048 84 0 0 0 6.91328
-12.771816 6.7384868 3.4515305 44 0 0 0 6.91328
-7.786047 2.275557 -2.3237348 87 0 0 0 6.91328
-9.6885843 6.4008365 2.3469126 92 0 0 0 6.91328
-10.094504 6.6865716 3.0754337 50 0 0 0 6.91328
-4.5066462 3.0589521 -2.913274 162 0 0 0 6.91328
-10.628774 5.5914383 0.47973272 87 0 0 0 6.91328
-10.484978 6.9687963 3.8678083 48 0 0 0 6.91328
-11.559339 6.0860076 1.8010877 61 0 0 0 6.91328
-10.377715 5.4617186 -0.10267905 155 0 0 0 6.91328
-10.787719 7.1970968 4.7037644 44 0 0 0 6.91328
-6.1993246 2.5045304 -2.5412109 140 0 0 0 6.91328
-10.988214 5.7853851 1.1006156 70 0 0 0 6.91328
-7.498414 3.0357976 -2.6309755 106 0 0 0 6.91328
-12.237723 6.4512901 2.6001935 90 0 0 0 6.91328
-5.497282 1.5823706 -2.2665207 155 0 0 0 6.91328
-13.292781 5.4234982 0.39137623 73 0 0 0 6.91328
-12.256846 3.6476109 -1.0600098 94 0 0 0 6.91328
-7.7780194 5.1219897 -0.87916255 200 0 0 0 6.91328
-6.4804258 1.8809273 -2.2971046 141 0 0 0 6.91328
-8.9901972 5.9127212 0.038053144 53 0 0 0 6.91328
-3.3274682 2.2968607 -2.7186482 147 0 0 0 6.91328
-7.0459733 4.6651726 -2.0860658 191 0 0 0 6.91328
-5.3448992 3.6023753 -3.0439515 92 0 0 0 6.91328
-12.246374 3.7147477 -1.6994597 83 0 0 0 7.0131202
-6.7375922 4.5363078 -2.4377222 257 0 0 0 7.0131202
-9.9206419 5.2969818 -0.64604867 169 0 0 0 7.0131202
-10.422356 5.5647879 0.47251919 127 0 0 0 7.0131202
-13.086606 5.4332609 0.38674217 73 0 0 0 7.0131202
-5.2632494 2.1594706 -2.4865348 177 0 0 0 7.0131202
-9.349308 4.998323 -1.6575869 154 0 0 0 7.0131202
-6.2908406 4.2727695 -3.139679 198 0 0 0 7.0131202
-10.781091 3.2594728 -2.0625226 122 0 0 0 7.0131202
-12.423277 8.6085777 9.2498865 5 0 0 0 7.0131202
-4.2417922 2.2906535 -2.6310976 54 0 0 0 7.0131202
-11.789269 8.0088606 5.9881363 54 0 0 0 7.0131202
-8.0590506 4.3196282 -2.852905 191 0 0 0 7.0131202
-7.8105607 2.3348558 -2.3355017 98 0 0 0 7.0131202
-9.6401606 6.4541655 2.3447609 121 0 0 0 7.0131202
-9.9236193 6.6614079 3.0361574 79 0 0 0 7.0131202
-4.9423933 2.6620038 -2.7116199 151 0 0 0 7.0131202
-8.5430155 5.6942363 0.54052919 134 0 0 0 7.0131202
-10.337832 5.5219951 -0.10259598 275 0 0 0 7.0131202
-10.679438 7.2199712 4.6759477 61 0 0 0 7.0131202
-6.5104146 1.9330503 -2.312187 125 0 0 0 7.0131202
-8.8621941 5.9067998 0.038033947 85 0 0 0 7.0131202
-4.5160394 3.1059406 -2.9319012 179 0 0 0 7.0131202
-6.9793568 4.6829429 -2.074584 235 0 0 0 7.0131202
-8.3454514 4.467443 -2.4474261 215 0 0 0 7.0131202
-10.832994 5.7888498 1.0889753 75 0 0 0 7.0131202
-12.584394 6.7386522 3.4123354 43 0 0 0 7.0131202
-7.5542564 3.1125059 -2.657665 91 0 0 0 7.0131202
-12.286654 3.7387178 -1.0647173 64 0 0 0 7.0131202
-3.8475907 2.6669388 -2.8148577 209 0 0 0 7.0131202
-9.1350775 6.1047006 1.6663061 103 0 0 0 7.0131202
-5.5114765 1.6231612 -2.2766395 168 0 0 0 7.0131202
-12.708399 8.7436914 8.3931684 19 0 0 0 7.0131202
-7.7091846 5.1447759 -0.87474787 220 0 0 0 7.0131202
-8.3526459 5.5674553 -0.45690277 165 0 0 0 7.0131202
-9.9940395 5.338407 -1.2076997 67 0 0 0 7.0131202
-5.3621769 3.6620286 -3.0668688 92 0 0 0 7.0131202
-8.8601751 5.909934 1.0852283 140 0 0 0 7.0131202
-9.4298811 3.8934028 -2.7744887 30 0 0 0 7.0131202
-7.1222377 3.8224998 -2.9641194 53 0 0 0 7.0131202
-5.8759861 3.1578956 -2.8253531 178 0 0 0 7.0131202
-6.2131653 2.5545862 -2.5534785 137 0 0 0 7.0131202
-12.486638 5.1764221 -0.94732779 217 0 0 0 7.0131202
-7.46522 4.989675 -1.2952946 219 0 0 0 7.0131202
-6.5200286 4.4065967 -2.7958529 256 0 0 0 7.0131202
-8.6626778 4.6332994 -2.0320306 186 0 0 0 7.0131202
-12.524535 5.1947045 -0.28979427 126 0 0 0 7.0131202
-7.1935458 4.8173814 -1.6884067 230 0 0 0 7.0131202
-11.942741 8.1589069 6.9489751 32 0 0 0 7.0131202
-10.968224 4.5377841 -2.009454 92 0 0 0 7.0131202
-10.322199 6.9523544 3.823761 51 0 0 0 7.0131202
-10.518855 4.35181 -2.5066075 130 0 0 0 7.0131202
-12.190105 6.5220842 2.5985503 122 0 0 0 7.0131202
-9.7320633 2.9288952 -2.3824799 76 0 0 0 7.0131202
-11.322607 4.6914086 -1.4631562 135 0 0 0 7.0131202
-11.420388 6.102654 1.7855253 75 0 0 0 7.0131202
-13.148784 7.0467176 4.3487558 27 0 0 0 7.0131202
-2.5788612 1.844981 -2.6468945 180 0 0 0 7.0131202
-3.3241408 2.324789 -2.7276852 220 0 0 0 7.0131202
-10.35111 5.6086426 0.4709655 119 0 0 0 7.1070719
-6.5309682 1.9828614 -2.3239906 135 0 0 0 7.1070719
-11.286029 6.1201882 1.7706337 64 0 0 0 7.1070719
-10.315185 5.5915165 -0.10275026 159 0 0 0 7.1070719
-9.6239176 6.5291533 2.3504336 173 0 0 0 7.1070719
-10.632603 5.7659373 1.0728842 82 0 0 0 7.1070719
-4.5250244 3.1531589 -2.9505281 158 0 0 0 7.1070719
-11.835337 8.1925201 6.9157286 42 0 0 0 7.1070719
-7.1208725 3.8782275 -2.9735396 68 0 0 0 7.1070719
-8.3781776 5.6589918 0.037939698 163 0 0 0 7.1070719
-6.6740685 4.5533276 -2.4245729 273 0 0 0 7.1070719
-6.4439588 4.413064 -2.7744608 265 0 0 0 7.1070719
-7.8842049 2.4097171 -2.3623974 115 0 0 0 7.1070719
-7.3836727 5.0010195 -1.2861733 257 0 0 0 7.1070719
-11.263427 4.7480679 -1.4591403 143 0 0 0 7.1070719
-9.024539 6.1113038 1.6532125 109 0 0 0 7.1070719
-7.877059 5.3208041 -0.43068001 179 0 0 0 7.1070719
-10.814845 4.5522275 -1.985965 99 0 0 0 7.1070719
-9.846837 3.0295105 -2.4156685 55 0 0 0 7.1070719
-6.8959436 4.6886306 -2.0579722 260 0 0 0 7.1070719
-9.7462101 6.6294961 2.9946852 108 0 0 0 7.1070719
-2.5668745 1.8603237 -2.6462467 147 0 0 0 7.1070719
-9.6167688 5.2130327 -1.164601 155 0 0 0 7.1070719
-7.6238718 5.1557684 -0.86837113 231 0 0 0 7.1070719
-12.360439 8.6777802 9.2425919 16 0 0 0 7.1070719
-5.5253768 1.6641853 -2.2867582 169 0 0 0 7.1070719
-10.752437 3.3229477 -2.0608702 174 0 0 0 7.1070719
-12.250794 3.7983384 -1.7033653 89 0 0 0 7.1070719
-12.283736 6.6749945 3.3424759 54 0 0 0 7.1070719
-7.1192088 4.8311658 -1.6776296 277 0 0 0 7.1070719
-3.8590987 2.7100813 -2.8357279 186 0 0 0 7.1070719
-13.439463 5.6739588 1.1131059 40 0 0 0 7.1070719
-8.4093962 5.6800604 0.53467458 135 0 0 0 7.1070719
-4.9527464 2.7069073 -2.726615 169 0 0 0 7.1070719
-4.2483578 2.3279727 -2.6442122 123 0 0 0 7.1070719
-7.9687438 4.3343878 -2.8299501 205 0 0 0 7.1070719
-8.2515936 4.4825673 -2.4275804 217 0 0 0 7.1070719
-10.353452 4.3579526 -2.4729609 111 0 0 0 7.1070719
-7.5945525 3.1837699 -2.6790164 98 0 0 0 7.1070719
-12.978851 4.036768 -1.1290816 32 0 0 0 7.1070719
-12.614842 8.79387 8.3669415 36 0 0 0 7.1070719
-9.4928999 3.9877872 -2.8005791 46 0 0 0 7.1070719
-12.162819 6.6037946 2.6012888 147 0 0 0 7.1070719
-9.8984852 5.3634591 -0.64677709 230 0 0 0 7.1070719
-3.3259864 2.3565733 -2.741241 201 0 0 0 7.1070719
-10.582928 7.2497602 4.6532192 58 0 0 0 7.1070719
-5.2869892 2.2072196 -2.5044312 173 0 0 0 7.1070719
-5.3759551 3.7199779 -3.0880566 80 0 0 0 7.1070719
-9.2516298 5.0193467 -1.6454087 207 0 0 0 7.1070719
-6.2295413 4.2872553 -3.1219051 240 0 0 0 7.1070719
-12.487821 5.2695122 -0.28967384 138 0 0 0 7.1070719
-10.183728 6.9503479 3.7884648 56 0 0 0 7.1070719
-6.2464113 2.6131883 -2.5740447 129 0 0 0 7.1070719
-8.5412054 4.6359692 -2.0097237 187 0 0 0 7.1070719
-12.869767 5.4360313 0.38181072 79 0 0 0 7.1070719
-12.521722 5.2812419 -0.95263606 73 0 0 0 7.1070719
-13.002346 7.0712872 4.3148212 41 0 0 0 7.1070719
-5.9024687 3.2189479 -2.8478901 146 0 0 0 7.1070719
-8.7495241 5.9140596 1.0763834 112 0 0 0 7.1070719
-11.023162 7.5879998 5.624227 24 0 0 0 7.1070719
-12.19671 5.2325087 -0.92943966 49 0 0 0 7.2104959
-9.5558586 5.2561364 -1.1609912 22 0 0 0 7.2104959
-8.449172 4.6533694 -1.9944392 241 0 0 0 7.2104959
-3.352391 2.4062438 -2.7756953 274 0 0 0 7.2104959
-12.41667 5.3294721 -0.28866234 232 0 0 0 7.2104959
-6.3927946 4.4359102 -2.7639344 282 0 0 0 7.2104959
-4.2469835 2.361213 -2.6524696 145 0 0 0 7.2104959
-9.5471354 4.07968 -2.8242736 52 0 0 0 7.2104959
-7.2941113 5.0059595 -1.2755808 256 0 0 0 7.2104959
-5.3145437 2.2571275 -2.5243614 149 0 0 0 7.2104959
-8.2962456 5.6781182 0.037929751 343 0 0 0 7.2104959
-12.108291 6.6707101 2.5983677 85 0 0 0 7.2104959
-10.856813 7.5721478 5.5632539 34 0 0 0 7.2104959
-7.5321474 5.1614113 -0.86120951 216 0 0 0 7.2104959
-10.65446 4.5618572 -1.9611144 133 0 0 0 7.2104959
-11.044345 4.7357068 -1.4338275 119 0 0 0 7.2104959
-6.5682945 2.0383277 -2.3420238 140 0 0 0 7.2104959
-7.9352331 2.478689 -2.3825693 79 0 0 0 7.2104959
-12.476626 8.8118029 8.3111496 25 0 0 0 7.2104959
-5.9292254 3.2808876 -2.8708224 112 0 0 0 7.2104959
-7.8702149 4.3435984 -2.8039749 208 0 0 0 7.2104959
-11.09545 6.1052589 1.7470217 77 0 0 0 7.2104959
-8.6375151 5.9159284 1.0673418 132 0 0 0 7.2104959
-10.226948 4.3787522 -2.4487092 119 0 0 0 7.2104959
-9.9366159 3.1240482 -2.4428227 54 0 0 0 7.2104959
-8.8775549 6.0916128 1.6334985 90 0 0 0 7.2104959
-7.7585196 5.3104029 -0.42556337 206 0 0 0 7.2104959
-6.8167195 4.6962214 -2.0425816 237 0 0 0 7.2104959
-7.1486225 3.9503951 -2.9955204 55 0 0 0 7.2104959
-13.289855 5.7071147 1.1038859 66 0 0 0 7.2104959
-9.6638165 6.6605692 2.9819996 95 0 0 0 7.2104959
-5.5744147 1.7163795 -2.3118677 178 0 0 0 7.2104959
-10.268335 5.6455755 0.46893093 99 0 0 0 7.2104959
-8.3142004 5.6903963 0.53108311 157 0 0 0 7.2104959
-9.5990334 6.5986319 2.3541501 199 0 0 0 7.2104959
-6.1599765 4.2953525 -3.0998809 280 0 0 0 7.2104959
-10.335882 5.6850576 -0.10349794 90 0 0 0 7.2104959
-9.1298256 5.026031 -1.6288022 229 0 0 0 7.2104959
-4.9627337 2.7520375 -2.7416103 178 0 0 0 7.2104959
-12.844333 7.087831 4.2769923 38 0 0 0 7.2104959
-10.051184 6.9507132 3.7552106 74 0 0 0 7.2104959
-10.484411 5.7691207 1.061843 105 0 0 0 7.2104959
-6.2877507 2.6759477 -2.5982189 138 0 0 0 7.2104959
-11.801095 8.2763758 6.9252276 37 0 0 0 7.2104959
-12.612063 5.4185867 0.3757641 93 0 0 0 7.2104959
-10.49264 7.282927 4.6332045 62 0 0 0 7.2104959
-10.762774 3.3986402 -2.0669293 144 0 0 0 7.2104959
-12.269393 8.7267551 9.2144575 15 0 0 0 7.2104959
-7.0546751 4.8508825 -1.669204 265 0 0 0 7.2104959
-6.6168861 4.5740871 -2.4137614 258 0 0 0 7.2104959
-9.7691689 5.3712063 -0.64010006 153 0 0 0 7.2104959
-5.3936543 3.7813361 -3.1118386 88 0 0 0 7.2104959
-7.6124244 3.2463303 -2.692518 103 0 0 0 7.2104959
-12.257483 3.8830218 -1.7076751 93 0 0 0 7.2104959
-8.1705713 4.5037103 -2.411551 199 0 0 0 7.2104959
-2.5541816 1.8751389 -2.6449513 121 0 0 0 7.2104959
-4.534317 3.2011096 -2.9696331 159 0 0 0 7.2104959
-3.8500488 2.7391419 -2.8414671 188 0 0 0 7.2104959
-12.181192 6.7164183 3.3258755 67 0 0 0 7.2104959
-10.356165 7.2828078 4.5928364 42 0 0 0 7.3008642
-8.3521242 4.6669531 -1.9779156 202 0 0 0 7.3008642
-6.707438 4.6819415 -2.0179081 237 0 0 0 7.3008642
-12.143998 6.7934089 3.3270285 75 0 0 0 7.3008642
-4.2529755 2.3988161 -2.6655841 192 0 0 0 7.3008642
-10.974139 4.7855263 -1.4283512 102 0 0 0 7.3008642
-10.505209 4.5744147 -1.9383063 173 0 0 0 7.3008642
-10.133133 5.6525016 0.46467677 94 0 0 0 7.3008642
-7.1945567 4.0335855 -3.0255256 57 0 0 0 7.3008642
-12.085155 6.754952 2.6022017 29 0 0 0 7.3008642
-7.7760348 4.3540926 -2.77951 196 0 0 0 7.3008642
-9.5849266 6.6758928 2.360605 144 0 0 0 7.3008642
-8.5217266 5.9138112 1.0578089 120 0 0 0 7.3008642
-5.3909445 3.8289659 -3.1239457 90 0 0 0 7.3008642
-7.4463668 5.170095 -0.85473466 231 0 0 0 7.3008642
-4.9684415 2.7951925 -2.7544003 168 0 0 0 7.3008642
-7.203145 5.0088611 -1.264694 254 0 0 0 7.3008642
-10.10237 4.3989444 -2.4248946 114 0 0 0 7.3008642
-12.139423 8.7470093 9.1571465 14 0 0 0 7.3008642
-10.765104 3.4721675 -2.0715194 143 0 0 0 7.3008642
-3.8387096 2.7666991 -2.8456411 200 0 0 0 7.3008642
-9.9331245 6.9595904 3.7272069 62 0 0 0 7.3008642
-10.009859 3.2147381 -2.4660313 46 0 0 0 7.3008642
-7.66291 3.3235908 -2.7179515 88 0 0 0 7.3008642
-10.854433 6.0597305 1.7154943 69 0 0 0 7.3008642
-5.5991449 1.7617072 -2.3268585 197 0 0 0 7.3008642
-8.3286514 5.7756171 0.037944064 152 0 0 0 7.3008642
-12.483311 5.4542356 0.37318689 104 0 0 0 7.3008642
-9.9061069 5.5281682 -0.098133624 152 0 0 0 7.3008642
-13.090087 5.7166939 1.090609 58 0 0 0 7.3008642
-5.3274283 2.3012938 -2.5373769 151 0 0 0 7.3008642
-10.353116 5.7799301 1.052428 118 0 0 0 7.3008642
-9.6138573 4.1781521 -2.8519614 83 0 0 0 7.3008642
-10.730266 7.5822148 5.5223475 48 0 0 0 7.3008642
-6.6213903 2.0994756 -2.3659589 133 0 0 0 7.3008642
-5.9498353 3.3401296 -2.8909872 128 0 0 0 7.3008642
-9.3367977 5.2105503 -1.137473 78 0 0 0 7.3008642
-8.7628384 6.0923591 1.6195223 100 0 0 0 7.3008642
-12.258879 3.9664032 -1.7113113 81 0 0 0 7.3008642
-11.739058 8.3407965 6.9187512 67 0 0 0 7.3008642
-2.5628262 1.9057474 -2.666326 72 0 0 0 7.3008642
-7.0159245 4.8879161 -1.6670486 266 0 0 0 7.3008642
-9.6156082 6.7147455 2.979804 110 0 0 0 7.3008642
-13.068501 7.3284702 5.1838393 7 0 0 0 7.3008642
-6.0890417 4.3016944 -3.0770838 266 0 0 0 7.3008642
-8.0158834 2.5580225 -2.4119866 96 0 0 0 7.3008642
-6.3268418 2.7385707 -2.6216717 137 0 0 0 7.3008642
-11.966157 8.5620041 8.006918 18 0 0 0 7.3008642
-8.9884624 5.02034 -1.6085579 150 0 0 0 7.3008642
-4.5439057 3.2498031 -2.9892154 159 0 0 0 7.3008642
-12.398395 5.4119596 -0.28904769 72 0 0 0 7.3008642
-12.593573 7.0506287 4.2082882 36 0 0 0 7.3008642
-11.335289 4.9454226 -0.86348629 101 0 0 0 7.3008642
-7.6986971 5.3391366 -0.42393982 162 0 0 0 7.3008642
-9.6061354 5.3586102 -0.63105577 146 0 0 0 7.3008642
-8.2216597 5.7014856 0.52763921 165 0 0 0 7.3008642
-8.0718765 4.5141187 -2.3901787 214 0 0 0 7.3008642
-3.3462472 2.4330676 -2.7830379 254 0 0 0 7.3008642
-6.5377603 4.5789661 -2.394768 315 0 0 0 7.3008642
-6.3154221 4.4399176 -2.741863 271 0 0 0 7.3008642
-6.651516 2.1540611 -2.3816969 135 0 0 0 7.4060798
-12.403901 7.0447683 4.1596117 42 0 0 0 7.4060798
-12.021242 6.816371 2.5974548 19 0 0 0 7.4060798
-11.966916 8.7348127 9.0675325 19 0 0 0 7.4060798
-2.5376806 1.9113731 -2.6520762 39 0 0 0 7.4060798
-6.3517423 2.7957587 -2.6393514 117 0 0 0 7.4060798
-7.011446 4.9489565 -1.6733189 307 0 0 0 7.4060798
-9.5726433 6.7724996 2.979316 149 0 0 0 7.4060798
-7.9422379 4.5058351 -2.3593922 222 0 0 0 7.4060798
-6.0257654 4.3126931 -3.0581508 235 0 0 0 7.4060798
-13.073425 7.4370351 5.2036891 44 0 0 0 7.4060798
-6.2497392 4.4513226 -2.7248852 293 0 0 0 7.4060798
-12.361316 4.0835476 -1.7294929 80 0 0 0 7.4060798
-12.105472 6.8697162 3.3279507 141 0 0 0 7.4060798
-9.83284 5.5666833 -0.097599566 261 0 0 0 7.4060798
-7.2047038 4.0975709 -3.0405283 76 0 0 0 7.4060798
-9.2536125 5.2388554 -1.1310191 187 0 0 0 7.4060798
-4.5267272 3.2796824 -2.9911258 206 0 0 0 7.4060798
-5.9627557 3.395658 -2.9075933 159 0 0 0 7.4060798
