# .PCD v0.7 - Point Cloud Data file format
VERSION 0.7
FIELDS x y z intensity normal_x normal_y normal_z curvature
SIZE 4 4 4 4 4 4 4 4
TYPE F F F F F F F F
COUNT 1 1 1 1 1 1 1 1
WIDTH 1057
HEIGHT 1
VIEWPOINT 0 0 0 1 0 0 0
POINTS 1057
DATA ascii
6.1220002 1.971 -0.0049999999 8 0 0 0 0.921893
6.316 2.1289999 -0.212 0 0 0 0 0.92684001
6.112 2.154 -0.403 4 0 0 0 0.93178701
5.3540001 1.978 -0.53100002 5 0 0 0 0.93673402
6.0539999 2.099 -0.011 10 0 0 0 0.94168103
6.8499999 2.4860001 -0.237 65 0 0 0 0.94662797
6.1160002 2.3169999 -0.40799999 4 0 0 0 0.95157498
5.3330002 2.118 -0.53399998 5 0 0 0 0.95652199
6.8130002 2.533 -0.02 100 0 0 0 0.96146899
7.0609999 2.7460001 -0.25099999 10 0 0 0 0.966416
6.0890002 2.4719999 -0.412 3 0 0 0 0.97136301
5.355 2.276 -0.54000002 4 0 0 0 0.97631001
7.2329998 2.8759999 -0.029999999 138 0 0 0 0.98125702
7.0100002 2.9119999 -0.257 5 0 0 0 0.98620403
6.0619998 2.6270001 -0.417 3 0 0 0 0.99115098
5.3600001 2.4300001 -0.54500002 4 0 0 0 0.99609798
7.1500001 3.029 -0.037999999 15 0 0 0 1.001045
6.8579998 3.036 -0.259 2 0 0 0 1.0059921
6.066 2.799 -0.42300001 3 0 0 0 1.010939
5.3509998 2.5840001 -0.54900002 3 0 0 0 1.0158859
5.8239999 2.6210001 -0.037999999 44 0 0 0 1.020833
6.027 2.9549999 -0.42699999 4 0 0 0 1.030727
5.3340001 2.734 -0.55299997 3 0 0 0 1.035674
5.6609998 2.7019999 -0.045000002 2 0 0 0 1.040621
6.9310002 3.4560001 -0.27900001 3 0 0 0 1.045568
6.0469999 3.142 -0.435 4 0 0 0 1.0505151
3.4000001 1.848 -0.35600001 11 0 0 0 1.055462
5.6589999 2.858 -0.052999999 28 0 0 0 1.0604089
6.9029999 3.641 -0.28600001 6 0 0 0 1.065356
3.3740001 1.854 -0.24699999 48 0 0 0 1.070303
3.3329999 1.916 -0.35299999 87 0 0 0 1.07525
5.7459998 3.066 -0.061999999 28 0 0 0 1.080197
3.25 1.8099999 -0.139 30 0 0 0 1.085144
3.3410001 1.9400001 -0.249 38 0 0 0 1.090091
3.256 1.977 -0.34799999 91 0 0 0 1.0950381
8.0220003 4.5100002 -0.098999999 1 0 0 0 1.099985
3.299 1.938 -0.146 18 0 0 0 1.104932
3.2509999 1.99 -0.24600001 102 0 0 0 1.109879
3.1889999 2.0420001 -0.345 88 0 0 0 1.114826
3.4590001 2.0480001 -0.048 40 0 0 0 1.119773
3.2820001 2.03 -0.15000001 21 0 0 0 1.12472
3.154 2.0339999 -0.244 132 0 0 0 1.129667
3.3929999 2.1129999 -0.052999999 50 0 0 0 1.1395611
3.171 2.062 -0.15000001 79 0 0 0 1.144508
2.7279999 1.853 -0.215 1 0 0 0 1.149455
2.6040001 1.85 -0.289 4 0 0 0 1.154402
3.2290001 2.115 -0.056000002 39 0 0 0 1.159349
2.6960001 1.845 -0.132 5 0 0 0 1.164296
2.598 1.855 -0.20900001 6 0 0 0 1.169243
2.471 1.845 -0.278 1 0 0 0 1.17419
2.6960001 1.854 -0.052000001 0 0 0 0 1.179137
2.5880001 1.86 -0.131 10 0 0 0 1.1840841
2.51 1.882 -0.206 6 0 0 0 1.189031
2.425 1.904 -0.27700001 0 0 0 0 1.193978
2.5999999 1.874 -0.055 5 0 0 0 1.198925
2.5039999 1.888 -0.131 6 0 0 0 1.203872
2.398 1.888 -0.20100001 1 0 0 0 1.208819
2.4100001 1.987 -0.27900001 57 0 0 0 1.213766
2.434 1.84 -0.056000002 0 0 0 0 1.218713
2.4200001 1.913 -0.132 5 0 0 0 1.22366
2.388 1.971 -0.205 71 0 0 0 1.2286071
2.3859999 2.063 -0.28099999 41 0 0 0 1.233554
2.441 1.932 -0.061000001 5 0 0 0 1.238501
2.378 1.97 -0.134 68 0 0 0 1.243448
2.362 2.0450001 -0.207 68 0 0 0 1.248395
2.3570001 2.1389999 -0.28200001 51 0 0 0 1.253342
2.4170001 2.003 -0.066 33 0 0 0 1.258289
2.3670001 2.0539999 -0.139 45 0 0 0 1.263236
2.3659999 2.148 -0.213 57 0 0 0 1.268183
2.391 2.276 -0.29100001 21 0 0 0 1.2731301
3.095 2.6860001 -0.092 23 0 0 0 1.910682
2.75 2.5020001 -0.168 1 0 0 0 1.915629
1.1440001 1.1440001 -0.142 0 0 0 0 1.925523
2.7780001 2.5239999 -0.090000004 0 0 0 0 1.93047
2.6570001 2.5309999 -0.169 4 0 0 0 1.9354171
2.72 2.7130001 -0.25799999 5 0 0 0 1.940364
1.096 1.149 -0.138 4 0 0 0 1.945311
2.6819999 2.55 -0.093999997 2 0 0 0 1.950258
2.8889999 2.882 -0.191 59 0 0 0 1.955205
2.7620001 2.888 -0.26899999 0 0 0 0 1.960152
1.077 1.1849999 -0.139 8 0 0 0 1.965099
2.589 2.575 -0.097999997 1 0 0 0 1.970046
2.7709999 2.895 -0.191 11 0 0 0 1.974993
1.103 1.209 -0.11 0 0 0 0 1.9799401
1.063 1.227 -0.14 4 0 0 0 1.984887
2.813 2.9260001 -0.115 131 0 0 0 1.989834
2.0580001 2.25 -0.148 22 0 0 0 1.994781
2.1210001 2.4360001 -0.21799999 154 0 0 0 1.999728
2.006 2.427 -0.27000001 25 0 0 0 2.0046749
2.0880001 2.392 -0.156 150 0 0 0 2.014569
2.073 2.4960001 -0.22 44 0 0 0 2.019516
1.89 2.402 -0.26100001 36 0 0 0 2.0244629
2.5510001 2.9059999 -0.121 6 0 0 0 2.0294099
2.2460001 2.6960001 -0.176 61 0 0 0 2.0343571
1.949 2.461 -0.213 32 0 0 0 2.039304
1.814 2.424 -0.257 31 0 0 0 2.044251
2.381 2.8440001 -0.122 7 0 0 0 2.0491979
1.992 2.5079999 -0.163 29 0 0 0 2.0541451
1.85 2.4560001 -0.20999999 32 0 0 0 2.059092
1.781 2.5009999 -0.259 33 0 0 0 2.064039
2.148 2.6860001 -0.118 8 0 0 0 2.0689859
1.882 2.4860001 -0.161 37 0 0 0 2.0739329
1.781 2.483 -0.20900001 33 0 0 0 2.0788801
1.552 2.2939999 -0.23199999 90 0 0 0 2.083827
1.9170001 2.5120001 -0.113 40 0 0 0 2.088774
1.803 2.5009999 -0.162 27 0 0 0 2.0937209
1.566 2.2950001 -0.19 75 0 0 0 2.0986681
1.474 2.2939999 -0.227 53 0 0 0 2.103615
1.834 2.5220001 -0.117 35 0 0 0 2.108562
1.721 2.506 -0.163 21 0 0 0 2.1135089
1.517 2.3380001 -0.191 95 0 0 0 2.1184559
1.4119999 2.316 -0.22400001 45 0 0 0 2.1234031
1.763 2.54 -0.121 31 0 0 0 2.12835
1.529 2.3399999 -0.152 51 0 0 0 2.133297
1.459 2.368 -0.191 113 0 0 0 2.1382439
1.369 2.3699999 -0.22400001 25 0 0 0 2.1431911
1.732 2.622 -0.127 7 0 0 0 2.148138
1.498 2.411 -0.15700001 50 0 0 0 2.153085
1.405 2.404 -0.192 67 0 0 0 2.1580319
1.344 2.46 -0.228 11 0 0 0 2.1629789
1.604 2.553 -0.127 44 0 0 0 2.1679261
1.462 2.4820001 -0.161 29 0 0 0 2.172873
1.349 2.441 -0.193 25 0 0 0 2.17782
1.274 2.4719999 -0.22499999 0 0 0 0 2.1827669
1.524 2.556 -0.13 29 0 0 0 2.1877141
1.401 2.51 -0.164 4 0 0 0 2.192661
1.2920001 2.473 -0.193 0 0 0 0 2.197608
1.187 2.444 -0.21799999 0 0 0 0 2.2025549
1.4299999 2.527 -0.132 5 0 0 0 2.2075019
1.3200001 2.4990001 -0.163 0 0 0 0 2.2124491
1.21 2.457 -0.19 2 0 0 0 2.217396
1.099 2.4059999 -0.20999999 0 0 0 0 2.222343
1.3430001 2.506 -0.134 0 0 0 0 2.2272899
1.232 2.4690001 -0.162 2 0 0 0 2.2322371
1.132 2.4389999 -0.18700001 2 0 0 0 2.237184
1.021 2.385 -0.204 0 0 0 0 2.242131
1.253 2.4690001 -0.134 1 0 0 0 2.2470779
1.153 2.4489999 -0.161 2 0 0 0 2.2520249
1.0470001 2.401 -0.182 2 0 0 0 2.2569721
0.94599998 2.358 -0.198 0 0 0 0 2.261919
1.163 2.431 -0.13500001 4 0 0 0 2.266866
1.057 2.3870001 -0.15700001 4 0 0 0 2.2718129
0.96499997 2.362 -0.178 4 0 0 0 2.2767601
0.87099999 2.329 -0.193 4 0 0 0 2.281707
1.082 2.4000001 -0.13600001 5 0 0 0 2.286654
0.98100001 2.3640001 -0.156 8 0 0 0 2.2916009
0.88700002 2.3239999 -0.17399999 6 0 0 0 2.2965479
0.796 2.2969999 -0.18700001 6 0 0 0 2.3014951
1.0039999 2.3740001 -0.138 6 0 0 0 2.306442
0.912 2.352 -0.156 6 0 0 0 2.311389
0.81599998 2.3039999 -0.171 7 0 0 0 2.3163359
0.73199999 2.2839999 -0.182 6 0 0 0 2.3212831
0.93000001 2.3499999 -0.139 4 0 0 0 2.32623
0.838 2.319 -0.155 3 0 0 0 2.331177
0.75400001 2.2980001 -0.169 3 0 0 0 2.3361239
1.612 5.4749999 -0.43099999 22 0 0 0 2.3410709
2.085 5.6420002 -0.34200001 25 0 0 0 2.3460181
1.86 5.552 -0.37400001 45 0 0 0 2.350965
1.661 5.493 -0.403 42 0 0 0 2.355912
1.461 5.434 -0.421 39 0 0 0 2.3608589
1.914 5.5700002 -0.345 48 0 0 0 2.3658061
1.705 5.5100002 -0.373 45 0 0 0 2.370753
1.512 5.4510002 -0.398 43 0 0 0 2.3757
1.316 5.3829999 -0.41 75 0 0 0 2.3806469
1.757 5.5190001 -0.34799999 52 0 0 0 2.2157669
1.5549999 5.4650002 -0.37200001 45 0 0 0 2.2207141
1.363 5.4000001 -0.39199999 63 0 0 0 2.225661
1.173 5.3449998 -0.40099999 79 0 0 0 2.230608
1.607 5.4790001 -0.352 49 0 0 0 2.2355549
1.405 5.4130001 -0.37099999 48 0 0 0 2.2405021
1.2180001 5.355 -0.38699999 96 0 0 0 2.2454491
1.0319999 5.2950001 -0.391 79 0 0 0 2.250396
1.455 5.4250002 -0.35600001 48 0 0 0 2.255343
1.263 5.3779998 -0.37099999 86 0 0 0 2.2602899
1.0779999 5.3130002 -0.382 94 0 0 0 2.2652371
0.89600003 5.25 -0.382 77 0 0 0 2.270184
1.312 5.388 -0.361 85 0 0 0 2.275131
1.118 5.322 -0.37 82 0 0 0 2.2800779
0.93800002 5.2620001 -0.377 93 0 0 0 2.2850249
0.76099998 5.2129998 -0.375 79 0 0 0 2.2899721
1.1670001 5.3390002 -0.36500001 87 0 0 0 2.294919
0.98199999 5.283 -0.37 80 0 0 0 2.299866
0.80599999 5.2270002 -0.37400001 91 0 0 0 2.3048129
0.62800002 5.1500001 -0.36500001 81 0 0 0 2.3097601
1.029 5.2919998 -0.36899999 85 0 0 0 2.314707
0.84600002 5.2379999 -0.37 79 0 0 0 2.319654
0.67500001 5.1760001 -0.36899999 87 0 0 0 2.3246009
0.50300002 5.1160002 -0.35800001 65 0 0 0 2.3295479
0.89499998 5.2470002 -0.373 84 0 0 0 2.3344951
0.71600002 5.1939998 -0.37 78 0 0 0 2.339442
0.54699999 5.1350002 -0.36500001 87 0 0 0 2.344389
0.40099999 5.3759999 -0.37099999 22 0 0 0 2.3493359
0.764 5.21 -0.377 87 0 0 0 2.3542831
0.58700001 5.145 -0.36899999 76 0 0 0 2.35923
0.43599999 5.2639999 -0.37400001 19 0 0 0 2.364177
0.27200001 5.3509998 -0.36500001 93 0 0 0 2.3691239
0.63300002 5.1539998 -0.38100001 85 0 0 0 2.3740709
0.465 5.1490002 -0.373 37 0 0 0 2.3790181
0.31900001 5.3629999 -0.38 96 0 0 0 2.383965
0.146 5.309 -0.35800001 94 0 0 0 2.388912
0.50800002 5.1220002 -0.38600001 75 0 0 0 2.3938589
0.361 5.3920002 -0.39399999 69 0 0 0 2.3988061
0.19 5.3189998 -0.377 93 0 0 0 2.403753
0.021 5.2810001 -0.35100001 92 0 0 0 2.4087
0.40700001 5.3790002 -0.41299999 21 0 0 0 2.4136469
0.23199999 5.3299999 -0.39399999 82 0 0 0 2.4185939
0.064999998 5.2880001 -0.375 94 0 0 0 2.4235411
-0.101 5.2350001 -0.34400001 92 0 0 0 2.428488
0.27900001 5.3410001 -0.41800001 93 0 0 0 2.433435
0.105 5.2919998 -0.39500001 86 0 0 0 2.4383819
-0.057 5.2449999 -0.37200001 92 0 0 0 2.4433291
-0.227 5.322 -0.34599999 59 0 0 0 2.448276
0.153 5.3119998 -0.42399999 91 0 0 0 2.453223
-0.017000001 5.2540002 -0.396 79 0 0 0 2.4581699
-0.177 5.217 -0.37 85 0 0 0 2.4631169
-0.34099999 5.1820002 -0.333 17 0 0 0 2.4680641
0.030999999 5.2729998 -0.42899999 89 0 0 0 2.473011
-0.13699999 5.2090001 -0.39700001 84 0 0 0 2.477958
-0.28299999 4.9320002 -0.34999999 36 0 0 0 2.4829049
-0.44299999 4.9650002 -0.31600001 36 0 0 0 2.4878521
-0.090999998 5.2309999 -0.43399999 88 0 0 0 2.492799
-0.26199999 5.2670002 -0.40599999 85 0 0 0 2.497746
-0.426 5.256 -0.37400001 62 0 0 0 2.5026929
-0.56 4.9619999 -0.31299999 17 0 0 0 2.5076399
-0.219 5.342 -0.45199999 69 0 0 0 2.5125871
-0.38299999 5.2329998 -0.40700001 56 0 0 0 2.517534
-0.53399998 5.1069999 -0.36399999 46 0 0 0 2.522481
-0.329 5.1090002 -0.44100001 5 0 0 0 2.5323751
-0.48699999 5.0240002 -0.396 28 0 0 0 2.537322
-0.44299999 5.0209999 -0.442 20 0 0 0 2.5521629
-0.59899998 4.9679999 -0.396 3 0 0 0 2.5571101
-0.56099999 5.0100002 -0.44999999 27 0 0 0 2.5719509
-1.15 4.9330001 -0.29699999 150 0 0 0 2.60658
-1.1390001 5.0619998 -0.36700001 88 0 0 0 2.6214211
-1.293 5.0170002 -0.30000001 100 0 0 0 2.626368
-0.375 1.726 -0.145 1 0 0 0 2.6362619
-1.2539999 5.0219998 -0.366 94 0 0 0 2.6412089
-1.41 4.9850001 -0.296 91 0 0 0 2.6461561
-0.414 1.711 -0.145 24 0 0 0 2.65605
-1.372 4.9910002 -0.366 94 0 0 0 2.6609969
-1.524 4.948 -0.292 92 0 0 0 2.6659441
-0.40200001 1.719 -0.171 25 0 0 0 2.670891
-0.45199999 1.691 -0.146 18 0 0 0 2.675838
-1.488 4.9559999 -0.36500001 94 0 0 0 2.6807849
-1.6339999 4.8990002 -0.287 95 0 0 0 2.6857319
-0.44 1.701 -0.17200001 34 0 0 0 2.4599531
-0.491 1.677 -0.147 8 0 0 0 2.4649
-1.602 4.9159999 -0.36500001 94 0 0 0 2.469847
-1.747 4.8569999 -0.28299999 150 0 0 0 2.4747939
-0.47799999 1.682 -0.17399999 42 0 0 0 2.4797411
-0.528 1.658 -0.147 2 0 0 0 2.484688
-1.717 4.8779998 -0.36500001 98 0 0 0 2.489635
-1.863 4.8280001 -0.28 135 0 0 0 2.4945819
-0.51800001 1.669 -0.177 53 0 0 0 2.4995289
-1.683 4.8850002 -0.44100001 89 0 0 0 2.5044761
-1.758 4.645 -0.34999999 161 0 0 0 2.509423
-1.976 4.7880001 -0.27599999 113 0 0 0 2.51437
-0.55500001 1.651 -0.178 72 0 0 0 2.5193169
-1.785 4.8060002 -0.44100001 150 0 0 0 2.5242641
-1.937 4.7789998 -0.36300001 150 0 0 0 2.529211
-1.317 2.9920001 -0.17200001 8 0 0 0 2.534158
-0.59200001 1.631 -0.18000001 88 0 0 0 2.5391049
-1.238 3.108 -0.28999999 29 0 0 0 2.5440519
-1.304 3.0109999 -0.23 6 0 0 0 2.5489991
-1.337 2.8559999 -0.163 6 0 0 0 2.553946
-0.62900001 1.612 -0.182 113 0 0 0 2.558893
-1.308 3.072 -0.29100001 46 0 0 0 2.5638399
-1.3329999 2.892 -0.223 33 0 0 0 2.5687871
-1.413 2.8440001 -0.162 4 0 0 0 2.573734
-0.66500002 1.59 -0.184 68 0 0 0 2.578681
-1.337 2.944 -0.28400001 30 0 0 0 2.5836279
-1.401 2.862 -0.223 18 0 0 0 2.5885749
-2.414 4.592 -0.26100001 40 0 0 0 2.5935221
-0.70599997 1.582 -0.18700001 29 0 0 0 2.598469
-1.408 2.915 -0.28600001 28 0 0 0 2.603416
-2.3629999 4.5510001 -0.359 14 0 0 0 2.6083629
-2.5469999 4.5840001 -0.25999999 87 0 0 0 2.6133101
-1.428 3.0050001 -0.36399999 46 0 0 0 2.618257
-2.2709999 4.4320002 -0.44400001 51 0 0 0 2.623204
-2.5020001 4.5570002 -0.36399999 48 0 0 0 2.6281509
-2.523 4.3039999 -0.244 20 0 0 0 2.6330979
-1.5190001 3.0090001 -0.373 24 0 0 0 2.6380451
-2.4260001 4.4689999 -0.456 36 0 0 0 2.642992
-2.599 4.4819999 -0.36199999 19 0 0 0 2.647939
-2.8 4.5320001 -0.25600001 109 0 0 0 2.6528859
-2.4630001 4.6030002 -0.58399999 73 0 0 0 2.6578331
-2.5910001 4.5159998 -0.47 52 0 0 0 2.66278
-2.7720001 4.5320001 -0.37 114 0 0 0 2.667727
-2.918 4.4889998 -0.25400001 101 0 0 0 2.6726739
-2.572 4.54 -0.58999997 63 0 0 0 2.6776209
-2.7479999 4.5349998 -0.48100001 100 0 0 0 2.6825681
-2.898 4.4990001 -0.373 106 0 0 0 2.687515
-2.8959999 4.2379999 -0.23999999 80 0 0 0 2.692462
-2.72 4.5450001 -0.60600001 92 0 0 0 2.6974089
-2.869 4.493 -0.48699999 102 0 0 0 2.7023561
-2.8150001 4.1550002 -0.34900001 70 0 0 0 2.707303
-3.1099999 4.3340001 -0.245 98 0 0 0 2.71225
-2.8410001 4.4959998 -0.61500001 94 0 0 0 2.7171969
-2.75 4.0910001 -0.45199999 47 0 0 0 2.7221439
-3.131 4.395 -0.375 97 0 0 0 2.7270911
-3.2290001 4.2880001 -0.243 94 0 0 0 2.732038
-2.72 4.085 -0.57300001 37 0 0 0 2.736985
-2.918 4.125 -0.46599999 73 0 0 0 2.7419319
-3.2520001 4.3470001 -0.37599999 95 0 0 0 2.7468791
-3.3640001 4.2589998 -0.242 96 0 0 0 2.751826
-2.9400001 4.1939998 -0.60399997 72 0 0 0 2.756773
-3.1400001 4.224 -0.48800001 71 0 0 0 2.7617199
-3.3789999 4.3039999 -0.37799999 95 0 0 0 2.7666669
-3.1570001 4.2789998 -0.63300002 59 0 0 0 2.776561
-3.3540001 4.296 -0.50800002 78 0 0 0 2.781508
-3.313 4.2729998 -0.64899999 64 0 0 0 2.796349
-3.6040001 3.618 -0.211 82 0 0 0 2.8507659
-3.5899999 3.612 -0.34900001 87 0 0 0 2.865607
-3.9790001 3.8169999 -0.22400001 30 0 0 0 2.870554
-3.5810001 3.608 -0.484 73 0 0 0 2.8804481
-3.7950001 3.645 -0.36000001 54 0 0 0 2.8853951
-4.0209999 3.6849999 -0.21799999 25 0 0 0 2.890342
-3.559 3.5969999 -0.63300002 70 0 0 0 2.8952889
-3.8759999 3.7260001 -0.514 55 0 0 0 2.9002359
-3.891 3.566 -0.36000001 63 0 0 0 2.9051831
-4.2140002 3.6889999 -0.221 24 0 0 0 2.91013
-3.8529999 3.71 -0.67400002 34 0 0 0 2.915077
-4.0149999 3.6789999 -0.523 48 0 0 0 2.9200239
-3.993 3.4909999 -0.361 69 0 0 0 2.9249711
-4.217 3.5239999 -0.214 64 0 0 0 2.9299181
-3.994 3.665 -0.68699998 33 0 0 0 2.818825
-4.1500001 3.6259999 -0.53100002 41 0 0 0 2.823772
-4.1370001 3.45 -0.366 75 0 0 0 2.8287189
-4.3520002 3.4719999 -0.213 73 0 0 0 2.8336661
-4.1329999 3.6110001 -0.70099998 22 0 0 0 2.838613
-4.664 3.8840001 -0.58700001 101 0 0 0 2.84356
-4.2670002 3.3929999 -0.37 69 0 0 0 2.8485069
-4.5019999 3.424 -0.213 73 0 0 0 2.8534541
-4.6589999 3.8770001 -0.77899998 72 0 0 0 2.8584011
-4.8369999 3.8369999 -0.59899998 101 0 0 0 2.863348
-4.4419999 3.3670001 -0.377 60 0 0 0 2.868295
-4.6420002 3.3670001 -0.213 71 0 0 0 2.8732419
-4.836 3.8280001 -0.79699999 77 0 0 0 2.8781891
-5.0050001 3.78 -0.61000001 104 0 0 0 2.883136
-4.6420002 3.3510001 -0.38600001 40 0 0 0 2.888083
-4.8060002 3.322 -0.214 70 0 0 0 2.8930299
-5.006 3.77 -0.81400001 84 0 0 0 2.8979771
-5.1269999 3.6849999 -0.616 64 0 0 0 2.9029241
-4.8189998 3.3099999 -0.39300001 49 0 0 0 2.907871
-5.1389999 3.3829999 -0.222 85 0 0 0 2.912818
-5.1220002 3.6670001 -0.82300001 66 0 0 0 2.9177649
-5.1220002 3.4979999 -0.60600001 77 0 0 0 2.9227121
-5.0910001 3.326 -0.40799999 83 0 0 0 2.927659
-5.066 3.171 -0.213 86 0 0 0 2.932606
-5.0650001 3.444 -0.80400002 60 0 0 0 2.9375529
-4.9580002 3.217 -0.579 67 0 0 0 2.9425001
-5.0370002 3.125 -0.39700001 35 0 0 0 2.9474471
-4.901 3.1600001 -0.76999998 24 0 0 0 2.957341
-8.9969997 5.2969999 -0.69800001 2 0 0 0 2.9672351
-8.8809996 4.9520001 -0.67799997 3 0 0 0 2.9870231
-8.8319998 4.7210002 -0.34200001 4 0 0 0 2.9919701
-8.7489996 4.6160002 -0.65799999 4 0 0 0 3.0068109
-8.7340002 4.4180002 -0.329 5 0 0 0 3.0117581
-8.658 4.3140001 -0.64200002 4 0 0 0 3.0265989
-8.6239996 4.119 -0.317 5 0 0 0 3.0315461
-8.5640001 4.0229998 -0.62599999 5 0 0 0 3.046387
-8.5579996 3.8499999 -0.308 5 0 0 0 3.0513339
-8.4689999 3.7379999 -0.611 4 0 0 0 3.066175
-8.4610004 3.579 -0.29699999 7 0 0 0 3.0711219
-8.375 3.467 -0.597 4 0 0 0 3.085963
-8.3570004 3.312 -0.287 5 0 0 0 3.09091
-8.0939999 3.131 -0.56999999 5 0 0 0 3.105751
-8.073 2.99 -0.27200001 8 0 0 0 3.110698
-7.9949999 2.881 -0.55599999 8 0 0 0 3.1255391
-8.0080004 2.7590001 -0.264 8 0 0 0 3.130486
-7.9660001 2.665 -0.54799998 5 0 0 0 3.1453271
-8.1129999 2.592 -0.26300001 11 0 0 0 3.150274
-6.862 -1.1440001 -0.191 8 0 0 0 4.1148729
-6.816 -1.295 -0.191 18 0 0 0 4.1346612
-6.7729998 -1.447 -0.191 18 0 0 0 4.154449
-6.7080002 -1.591 -0.191 19 0 0 0 4.1742368
-3.72 -0.977 -0.234 0 0 0 0 4.1890779
-6.6560001 -1.74 -0.191 18 0 0 0 4.194025
-3.6659999 -1.053 -0.23199999 1 0 0 0 4.2088661
-6.6149998 -1.8890001 -0.192 17 0 0 0 4.2138128
-3.6440001 -1.14 -0.23100001 2 0 0 0 4.2286539
-6.5570002 -2.033 -0.193 18 0 0 0 4.2336011
-3.631 -1.228 -0.23199999 4 0 0 0 4.2484422
-6.5089998 -2.1800001 -0.19400001 17 0 0 0 4.2533889
-3.5769999 -1.309 -0.35499999 1 0 0 0 4.2632828
-3.5969999 -1.3099999 -0.23100001 5 0 0 0 4.26823
-3.5480001 -1.3940001 -0.35299999 4 0 0 0 4.283071
-3.553 -1.387 -0.229 1 0 0 0 4.2880182
-6.4060001 -2.473 -0.19599999 18 0 0 0 4.2929649
-3.5139999 -1.477 -0.352 1 0 0 0 4.3028588
-3.5309999 -1.474 -0.23 1 0 0 0 4.307806
-6.3470001 -2.6170001 -0.198 19 0 0 0 4.3127532
-3.484 -1.564 -0.35100001 1 0 0 0 4.1709838
-3.5020001 -1.558 -0.229 1 0 0 0 4.175931
-6.2969999 -2.763 -0.2 19 0 0 0 4.1808782
-3.428 -1.652 -0.47799999 0 0 0 0 4.1858249
-3.4649999 -1.654 -0.34999999 1 0 0 0 4.1907721
-3.4679999 -1.64 -0.229 0 0 0 0 4.1957188
-6.2670002 -2.9200001 -0.20299999 16 0 0 0 4.200666
-3.444 -1.7460001 -0.35100001 0 0 0 0 4.2105598
-3.4660001 -1.738 -0.23100001 0 0 0 0 4.215507
-6.2030001 -3.063 -0.205 17 0 0 0 4.2204542
-6.1459999 -3.21 -0.207 13 0 0 0 4.240242
-6.0999999 -3.362 -0.20999999 10 0 0 0 4.2600298
-6.0450001 -3.5139999 -0.213 8 0 0 0 4.2798181
-6.0009999 -3.6719999 -0.21699999 2 0 0 0 4.2996058
-2.9000001 -3.359 -0.47499999 1 0 0 0 4.5222211
-2.812 -3.309 -0.162 9 0 0 0 4.5766382
-2.6459999 -4.0040002 -0.37099999 10 0 0 0 4.4139009
-2.438 -4.0170002 -0.458 62 0 0 0 4.4287419
-2.536 -4.0419998 -0.36500001 65 0 0 0 4.4336891
-2.277 -3.9590001 -0.43900001 58 0 0 0 4.4485302
-2.3729999 -3.9849999 -0.352 61 0 0 0 4.4534769
-2.4690001 -4.0100002 -0.271 74 0 0 0 4.4584241
-2.5769999 -4.039 -0.197 72 0 0 0 4.4633708
-2.1300001 -3.915 -0.42199999 62 0 0 0 4.468318
-2.2160001 -3.9260001 -0.33899999 62 0 0 0 4.4732652
-2.313 -3.957 -0.26300001 72 0 0 0 4.4782119
-2.4189999 -3.9879999 -0.19499999 73 0 0 0 4.4831591
-1.984 -3.865 -0.405 61 0 0 0 4.4881058
-2.0710001 -3.878 -0.32699999 59 0 0 0 4.493053
-2.164 -3.908 -0.257 69 0 0 0 4.4980001
-2.267 -3.9360001 -0.193 70 0 0 0 4.5029469
-1.841 -3.8039999 -0.38800001 59 0 0 0 4.507894
-1.931 -3.8299999 -0.31600001 62 0 0 0 4.5128412
-2.02 -3.855 -0.25 67 0 0 0 4.5177879
-2.118 -3.881 -0.191 67 0 0 0 4.5227351
-1.715 -3.77 -0.37400001 61 0 0 0 4.5276818
-1.803 -3.793 -0.30700001 74 0 0 0 4.532629
-1.886 -3.8110001 -0.244 67 0 0 0 4.5375762
-1.9809999 -3.835 -0.189 67 0 0 0 4.5425229
-1.59 -3.724 -0.36000001 66 0 0 0 4.5474701
-1.6720001 -3.7409999 -0.296 71 0 0 0 4.5524168
-1.7589999 -3.7709999 -0.23899999 80 0 0 0 4.557364
-1.853 -3.7980001 -0.189 66 0 0 0 4.5623112
-1.4680001 -3.678 -0.34599999 76 0 0 0 4.5672579
-1.553 -3.704 -0.287 76 0 0 0 4.5722051
-1.638 -3.7320001 -0.234 79 0 0 0 4.5771518
-1.726 -3.753 -0.18700001 84 0 0 0 4.582099
-1.355 -3.6400001 -0.333 77 0 0 0 4.5870461
-1.441 -3.6760001 -0.28 82 0 0 0 4.5919929
-1.5190001 -3.691 -0.229 84 0 0 0 4.59694
-1.6059999 -3.711 -0.186 98 0 0 0 4.6018872
-1.245 -3.6040001 -0.322 81 0 0 0 4.6068339
-1.326 -3.6270001 -0.271 83 0 0 0 4.6117811
-1.404 -3.6489999 -0.22400001 87 0 0 0 4.6167278
-1.492 -3.6760001 -0.186 93 0 0 0 4.621675
-1.136 -3.5550001 -0.30899999 90 0 0 0 4.6266222
-1.217 -3.586 -0.26300001 93 0 0 0 4.6315689
-1.296 -3.615 -0.22 93 0 0 0 4.6365161
-1.376 -3.6300001 -0.185 95 0 0 0 4.6414628
-1.036 -3.527 -0.29899999 89 0 0 0 4.64641
-1.112 -3.5480001 -0.255 103 0 0 0 4.6513572
-1.187 -3.5699999 -0.21600001 97 0 0 0 4.6563039
-1.27 -3.5969999 -0.185 102 0 0 0 4.6612511
-0.93599999 -3.4890001 -0.28799999 96 0 0 0 4.6661978
-1.012 -3.513 -0.248 94 0 0 0 4.671145
-1.087 -3.5380001 -0.212 95 0 0 0 4.6760921
-1.165 -3.5569999 -0.184 107 0 0 0 4.6810389
-0.84200001 -3.461 -0.27900001 102 0 0 0 4.685986
-0.91600001 -3.484 -0.242 112 0 0 0 4.6909332
-0.98900002 -3.5079999 -0.20900001 105 0 0 0 4.6958799
-1.068 -3.5309999 -0.184 112 0 0 0 4.7008271
-0.75099999 -3.4330001 -0.27000001 95 0 0 0 4.7057738
-0.824 -3.4560001 -0.236 116 0 0 0 4.710721
-0.89399999 -3.477 -0.206 119 0 0 0 4.7156682
-0.97000003 -3.494 -0.184 116 0 0 0 4.7206149
-0.65200001 -3.358 -0.257 53 0 0 0 4.7255621
-0.72600001 -3.391 -0.228 71 0 0 0 4.7305088
-0.80299997 -3.4460001 -0.20299999 117 0 0 0 4.735456
-0.87900001 -3.47 -0.185 122 0 0 0 4.7404032
-0.56699997 -3.3310001 -0.249 49 0 0 0 4.7453499
-0.63599998 -3.352 -0.222 52 0 0 0 4.7502971
-0.70499998 -3.3759999 -0.198 54 0 0 0 4.7552438
-0.78500003 -3.4319999 -0.185 107 0 0 0 4.760191
-0.484 -3.3069999 -0.241 57 0 0 0 4.7651381
-0.551 -3.3239999 -0.21699999 56 0 0 0 4.7700849
-0.61699998 -3.345 -0.19599999 56 0 0 0 4.775032
-0.68900001 -3.369 -0.183 55 0 0 0 4.7799792
-0.40200001 -3.279 -0.233 54 0 0 0 4.7849259
-0.46799999 -3.3 -0.212 54 0 0 0 4.7898731
-0.53399998 -3.3210001 -0.19400001 62 0 0 0 4.7948198
-0.60299999 -3.3369999 -0.184 61 0 0 0 4.799767
-0.32100001 -3.256 -0.226 61 0 0 0 4.8047142
-0.38800001 -3.276 -0.207 56 0 0 0 4.8096609
-0.45100001 -3.29 -0.191 59 0 0 0 4.8146081
-0.51999998 -3.3080001 -0.184 60 0 0 0 4.8195548
-0.245 -3.257 -0.221 89 0 0 0 4.824502
-0.30899999 -3.2490001 -0.20299999 56 0 0 0 4.8294492
-0.37200001 -3.2690001 -0.19 62 0 0 0 4.8343959
-0.43900001 -3.2850001 -0.185 66 0 0 0 4.8393431
-0.169 -3.2409999 -0.214 102 0 0 0 4.8442898
-0.235 -3.2639999 -0.20100001 109 0 0 0 4.849237
-0.29300001 -3.2420001 -0.18799999 61 0 0 0 4.8541842
-0.359 -3.2590001 -0.186 57 0 0 0 4.8591309
-0.093000002 -3.2130001 -0.207 100 0 0 0 4.864078
-0.15700001 -3.2320001 -0.19599999 102 0 0 0 4.8690252
-0.219 -3.2579999 -0.189 104 0 0 0 4.8739719
-0.28099999 -3.2349999 -0.18700001 53 0 0 0 4.8789191
-0.017999999 -3.1889999 -0.20100001 102 0 0 0 4.817729
-0.081 -3.211 -0.193 96 0 0 0 4.8226762
-0.142 -3.2260001 -0.18700001 93 0 0 0 4.8276229
-0.207 -3.244 -0.19 108 0 0 0 4.8325701
0.052999999 -3.089 -0.19 150 0 0 0 4.8375168
-0.0070000002 -3.184 -0.189 104 0 0 0 4.842464
-0.067000002 -3.214 -0.186 108 0 0 0 4.8474112
-0.131 -3.224 -0.191 101 0 0 0 4.8523579
0.126 -3.1099999 -0.18700001 150 0 0 0 4.857305
0.064000003 -3.125 -0.183 150 0 0 0 4.8622522
0.0060000001 -3.1760001 -0.184 99 0 0 0 4.8671989
-0.056000002 -3.1989999 -0.193 110 0 0 0 4.8721461
0.198 -3.1129999 -0.182 96 0 0 0 4.8770928
0.138 -3.1389999 -0.182 112 0 0 0 4.88204
0.077 -3.072 -0.17900001 150 0 0 0 4.8869872
0.017000001 -3.1789999 -0.19400001 114 0 0 0 4.8919339
0.26800001 -3.089 -0.176 104 0 0 0 4.8968811
0.208 -3.102 -0.178 91 0 0 0 4.9018278
0.15000001 -3.132 -0.183 105 0 0 0 4.906775
0.085000001 -2.9660001 -0.184 150 0 0 0 4.9117222
0.33399999 -3.0320001 -0.169 150 0 0 0 4.9166689
0.278 -3.082 -0.175 106 0 0 0 4.9216161
0.221 -3.1029999 -0.18099999 104 0 0 0 4.9265628
0.162 -3.1289999 -0.197 110 0 0 0 4.93151
0.38699999 -2.8929999 -0.15700001 150 0 0 0 4.9364572
0.333 -2.9360001 -0.16500001 150 0 0 0 4.9414039
0.27900001 -2.954 -0.17299999 150 0 0 0 4.9463511
0.222 -2.9579999 -0.189 150 0 0 0 4.9512982
0.44100001 -2.8080001 -0.149 150 0 0 0 4.9562449
0.38800001 -2.8299999 -0.15700001 150 0 0 0 4.9611921
0.33399999 -2.8329999 -0.167 94 0 0 0 4.9661388
0.278 -2.8280001 -0.184 54 0 0 0 4.971086
0.498 -2.7509999 -0.14300001 112 0 0 0 4.9760332
0.44400001 -2.7620001 -0.152 103 0 0 0 4.9809799
0.39500001 -2.7920001 -0.16500001 81 0 0 0 4.9859271
0.34200001 -2.802 -0.185 59 0 0 0 4.9908738
0.56 -2.734 -0.138 124 0 0 0 4.995821
0.50599998 -2.747 -0.15000001 108 0 0 0 5.0007682
0.45500001 -2.7550001 -0.164 68 0 0 0 5.0057149
0.40599999 -2.793 -0.18799999 20 0 0 0 5.0106621
0.62099999 -2.714 -0.134 127 0 0 0 5.0156088
0.56599998 -2.72 -0.148 67 0 0 0 5.020556
0.52100003 -2.7620001 -0.16500001 25 0 0 0 5.0255032
0.477 -2.816 -0.193 6 0 0 0 5.0304499
0.68000001 -2.6889999 -0.12899999 76 0 0 0 5.0353971
0.63200003 -2.72 -0.147 23 0 0 0 5.0403442
0.59100002 -2.773 -0.167 10 0 0 0 5.0452909
0.54299998 -2.812 -0.19599999 10 0 0 0 5.0502381
0.74299997 -2.678 -0.126 35 0 0 0 5.0551848
0.699 -2.7260001 -0.146 12 0 0 0 5.060132
0.662 -2.7909999 -0.17 9 0 0 0 5.0650792
0.611 -2.809 -0.199 10 0 0 0 5.0700259
0.80699998 -2.6700001 -0.122 17 0 0 0 5.0749731
0.76800001 -2.7290001 -0.145 14 0 0 0 5.0799198
0.72500002 -2.77 -0.17 11 0 0 0 5.084867
0.68000001 -2.8110001 -0.20299999 10 0 0 0 5.0898142
0.87599999 -2.678 -0.119 13 0 0 0 5.0947609
0.83200002 -2.7130001 -0.14399999 15 0 0 0 5.0997081
0.78600001 -2.7420001 -0.169 12 0 0 0 5.1046548
0.73699999 -2.76 -0.20299999 6 0 0 0 5.109602
0.93099999 -2.6389999 -0.115 46 0 0 0 5.1145492
0.89600003 -2.7 -0.142 15 0 0 0 5.1194959
0.847 -2.7119999 -0.169 11 0 0 0 5.1244431
0.80400002 -2.7509999 -0.206 9 0 0 0 5.1293898
0.98500001 -2.599 -0.11 79 0 0 0 5.1343369
0.94199997 -2.6370001 -0.138 45 0 0 0 5.1392841
0.91100001 -2.6989999 -0.17 12 0 0 0 5.1442308
0.86699998 -2.7290001 -0.20900001 7 0 0 0 5.149178
1.046 -2.5810001 -0.107 105 0 0 0 5.1541252
0.99800003 -2.6029999 -0.13600001 107 0 0 0 5.1590719
0.96899998 -2.668 -0.17 15 0 0 0 5.1640191
0.92500001 -2.6960001 -0.20999999 6 0 0 0 5.1689658
1.1059999 -2.563 -0.103 110 0 0 0 5.173913
1.058 -2.5810001 -0.13500001 105 0 0 0 5.1788602
1.012 -2.595 -0.167 91 0 0 0 5.1838069
0.99000001 -2.678 -0.213 11 0 0 0 5.1887541
1.165 -2.539 -0.1 100 0 0 0 5.1937008
1.117 -2.5569999 -0.133 103 0 0 0 5.198648
1.073 -2.575 -0.168 101 0 0 0 5.2035952
1.027 -2.5899999 -0.211 101 0 0 0 5.2085419
1.217 -2.5 -0.094999999 75 0 0 0 5.2134891
1.181 -2.5420001 -0.132 69 0 0 0 5.2184358
1.135 -2.5569999 -0.169 100 0 0 0 5.2233829
1.0880001 -2.5669999 -0.213 88 0 0 0 5.2283301
1.284 -2.4920001 -0.093000002 58 0 0 0 5.2332768
1.234 -2.503 -0.13 83 0 0 0 5.238224
1.197 -2.5350001 -0.17 47 0 0 0 5.2431712
1.155 -2.5569999 -0.21699999 28 0 0 0 5.2481179
1.378 -2.53 -0.092 20 0 0 0 5.2530651
1.304 -2.5 -0.13 26 0 0 0 5.2580118
1.251 -2.4960001 -0.169 68 0 0 0 5.262959
1.21 -2.52 -0.219 59 0 0 0 5.2679062
1.4400001 -2.5079999 -0.088 19 0 0 0 5.2728529
1.391 -2.5220001 -0.131 18 0 0 0 5.2778001
1.344 -2.5350001 -0.17399999 15 0 0 0 5.2827468
1.267 -2.4890001 -0.221 42 0 0 0 5.287694
1.506 -2.493 -0.085000001 18 0 0 0 5.1440239
1.462 -2.516 -0.131 19 0 0 0 5.1489711
1.416 -2.529 -0.177 17 0 0 0 5.1539178
1.341 -2.487 -0.226 30 0 0 0 5.158865
1.582 -2.49 -0.082999997 17 0 0 0 5.1638122
1.531 -2.5020001 -0.131 17 0 0 0 5.1687589
1.488 -2.5190001 -0.17900001 14 0 0 0 5.1737061
1.4 -2.4579999 -0.229 74 0 0 0 5.1786528
1.652 -2.474 -0.079999998 15 0 0 0 5.1835999
1.6 -2.4849999 -0.13 17 0 0 0 5.1885471
1.546 -2.4849999 -0.18000001 11 0 0 0 5.1934938
1.464 -2.434 -0.233 54 0 0 0 5.198441
1.724 -2.4590001 -0.077 13 0 0 0 5.2033882
1.6720001 -2.47 -0.13 14 0 0 0 5.2083349
1.581 -2.4119999 -0.177 24 0 0 0 5.2132821
1.531 -2.414 -0.237 66 0 0 0 5.2182288
1.79 -2.434 -0.074000001 13 0 0 0 5.223176
1.722 -2.4219999 -0.12800001 11 0 0 0 5.2281232
1.625 -2.3570001 -0.177 32 0 0 0 5.2330699
1.597 -2.3929999 -0.241 79 0 0 0 5.2380171
1.421 -1.8430001 -0.054000001 19 0 0 0 5.2429638
1.758 -2.3559999 -0.125 6 0 0 0 5.247911
1.638 -2.263 -0.17299999 23 0 0 0 5.2528582
1.619 -2.3050001 -0.23800001 25 0 0 0 5.2578049
1.419 -1.757 -0.050000001 18 0 0 0 5.2627521
1.4069999 -1.799 -0.096000001 41 0 0 0 5.2676988
1.3279999 -1.75 -0.13600001 81 0 0 0 5.272646
1.2589999 -1.707 -0.18099999 43 0 0 0 5.2775931
1.444 -1.709 -0.048 30 0 0 0 5.2825398
1.378 -1.681 -0.090999998 44 0 0 0 5.287487
1.329 -1.67 -0.133 43 0 0 0 5.2924342
1.275 -1.647 -0.17900001 58 0 0 0 5.2973809
1.525 -1.725 -0.046 4 0 0 0 5.3023281
1.4 -1.631 -0.089000002 61 0 0 0 5.3072748
1.344 -1.609 -0.131 58 0 0 0 5.312222
1.289 -1.586 -0.178 103 0 0 0 5.3171692
2.1389999 -2.312 -0.059999999 8 0 0 0 5.3221159
1.446 -1.608 -0.088 54 0 0 0 5.3270631
1.34 -1.531 -0.127 48 0 0 0 5.3320098
1.278 -1.498 -0.17299999 78 0 0 0 5.336957
2.2160001 -2.289 -0.057999998 8 0 0 0 5.3419042
1.472 -1.564 -0.086999997 4 0 0 0 5.3468509
1.39 -1.515 -0.12899999 55 0 0 0 5.3517981
1.312 -1.466 -0.17399999 72 0 0 0 5.3567448
2.26 -2.2309999 -0.055 7 0 0 0 5.361692
2.164 -2.197 -0.124 58 0 0 0 5.3666391
1.475 -1.535 -0.134 54 0 0 0 5.3715858
1.3710001 -1.462 -0.17900001 75 0 0 0 5.376533
2.312 -2.1830001 -0.052000001 24 0 0 0 5.3814802
2.2409999 -2.1719999 -0.124 75 0 0 0 5.3864269
1.505 -1.495 -0.134 91 0 0 0 5.3913741
1.433 -1.456 -0.184 56 0 0 0 5.3963208
2.369 -2.1400001 -0.048999999 21 0 0 0 5.401268
2.243 -2.0780001 -0.121 89 0 0 0 5.4062152
2.283 -2.1659999 -0.2 84 0 0 0 5.4111619
1.533 -1.487 -0.19400001 39 0 0 0 5.4161091
2.4289999 -2.0969999 -0.046 34 0 0 0 5.4210558
2.391 -2.1159999 -0.125 103 0 0 0 5.426003
2.283 -2.0669999 -0.197 0 0 0 0 5.4309502
2.4200001 -1.9960001 -0.043000001 57 0 0 0 5.4408441
2.428 -2.053 -0.123 48 0 0 0 5.4457908
2.444 -2.112 -0.207 101 0 0 0 5.450738
2.5190001 -1.985 -0.041000001 76 0 0 0 5.4606318
2.4660001 -1.99 -0.122 70 0 0 0 5.465579
2.437 -2.0090001 -0.20299999 36 0 0 0 5.4705262
2.2079999 -1.855 -0.26899999 27 0 0 0 5.4754729
2.674 -2.0109999 -0.039999999 65 0 0 0 5.4804201
2.631 -2.0250001 -0.127 68 0 0 0 5.4853668
2.516 -1.977 -0.206 25 0 0 0 5.490314
2.2409999 -1.795 -0.27000001 31 0 0 0 5.4952612
2.76 -1.9809999 -0.037999999 78 0 0 0 5.5002079
2.723 -1.998 -0.12800001 44 0 0 0 5.5051551
2.552 -1.91 -0.206 7 0 0 0 5.5101018
2.2479999 -1.714 -0.26800001 16 0 0 0 5.515049
2.858 -1.956 -0.035999998 90 0 0 0 5.5199962
2.7509999 -1.924 -0.126 150 0 0 0 5.5249429
2.5439999 -1.816 -0.20299999 31 0 0 0 5.5298901
2.2679999 -1.647 -0.26699999 16 0 0 0 5.5348368
2.9130001 -1.901 -0.034000002 69 0 0 0 5.539784
2.6570001 -1.771 -0.12 20 0 0 0 5.5447311
2.5050001 -1.701 -0.197 22 0 0 0 5.5496778
2.2839999 -1.577 -0.26699999 19 0 0 0 5.554625
2.964 -1.841 -0.030999999 41 0 0 0 5.5595722
2.8670001 -1.818 -0.126 81 0 0 0 5.5645189
2.5239999 -1.63 -0.197 31 0 0 0 5.5694661
2.312 -1.517 -0.26800001 55 0 0 0 5.5744128
2.9200001 -1.725 -0.028000001 48 0 0 0 5.57936
2.964 -1.785 -0.12800001 93 0 0 0 5.5843072
2.608 -1.599 -0.20100001 14 0 0 0 5.5892539
2.4219999 -1.507 -0.278 12 0 0 0 5.5942011
3 -1.684 -0.026000001 47 0 0 0 5.5991478
2.997 -1.7130001 -0.127 12 0 0 0 5.604095
2.618 -1.521 -0.199 18 0 0 0 5.6090422
3.1689999 -1.868 -0.361 8 0 0 0 5.6139889
3.0969999 -1.647 -0.025 60 0 0 0 5.9717579
3.017 -1.635 -0.126 26 0 0 0 5.9767051
2.642 -1.454 -0.199 27 0 0 0 5.9816518
3.2939999 -1.8380001 -0.373 7 0 0 0 5.986599
3.3570001 -1.691 -0.024 28 0 0 0 5.9915462
2.938 -1.506 -0.12 74 0 0 0 5.9964929
2.6830001 -1.397 -0.20100001 44 0 0 0 6.00144
3.48 -1.835 -0.391 3 0 0 0 6.0063872
2.609 -1.243 -0.017000001 90 0 0 0 6.0113339
2.585 -1.252 -0.104 92 0 0 0 6.0162811
2.6530001 -1.304 -0.197 151 0 0 0 6.0212278
3.0179999 -1.502 -0.33700001 7 0 0 0 6.026175
2.7179999 -1.221 -0.016000001 150 0 0 0 6.0311222
2.592 -1.183 -0.103 111 0 0 0 6.0360689
2.589 -1.199 -0.191 72 0 0 0 6.0410161
2.724 -1.274 -0.303 6 0 0 0 6.0459628
2.5999999 -1.1 -0.014 113 0 0 0 6.05091
2.6099999 -1.1210001 -0.102 103 0 0 0 6.0558572
2.6760001 -1.165 -0.19599999 85 0 0 0 6.0608039
2.7019999 -1.187 -0.29899999 49 0 0 0 6.0657511
2.622 -1.04 -0.012 106 0 0 0 6.0706978
2.6389999 -1.063 -0.102 96 0 0 0 6.075645
2.6800001 -1.092 -0.19499999 85 0 0 0 6.0805922
2.7030001 -1.1109999 -0.29699999 70 0 0 0 6.0855389
2.675 -0.99299997 -0.011 32 0 0 0 6.090486
2.6949999 -1.033 -0.29499999 6 0 0 0 6.1053271
2.734 -0.94599998 -0.0099999998 5 0 0 0 6.1102738
2.7179999 -0.95300001 -0.103 17 0 0 0 6.115221
2.7290001 -0.96600002 -0.19599999 17 0 0 0 6.1201682
2.71 -0.87 -0.0089999996 1 0 0 0 6.1300621
2.6440001 -0.86000001 -0.098999999 65 0 0 0 6.1350088
2.668 -0.87599999 -0.191 55 0 0 0 6.139956
2.6930001 -0.88800001 -0.29300001 19 0 0 0 6.1449032
2.6600001 -0.79100001 -0.0080000004 22 0 0 0 6.1498499
2.652 -0.796 -0.098999999 68 0 0 0 6.1547971
2.898 -0.87800002 -0.207 0 0 0 0 6.1597438
2.675 -0.81199998 -0.28999999 25 0 0 0 6.164691
2.8759999 -0.79299998 -0.106 5 0 0 0 6.1745849
2.7 -0.74900001 -0.192 47 0 0 0 6.1795321
2.6440001 -0.73400003 -0.28600001 54 0 0 0 6.1844792
2.849 -0.71100003 -0.0070000002 136 0 0 0 6.1894259
2.8429999 -0.71499997 -0.104 58 0 0 0 6.1943731
2.7390001 -0.69099998 -0.19400001 43 0 0 0 6.1993198
2.704 -0.68199998 -0.292 47 0 0 0 6.204267
5.132 -1.16 -0.011 64 0 0 0 6.2092142
5.7259998 -1.3 -0.20999999 48 0 0 0 6.2141609
2.8410001 -0.64700001 -0.20100001 16 0 0 0 6.2191081
2.7839999 -0.63 -0.30000001 41 0 0 0 6.2240548
5.1560001 -1.045 -0.0099999998 121 0 0 0 6.229002
5.5100002 -1.12 -0.20100001 71 0 0 0 6.2339492
5.5570002 -1.13 -0.39300001 54 0 0 0 6.2388959
5.0289998 -1.0140001 -0.542 4 0 0 0 6.2438431
4.3189998 -0.77600002 -0.0080000004 139 0 0 0 6.2487898
4.4310002 -0.796 -0.161 42 0 0 0 6.253737
4.5539999 -0.815 -0.32100001 42 0 0 0 6.2586842
4.8280001 -0.85399997 -0.51999998 6 0 0 0 6.2636309
4.3179998 -0.67799997 -0.0070000002 50 0 0 0 6.2685781
4.2740002 -0.67000002 -0.155 64 0 0 0 6.2735252
4.5869999 -0.713 -0.324 70 0 0 0 6.2784719
4.0710001 -0.54799998 -0.0060000001 10 0 0 0 6.2883658
4.1469998 -0.55299997 -0.15000001 50 0 0 0 6.293313
4.1420002 -0.546 -0.292 24 0 0 0 6.2982602
5.1149998 -0.65499997 -0.551 2 0 0 0 6.3032069
4.1020002 -0.46000001 -0.0060000001 109 0 0 0 6.3081541
4.1500001 -0.458 -0.15000001 90 0 0 0 6.3131008
4.0479999 -0.43700001 -0.28600001 21 0 0 0 6.318048
4.652 -0.484 -0.50099999 0 0 0 0 6.3229952
3.921 -0.35100001 -0.0049999999 33 0 0 0 6.3279419
3.904 -0.34099999 -0.141 48 0 0 0 6.3328891
3.9719999 -0.33500001 -0.28099999 50 0 0 0 6.3378358
5.1389999 -0.40799999 -0.55400002 2 0 0 0 6.342783
4.0009999 -0.26800001 -0.0060000001 70 0 0 0 6.3477302
3.9849999 -0.255 -0.14399999 63 0 0 0 6.3526769
4.0040002 -0.243 -0.28299999 39 0 0 0 6.3576241
4.9380002 -0.27399999 -0.53299999 29 0 0 0 6.3625708
3.9960001 -0.17900001 -0.0060000001 60 0 0 0 6.3675179
4.013 -0.16599999 -0.146 66 0 0 0 6.3724651
4.0749998 -0.15099999 -0.289 32 0 0 0 6.3774118
4.9660001 -0.15700001 -0.537 18 0 0 0 6.382359
4.868 -0.11 -0.0070000002 118 0 0 0 6.3873062
4.9000001 -0.090999998 -0.17900001 150 0 0 0 6.3922529
4.9419999 -0.07 -0.352 83 0 0 0 6.3972001
4.9879999 -0.039999999 -0.54000002 17 0 0 0 6.4021468
4.8940001 -0.003 -0.0080000004 113 0 0 0 6.407094
4.9260001 0.017999999 -0.18099999 105 0 0 0 6.4120412
5 0.045000002 -0.35699999 37 0 0 0 6.4169879
5.0549998 0.081 -0.54900002 4 0 0 0 6.4219351
8.0279999 0.17200001 -0.014 2 0 0 0 6.4268818
6.7919998 0.18099999 -0.25 4 0 0 0 6.431829
5.8260002 0.18799999 -0.417 4 0 0 0 6.4367762
5.0799999 0.20200001 -0.55299997 5 0 0 0 6.4417229
7.961 0.34599999 -0.015 2 0 0 0 6.287097
6.8099999 0.336 -0.25299999 5 0 0 0 6.2920442
5.8330002 0.32600001 -0.41999999 5 0 0 0 6.2969909
5.0910001 0.32499999 -0.55599999 4 0 0 0 6.3019381
7.0250001 0.463 -0.015 1 0 0 0 6.3068848
6.5089998 0.47299999 -0.243 0 0 0 0 6.311832
5.8340001 0.463 -0.42199999 6 0 0 0 6.3167791
5.1020002 0.45100001 -0.55900002 4 0 0 0 6.3217258
6.3470001 0.60699999 -0.23899999 0 0 0 0 6.3316202
5.8369999 0.60100001 -0.42399999 5 0 0 0 6.3365669
5.0840001 0.57099998 -0.55900002 5 0 0 0 6.3415141
6.2470002 0.741 -0.237 1 0 0 0 6.351408
5.8439999 0.741 -0.42699999 13 0 0 0 6.3563552
5.0929999 0.69599998 -0.56300002 4 0 0 0 6.3613019
6.2880001 0.83700001 -0.017999999 1 0 0 0 6.3662491
6.5900002 0.93199998 -0.25299999 9 0 0 0 6.3711958
5.8039999 0.87199998 -0.42699999 14 0 0 0 6.376143
5.0770001 0.81800002 -0.56400001 5 0 0 0 6.3810902
7.4439998 1.16 -0.024 40 0 0 0 6.3860369
6.7839999 1.119 -0.26300001 7 0 0 0 6.3909841
5.6059999 0.97600001 -0.41499999 14 0 0 0 6.3959308
5.0939999 0.94599998 -0.56800002 6 0 0 0 6.400878
8.0790005 1.4450001 -0.028999999 5 0 0 0 6.4058251
6.7940001 1.28 -0.266 7 0 0 0 6.4107718
5.493 1.09 -0.40900001 13 0 0 0 6.415719
5.0879998 1.071 -0.57099998 17 0 0 0 6.4206662
7.6079998 1.535 -0.029999999 41 0 0 0 6.4256129
5.5599999 1.179 -0.221 24 0 0 0 6.4305601
5.467 1.2180001 -0.41100001 13 0 0 0 6.4355068
4.9899998 1.176 -0.56300002 18 0 0 0 6.440454
5.3460002 1.204 -0.024 67 0 0 0 6.4454012
5.1479998 1.217 -0.207 9 0 0 0 6.4503479
5.118 1.268 -0.38800001 10 0 0 0 6.4552951
4.9819999 1.302 -0.56599998 35 0 0 0 6.4602418
5.0079999 1.245 -0.024 60 0 0 0 6.465189
4.9619999 1.293 -0.20200001 51 0 0 0 6.4701362
5.0209999 1.37 -0.38299999 24 0 0 0 6.4750829
4.9489999 1.421 -0.56599998 18 0 0 0 6.4800301
7.5780001 2.0650001 -0.041000001 39 0 0 0 6.4849768
5.0300002 1.433 -0.208 8 0 0 0 6.489924
5.8140001 1.7309999 -0.44800001 5 0 0 0 6.4948711
4.9679999 1.5549999 -0.57200003 18 0 0 0 6.4998178
7.9569998 2.358 -0.048 1 0 0 0 6.504765
5.8309999 1.887 -0.454 3 0 0 0 6.5146589
4.9829998 1.692 -0.57800001 21 0 0 0 6.5196061
6.9239998 2.221 -0.046 38 0 0 0 6.5245528
5.829 2.0380001 -0.45899999 3 0 0 0 6.5344472
5.0580001 1.855 -0.59100002 4 0 0 0 6.5393939
6.8699999 2.3740001 -0.050000001 123 0 0 0 6.5443411
6.8390002 2.467 -0.29800001 22 0 0 0 6.5492878
5.8340001 2.194 -0.46399999 2 0 0 0 6.554235
5.0640001 1.995 -0.597 4 0 0 0 6.5591822
6.8080001 2.523 -0.054000001 111 0 0 0 6.5641289
6.8309999 2.6429999 -0.303 7 0 0 0 6.5690761
5.7919998 2.335 -0.46599999 2 0 0 0 6.5740228
5.0689998 2.1400001 -0.60299999 3 0 0 0 6.57897
7.2220001 2.865 -0.063000001 138 0 0 0 6.5839171
6.8889999 2.848 -0.31099999 6 0 0 0 6.5888638
5.8200002 2.507 -0.47400001 3 0 0 0 6.593811
5.0640001 2.2809999 -0.60799998 3 0 0 0 6.5987582
7.1739998 3.0320001 -0.068000004 19 0 0 0 6.6037049
6.7729998 2.983 -0.31200001 2 0 0 0 6.6086521
5.8080001 2.665 -0.479 3 0 0 0 6.6135988
5.0609999 2.4289999 -0.61299998 2 0 0 0 6.618546
5.8200002 2.612 -0.059999999 46 0 0 0 6.6234932
5.9460001 2.7820001 -0.27900001 2 0 0 0 6.6284399
5.77 2.8099999 -0.48300001 3 0 0 0 6.6333871
5.0240002 2.559 -0.61500001 2 0 0 0 6.6383338
5.665 2.697 -0.064000003 2 0 0 0 6.643281
6.7290001 3.3369999 -0.32300001 3 0 0 0 6.6482282
5.6430001 2.915 -0.479 9 0 0 0 6.6531749
3.4130001 1.842 -0.42199999 10 0 0 0 6.6581221
5.651 2.8469999 -0.068999998 27 0 0 0 6.6630688
6.7459998 3.54 -0.331 2 0 0 0 6.668016
3.3800001 1.847 -0.29100001 49 0 0 0 6.6729631
3.336 1.905 -0.41800001 63 0 0 0 6.6779099
5.7509999 3.0599999 -0.075999998 26 0 0 0 6.682857
3.233 1.793 -0.162 51 0 0 0 6.6878042
3.3139999 1.913 -0.289 83 0 0 0 6.6927509
3.2679999 1.973 -0.414 65 0 0 0 6.6976981
7.9460001 4.46 -0.114 1 0 0 0 6.7026448
3.1849999 1.864 -0.164 47 0 0 0 6.707592
3.2420001 1.975 -0.28799999 94 0 0 0 6.7125392
3.197 2.036 -0.41 68 0 0 0 6.7174859
3.4549999 2.043 -0.052999999 40 0 0 0 6.7224331
3.1819999 1.961 -0.168 26 0 0 0 6.7273798
3.1800001 2.0409999 -0.287 100 0 0 0 6.732327
3.3889999 2.108 -0.056000002 49 0 0 0 6.7422209
3.1670001 2.0539999 -0.171 90 0 0 0 6.7471681
2.6730001 1.804 -0.245 1 0 0 0 6.7521148
2.5409999 1.794 -0.33500001 6 0 0 0 6.757062
3.2609999 2.1300001 -0.057999998 42 0 0 0 6.828228
2.7049999 1.842 -0.15000001 5 0 0 0 6.8331752
2.6010001 1.847 -0.243 6 0 0 0 6.8381219
2.497 1.853 -0.33399999 5 0 0 0 6.8430691
2.589 1.853 -0.148 12 0 0 0 6.852963
2.516 1.876 -0.23899999 6 0 0 0 6.8579102
2.4489999 1.911 -0.33199999 4 0 0 0 6.8628569
2.592 1.864 -0.052999999 4 0 0 0 6.8678041
2.5020001 1.8789999 -0.147 10 0 0 0 6.8727512
2.402 1.88 -0.233 3 0 0 0 6.8776979
2.4219999 1.985 -0.33399999 44 0 0 0 6.8826451
2.4319999 1.834 -0.054000001 0 0 0 0 6.8875918
2.415 1.902 -0.146 5 0 0 0 6.892539
2.3900001 1.964 -0.237 57 0 0 0 6.8974862
2.457 2.1140001 -0.34400001 65 0 0 0 6.9024329
2.437 1.926 -0.057999998 4 0 0 0 6.9073801
2.3800001 1.964 -0.148 63 0 0 0 6.9123268
2.3629999 2.036 -0.23899999 61 0 0 0 6.917274
2.503 2.2590001 -0.35699999 50 0 0 0 6.9222212
2.4289999 2.01 -0.061999999 23 0 0 0 6.9271679
2.359 2.0409999 -0.15099999 56 0 0 0 6.9321151
2.342 2.115 -0.242 53 0 0 0 6.9370618
2.309 2.1860001 -0.33500001 24 0 0 0 6.942009
3.0869999 2.6730001 -0.085000001 40 0 0 0 6.9469562
2.7550001 2.4949999 -0.183 1 0 0 0 6.9519029
2.5320001 2.3959999 -0.26800001 1 0 0 0 6.9568501
1.148 1.14 -0.17 3 0 0 0 6.9617972
2.7920001 2.53 -0.082000002 0 0 0 0 6.9667439
2.6570001 2.5209999 -0.182 3 0 0 0 6.9716911
2.6370001 2.6159999 -0.28600001 9 0 0 0 6.9766378
1.09 1.135 -0.164 4 0 0 0 6.981585
2.6919999 2.552 -0.085000001 1 0 0 0 6.9865322
2.8889999 2.869 -0.205 45 0 0 0 6.9914789
1.1210001 1.165 -0.124 1 0 0 0 6.9964261
1.053 1.151 -0.162 8 0 0 0 7.0013728
2.5929999 2.572 -0.086999997 1 0 0 0 7.00632
2.812 2.924 -0.207 19 0 0 0 7.0112672
1.092 1.1900001 -0.124 7 0 0 0 7.0162139
1.038 1.191 -0.163 7 0 0 0 7.0211611
2.816 2.924 -0.102 150 0 0 0 7.0261078
2.0550001 2.2390001 -0.156 20 0 0 0 7.031055
1.066 1.2180001 -0.125 0 0 0 0 7.0360022
1.034 1.244 -0.167 2 0 0 0 7.0409489
2.0450001 2.3329999 -0.162 132 0 0 0 7.0508428
2.0569999 2.4649999 -0.248 36 0 0 0 7.0557899
1.882 2.378 -0.31099999 31 0 0 0 7.0607371
2.5599999 2.911 -0.106 6 0 0 0 7.0656838
2.244 2.6819999 -0.184 51 0 0 0 7.070631
1.936 2.4330001 -0.241 31 0 0 0 7.0755782
1.799 2.388 -0.30500001 30 0 0 0 7.0805249
2.4119999 2.8699999 -0.107 6 0 0 0 7.0854721
2.0020001 2.51 -0.171 32 0 0 0 7.0904188
1.844 2.4319999 -0.237 32 0 0 0 7.095366
1.725 2.4070001 -0.30000001 65 0 0 0 7.1003132
2.257 2.813 -0.107 6 0 0 0 7.1052599
1.89 2.484 -0.168 33 0 0 0 7.1102071
1.783 2.471 -0.236 33 0 0 0 7.1151538
1.563 2.293 -0.28 91 0 0 0 7.120101
1.9529999 2.552 -0.098999999 38 0 0 0 7.1250482
1.804 2.487 -0.168 25 0 0 0 7.1299949
1.584 2.3069999 -0.21699999 56 0 0 0 7.1349421
1.483 2.2909999 -0.27399999 64 0 0 0 7.1398888
1.858 2.5450001 -0.101 31 0 0 0 7.1448359
1.745 2.529 -0.17 26 0 0 0 7.1497831
1.5039999 2.3039999 -0.214 83 0 0 0 7.1547298
1.404 2.2869999 -0.26699999 44 0 0 0 7.159677
1.7690001 2.5420001 -0.103 27 0 0 0 7.1646242
1.524 2.3199999 -0.155 71 0 0 0 7.1695709
1.431 2.3080001 -0.211 76 0 0 0 7.1745181
1.377 2.3670001 -0.271 31 0 0 0 7.1794648
1.75 2.642 -0.11 11 0 0 0 7.184412
1.503 2.408 -0.16 60 0 0 0 7.1893592
1.393 2.3699999 -0.214 49 0 0 0 7.1943059
1.345 2.444 -0.27399999 16 0 0 0 7.1992531
1.6109999 2.556 -0.109 43 0 0 0 7.2041998
1.465 2.474 -0.164 30 0 0 0 7.209147
1.357 2.438 -0.21699999 26 0 0 0 7.2140942
1.288 2.4790001 -0.273 0 0 0 0 7.2190409
1.53 2.5550001 -0.111 42 0 0 0 7.2239881
1.405 2.5009999 -0.16599999 5 0 0 0 7.2289348
1.306 2.4820001 -0.21799999 0 0 0 0 7.233882
1.196 2.4400001 -0.26300001 0 0 0 0 7.2388291
1.441 2.5369999 -0.112 4 0 0 0 7.2437758
1.329 2.5 -0.16599999 0 0 0 0 7.248723
1.22 2.4560001 -0.213 2 0 0 0 7.2536702
1.1109999 2.4100001 -0.255 1 0 0 0 7.2586169
1.341 2.4920001 -0.113 4 0 0 0 7.2635641
1.2410001 2.4719999 -0.164 2 0 0 0 7.2685108
1.14 2.437 -0.20900001 2 0 0 0 7.273458
1.031 2.3840001 -0.248 0 0 0 0 7.2784052
1.249 2.4519999 -0.113 5 0 0 0 7.2833519
1.153 2.4349999 -0.161 3 0 0 0 7.2882991
1.052 2.3929999 -0.20299999 2 0 0 0 7.2932458
0.95099998 2.3510001 -0.23999999 0 0 0 0 7.298193
1.169 2.4349999 -0.115 5 0 0 0 7.1862059
1.067 2.395 -0.15899999 4 0 0 0 7.191153
0.97799999 2.3759999 -0.2 2 0 0 0 7.1961002
0.88099998 2.3340001 -0.235 0 0 0 0 7.2010469
1.082 2.392 -0.115 4 0 0 0 7.2059941
0.986 2.362 -0.15700001 8 0 0 0 7.2109408
0.89899999 2.3399999 -0.19499999 4 0 0 0 7.215888
0.80599999 2.302 -0.228 0 0 0 0 7.2208352
2.447 5.763 -0.28400001 76 0 0 0 7.2257819
0.912 2.335 -0.155 6 0 0 0 7.2307291
0.82300001 2.3010001 -0.19 6 0 0 0 7.2356758
0.736 2.2709999 -0.221 3 0 0 0 7.240623
2.2709999 5.7069998 -0.287 100 0 0 0 7.2455702
0.84299999 2.3150001 -0.154 3 0 0 0 7.2505169
0.755 2.28 -0.18700001 9 0 0 0 7.2554641
0.67000002 2.2490001 -0.215 6 0 0 0 7.2604108
2.0940001 5.6350002 -0.289 48 0 0 0 7.265358
1.874 5.5469999 -0.37099999 48 0 0 0 7.2703052
0.69199997 2.263 -0.184 4 0 0 0 7.2752519
0.60900003 2.2349999 -0.211 7 0 0 0 7.2801991
1.924 5.572 -0.292 52 0 0 0 7.2851462
1.72 5.507 -0.36899999 49 0 0 0 7.2900929
1.527 5.447 -0.44 39 0 0 0 7.2950401
0.54400003 2.2 -0.204 3 0 0 0 7.2999868
1.768 5.526 -0.296 57 0 0 0 7.304934
1.567 5.4619999 -0.368 45 0 0 0 7.3098812
1.377 5.3940001 -0.433 58 0 0 0 7.3148279
1.189 5.3429999 -0.48899999 69 0 0 0 7.3197751
1.614 5.4710002 -0.29899999 56 0 0 0 7.3247218
1.4170001 5.4099998 -0.366 48 0 0 0 7.329669
1.232 5.3509998 -0.42699999 94 0 0 0 7.3346162
1.0470001 5.296 -0.47799999 70 0 0 0 7.3395629
1.465 5.4359999 -0.303 54 0 0 0 7.3445101
1.274 5.381 -0.36500001 86 0 0 0 7.3494568
1.091 5.309 -0.421 93 0 0 0 7.354404
0.90600002 5.2360001 -0.46599999 66 0 0 0 7.3593512
1.319 5.388 -0.30700001 81 0 0 0 7.3642979
1.133 5.3340001 -0.36399999 85 0 0 0 7.3692451
0.95300001 5.263 -0.41499999 91 0 0 0 7.3741922
0.77399999 5.1950002 -0.456 79 0 0 0 7.3791389
1.176 5.3410001 -0.31 84 0 0 0 7.3840861
0.99299997 5.2810001 -0.36199999 79 0 0 0 7.3890328
0.81999999 5.224 -0.41 89 0 0 0 7.39398
0.64600003 5.1599998 -0.447 77 0 0 0 7.3989272
1.04 5.302 -0.31400001 93 0 0 0 7.4038739
0.86000001 5.2480001 -0.36199999 79 0 0 0 7.4088211
0.68900001 5.1750002 -0.40400001 89 0 0 0 7.4137678
0.51999998 5.1090002 -0.43700001 60 0 0 0 7.418715
0.90799999 5.2610002 -0.31799999 90 0 0 0 7.4236622
0.73000002 5.1939998 -0.361 79 0 0 0 7.4286089
0.56300002 5.131 -0.40000001 85 0 0 0 7.4335561
0.41800001 5.3730001 -0.454 0 0 0 0 7.4385028
0.77600002 5.2179999 -0.322 89 0 0 0 7.44345
0.60100001 5.1479998 -0.36000001 77 0 0 0 7.4483972
0.45100001 5.2340002 -0.40599999 19 0 0 0 7.4533439
0.28999999 5.3449998 -0.44600001 87 0 0 0 7.4582911
0.64499998 5.164 -0.32499999 61 0 0 0 7.4632378
0.47799999 5.1339998 -0.36199999 38 0 0 0 7.4681849
0.33500001 5.3670001 -0.41499999 95 0 0 0 7.4731321
0.164 5.3039999 -0.43799999 86 0 0 0 7.4780788
0.51999998 5.131 -0.33000001 14 0 0 0 7.483026
0.37599999 5.395 -0.38299999 61 0 0 0 7.4879732
0.20299999 5.3169999 -0.41 94 0 0 0 7.4929199
0.035999998 5.277 -0.43000001 91 0 0 0 7.4978671
0.41100001 5.3309999 -0.34999999 20 0 0 0 7.5028138
0.243 5.3309999 -0.38100001 81 0 0 0 7.507761
0.078000002 5.2870002 -0.40700001 94 0 0 0 7.5127082
-0.086999997 5.2350001 -0.42199999 90 0 0 0 7.5176549
0.28799999 5.3509998 -0.359 92 0 0 0 7.5226021
0.117 5.303 -0.38299999 86 0 0 0 7.5275488
-0.044 5.2449999 -0.403 89 0 0 0 7.532496
-0.213 5.3080001 -0.42300001 57 0 0 0 7.5374432
0.162 5.3169999 -0.36399999 92 0 0 0 7.5423899
-0.0060000001 5.2600002 -0.38299999 88 0 0 0 7.5473371
-0.167 5.2189999 -0.40099999 86 0 0 0 7.5522838
-0.32499999 5.1269999 -0.405 17 0 0 0 7.5572309
0.035999998 5.2800002 -0.36899999 90 0 0 0 7.5621781
-0.12800001 5.2210002 -0.384 81 0 0 0 7.5671248
-0.273 4.9310002 -0.37900001 46 0 0 0 7.572072
-0.442 5.072 -0.396 23 0 0 0 7.5770192
-0.085000001 5.2350001 -0.373 90 0 0 0 7.5819659
-0.25600001 5.3140001 -0.39399999 98 0 0 0 7.5869131
-0.41499999 5.2639999 -0.40400001 67 0 0 0 7.5918598
-0.56 5.0570002 -0.391 23 0 0 0 7.596807
-0.211 5.309 -0.38699999 61 0 0 0 7.6017542
-0.377 5.2659998 -0.39500001 37 0 0 0 7.6067009
-0.53100002 5.171 -0.39700001 41 0 0 0 7.6116481
-0.32499999 5.132 -0.382 15 0 0 0 7.621542
-0.47999999 5.0489998 -0.382 21 0 0 0 7.6264892
-0.44100001 5.0739999 -0.38499999 23 0 0 0 7.6413298
-0.60100001 5.0450001 -0.38600001 16 0 0 0 7.646277
-0.57099998 5.1529999 -0.40000001 37 0 0 0 7.9223809
