# .PCD v0.7 - Point Cloud Data file format
VERSION 0.7
FIELDS x y z intensity normal_x normal_y normal_z curvature
SIZE 4 4 4 4 4 4 4 4
TYPE F F F F F F F F
COUNT 1 1 1 1 1 1 1 1
WIDTH 956
HEIGHT 1
VIEWPOINT 0 0 0 1 0 0 0
POINTS 956
DATA ascii
2.6700318 5.6658921 3.296685 36 0 0 0 31.07712
2.8037112 4.7521367 -0.23423073 209 0 0 0 31.07712
1.8257722 3.8312511 3.1435523 304 0 0 0 31.07712
1.0462942 4.4418831 2.5821779 175 0 0 0 31.17952
1.2714258 5.0595651 0.10229497 288 0 0 0 31.17952
2.2604568 3.5092387 3.5584948 306 0 0 0 31.17952
1.54836 4.3260183 -0.29681054 307 0 0 0 31.17952
2.2566004 4.7707119 0.48718625 834 0 0 0 31.17952
1.8502984 3.8221524 3.145329 313 0 0 0 31.17952
1.6381441 4.6148653 2.2062542 23 0 0 0 31.17952
2.3746424 3.8079615 2.7633164 425 0 0 0 31.17952
2.2151582 4.6830406 0.73385179 921 0 0 0 31.17952
1.3475729 3.8745456 3.2925918 391 0 0 0 31.17952
2.8435726 4.752851 -0.2352639 246 0 0 0 31.17952
2.2283382 4.7045116 0.99788243 336 0 0 0 31.17952
1.4109726 3.9447036 -0.47413194 415 0 0 0 31.17952
1.9451468 4.1136966 -0.46156853 319 0 0 0 31.17952
2.7537384 5.769969 2.9664018 52 0 0 0 31.17952
1.806085 5.0454206 0.95910108 4 0 0 0 31.17952
2.6573231 4.4198585 1.0594482 756 0 0 0 31.17952
1.1419317 4.5459247 -0.13385187 344 0 0 0 31.17952
1.1809796 4.8366227 1.8973775 657 0 0 0 31.17952
2.036602 4.241518 2.7936909 189 0 0 0 31.17952
2.2950003 4.8563581 0.23399131 852 0 0 0 31.17952
0.96728909 4.1766162 2.7236509 438 0 0 0 31.17952
0.84149176 3.8955808 3.4953635 315 0 0 0 31.17952
2.3302407 3.8825812 -0.63325959 313 0 0 0 31.17952
1.9017421 5.3036432 0.1751608 221 0 0 0 31.17952
1.8025113 3.7083688 3.3949575 263 0 0 0 31.17952
2.4013746 6.7070861 0.91006333 40 0 0 0 31.17952
1.983972 5.6225619 3.43502 7 0 0 0 31.17952
2.5288653 4.1626229 1.7836684 619 0 0 0 31.17952
2.2926164 3.6023073 3.2739036 302 0 0 0 31.17952
2.336334 3.7114038 3.0185788 323 0 0 0 31.17952
2.4877002 4.0737233 2.0229516 626 0 0 0 31.17952
1.0432333 4.1606002 -0.32992017 385 0 0 0 31.17952
2.611047 4.3306794 1.3016475 765 0 0 0 31.17952
1.3390018 5.3354998 0.64721048 19 0 0 0 31.17952
1.3537054 5.3859282 0.38091588 286 0 0 0 31.17952
1.2139086 4.9298177 1.6503311 394 0 0 0 31.17952
2.8118181 4.6996875 0.3045736 816 0 0 0 31.17952
3.0295873 5.0642748 0.037205089 224 0 0 0 31.17952
2.195689 4.6187549 1.787607 99 0 0 0 31.17952
1.7214689 4.8065705 -0.086146593 255 0 0 0 31.17952
0.79019552 3.7777202 3.7575793 293 0 0 0 31.17952
1.3806921 3.9473109 3.0187328 517 0 0 0 31.17952
2.2240577 3.4036853 3.8459795 248 0 0 0 31.17952
1.14496 4.7363544 2.1407142 1302 0 0 0 31.17952
1.7428099 4.87958 1.4621272 28 0 0 0 31.17952
2.4182909 3.9071276 2.5173981 468 0 0 0 31.17952
2.1516612 4.5528474 -0.26837254 214 0 0 0 31.17952
2.2671995 6.3255725 0.53113651 20 0 0 0 31.17952
2.7053289 4.5088115 0.81419337 710 0 0 0 31.17952
2.4533637 3.9936666 2.2690098 567 0 0 0 31.17952
2.1839266 4.583612 2.0615575 6 0 0 0 31.17952
2.5589058 4.271152 -0.4519197 247 0 0 0 31.17952
1.6784161 4.7150946 1.9621595 118 0 0 0 31.17952
2.5685463 4.2448602 1.541469 737 0 0 0 31.17952
1.70622 4.7851653 1.7070972 664 0 0 0 31.17952
1.2564558 3.6604695 3.8290038 299 0 0 0 31.17952
1.3030295 3.7700822 3.5542798 328 0 0 0 31.17952
2.2429428 4.7267833 1.543861 374 0 0 0 31.17952
1.5145907 4.3102489 2.9547694 242 0 0 0 31.17952
3.832896 10.71478 2.5822754 34 0 0 0 31.17952
1.2552729 5.0590906 1.4142292 13 0 0 0 31.17952
1.1085325 4.6394992 2.3878615 629 0 0 0 31.17952
0.92606807 4.0772552 2.9653268 409 0 0 0 31.17952
2.7066598 5.6534004 3.2989998 38 0 0 0 31.17952
2.2810545 4.8115153 1.2916512 344 0 0 0 31.17952
2.749079 4.5909891 0.56189972 787 0 0 0 31.17952
1.5964164 4.509963 2.4502161 11 0 0 0 31.17952
1.7667918 3.6153805 3.677913 276 0 0 0 31.17952
1.8829377 3.9071369 2.8826942 453 0 0 0 31.17952
0.88365233 3.9816113 3.2201967 350 0 0 0 31.17952
1.7774351 3.755322 -0.62497294 520 0 0 0 31.17952
1.7258973 3.5065539 3.96451 234 0 0 0 31.17952
2.3412681 4.9520764 -0.028504301 551 0 0 0 31.17952
2.1827266 3.2856624 4.1480427 206 0 0 0 31.17952
0.86340314 3.8815143 3.4874814 247 0 0 0 31.274496
1.7348999 4.7728214 1.7064695 593 0 0 0 31.274496
2.8861351 4.7575259 -0.23654306 202 0 0 0 31.274496
2.7401319 4.503963 0.81625301 722 0 0 0 31.274496
2.3622351 3.8817365 -0.6356135 367 0 0 0 31.274496
1.3894765 5.3881493 0.38160083 307 0 0 0 31.274496
2.0659869 4.2359142 2.7982559 183 0 0 0 31.274496
0.8138175 3.7749076 3.7596653 305 0 0 0 31.274496
1.6261802 4.5059547 2.4533808 10 0 0 0 31.274496
1.1378367 4.6360903 2.389637 738 0 0 0 31.274496
1.2826675 3.6634586 3.8402205 311 0 0 0 31.274496
2.2869437 3.5029767 3.5662501 339 0 0 0 31.274496
2.3256197 4.8439865 0.23406529 789 0 0 0 31.274496
1.0992832 4.5413351 2.6432936 386 0 0 0 31.274496
2.5955429 4.2306514 1.5420524 715 0 0 0 31.274496
1.3238945 3.7556608 3.548315 298 0 0 0 31.274496
1.7511556 3.5034592 3.9730294 212 0 0 0 31.274496
2.3964052 6.5660486 1.241367 47 0 0 0 31.274496
1.5813751 4.3342361 -0.29819214 306 0 0 0 31.274496
2.2869024 4.7483282 1.2787399 284 0 0 0 31.274496
1.7902576 3.6071248 3.6806018 271 0 0 0 31.274496
1.2858127 5.0494204 1.4137155 12 0 0 0 31.274496
2.24857 4.6791868 0.73532754 877 0 0 0 31.274496
2.2063134 3.2773733 4.1545463 183 0 0 0 31.274496
2.7443972 5.6430635 3.3027036 33 0 0 0 31.274496
2.5558369 4.1494317 1.7846861 629 0 0 0 31.274496
2.6436322 4.3245111 1.304575 741 0 0 0 31.274496
2.8540549 4.7045584 0.30585274 548 0 0 0 31.274496
2.6945889 4.4202251 1.0633603 656 0 0 0 31.274496
2.2305634 4.6188207 1.7928134 448 0 0 0 31.274496
2.2461052 3.3917987 3.8480341 254 0 0 0 31.274496
2.442219 3.8922155 2.5173981 481 0 0 0 31.274496
2.4792507 3.9808362 2.2703052 571 0 0 0 31.274496
1.4409357 3.9518225 -0.47620079 478 0 0 0 31.274496
2.2727373 4.7146626 1.5444173 360 0 0 0 31.274496
2.1838741 4.5485582 -0.26897955 167 0 0 0 31.274496
2.208163 4.5888524 0.97688591 711 0 0 0 31.274496
1.2106344 4.8292856 1.8973775 1245 0 0 0 31.274496
2.1615937 4.4578996 2.3045003 6 0 0 0 31.274496
0.90718573 3.9722788 3.2171123 328 0 0 0 31.274496
2.5141041 4.0607371 2.0241094 638 0 0 0 31.274496
1.6676741 4.6081629 2.2078812 19 0 0 0 31.274496
1.9763734 4.1142297 -0.46309996 324 0 0 0 31.274496
0.95069438 4.0699039 2.9641759 398 0 0 0 31.274496
1.7079526 4.706461 1.9628808 107 0 0 0 31.274496
1.7574478 4.8137579 -0.086604178 248 0 0 0 31.274496
1.3054515 5.0632854 0.10244785 268 0 0 0 31.274496
1.9035746 3.8887596 2.8777413 466 0 0 0 31.274496
2.5974488 4.2757936 -0.45427421 232 0 0 0 31.274496
2.3617237 3.7011783 3.0219624 331 0 0 0 31.274496
1.0699884 4.1589441 -0.33034813 365 0 0 0 31.274496
1.174558 4.5572147 -0.13454479 323 0 0 0 31.274496
2.4424832 6.6922255 0.91006333 39 0 0 0 31.274496
1.1726694 4.7238994 2.1383255 253 0 0 0 31.274496
2.2120099 4.5701251 2.0615575 7 0 0 0 31.274496
0.99152023 4.1648417 2.7199209 460 0 0 0 31.274496
1.3734151 3.8720999 3.2975774 341 0 0 0 31.274496
3.0756273 5.0703955 0.037210152 155 0 0 0 31.274496
3.8242381 10.498707 3.1193655 23 0 0 0 31.274496
1.8754921 3.8143432 3.1482906 354 0 0 0 31.274496
2.2884183 4.7621651 0.48769981 867 0 0 0 31.274496
2.3988736 3.7947631 2.7643583 426 0 0 0 31.274496
1.8081408 3.7603657 -0.62781978 449 0 0 0 31.274496
1.2431978 4.9185834 1.6491137 339 0 0 0 31.274496
1.5464087 4.3159275 2.9650283 239 0 0 0 31.274496
3.9032502 10.703893 2.5853388 16 0 0 0 31.274496
2.375071 4.944829 -0.028599244 565 0 0 0 31.274496
1.7313297 6.7195601 0.80775303 15 0 0 0 31.274496
1.8248891 3.6965446 3.3943245 281 0 0 0 31.274496
1.4084407 3.9487183 3.0263023 432 0 0 0 31.274496
1.937683 5.3012633 0.17540862 284 0 0 0 31.274496
2.7854505 4.5876513 0.56347215 771 0 0 0 31.274496
2.3176906 3.5928559 3.2781434 300 0 0 0 31.274496
1.9314853 3.8852317 2.883795 441 0 0 0 31.373568
3.0610931 4.9771905 0.32262942 102 0 0 0 31.373568
2.6747091 4.3156309 1.3067706 754 0 0 0 31.373568
0.93172294 3.9674037 3.2177293 322 0 0 0 31.373568
1.5728616 4.3063579 2.9650283 231 0 0 0 31.373568
1.7726195 3.4926484 3.9730294 242 0 0 0 31.373568
1.0947219 4.1494112 -0.33009136 391 0 0 0 31.373568
1.3469139 3.7474668 3.548315 282 0 0 0 31.373568
1.3128517 5.0264773 1.4096068 27 0 0 0 31.373568
2.3884189 3.6928623 3.0270381 356 0 0 0 31.373568
2.8198001 4.5806479 0.56465149 783 0 0 0 31.373568
1.8143542 3.6000397 3.6846354 292 0 0 0 31.373568
3.8889203 10.475948 3.119632 23 0 0 0 31.373568
2.2357121 3.2774916 4.1718888 208 0 0 0 31.373568
1.7416556 4.709013 1.9682906 83 0 0 0 31.373568
2.2694111 4.6389208 1.2536089 287 0 0 0 31.373568
2.7836788 5.6356559 3.3082595 46 0 0 0 31.373568
1.8981417 3.8013215 3.1471059 335 0 0 0 31.373568
1.839841 3.766948 -0.63098294 402 0 0 0 31.373568
1.2759925 4.9210033 1.6524616 399 0 0 0 31.373568
1.3077629 3.6629059 3.8479319 272 0 0 0 31.373568
2.406682 4.9328594 -0.028634848 510 0 0 0 31.373568
1.7966977 6.8000774 0.81829315 21 0 0 0 31.373568
0.83602434 3.7656345 3.7554934 264 0 0 0 31.373568
2.3414311 3.581233 3.2805665 264 0 0 0 31.373568
1.4204646 5.3718047 0.38110271 281 0 0 0 31.373568
1.1671406 4.6324964 2.3914123 755 0 0 0 31.373568
2.3728547 6.3729711 0.5371111 14 0 0 0 31.373568
1.4320868 3.9384739 3.0251377 401 0 0 0 31.373568
2.7754955 4.4996986 0.81845981 806 0 0 0 31.373568
2.5404422 4.0475798 2.0252671 595 0 0 0 31.373568
3.1218562 5.0761409 0.037215214 191 0 0 0 31.373568
1.3498287 5.1491742 1.1648637 9 0 0 0 31.373568
1.7641526 4.7620864 1.7064695 829 0 0 0 31.373568
0.97660798 4.0679693 2.9670529 375 0 0 0 31.373568
2.2419162 4.5969839 -0.27316785 62 0 0 0 31.373568
1.7907888 4.8131895 -0.086869091 241 0 0 0 31.373568
2.6319752 4.2733397 -0.45584387 225 0 0 0 31.373568
2.5084381 3.9731803 2.2746229 563 0 0 0 31.373568
2.6305339 4.2292733 1.547303 754 0 0 0 31.373568
2.4721785 3.8868048 2.5235972 467 0 0 0 31.373568
1.5684152 6.1510482 2.7808731 205 0 0 0 31.373568
2.24001 4.5564666 2.0615575 10 0 0 0 31.373568
2.2652535 3.375531 3.8452945 241 0 0 0 31.373568
2.2651048 4.6177831 1.7976944 375 0 0 0 31.373568
1.396083 3.8606584 3.2950847 395 0 0 0 31.373568
1.6971834 4.6012712 2.2095082 18 0 0 0 31.373568
1.9792529 5.3136292 0.17605293 312 0 0 0 31.373568
2.437336 6.5530682 1.2417082 57 0 0 0 31.373568
1.3434154 5.0812755 0.10279185 256 0 0 0 31.373568
1.6166363 4.3478193 -0.30001003 330 0 0 0 31.373568
2.4814229 6.6715317 0.90933001 66 0 0 0 31.373568
2.0620911 5.6230536 3.450412 10 0 0 0 31.373568
1.8485763 3.6873543 3.3962233 288 0 0 0 31.373568
1.2402436 4.8217664 1.8973775 1025 0 0 0 31.373568
2.1788771 4.4241738 2.2940538 6 0 0 0 31.373568
2.3219633 4.7569885 0.4885557 882 0 0 0 31.373568
2.2828865 4.6768804 0.73707163 769 0 0 0 31.373568
1.4755375 3.9708157 -0.47985166 441 0 0 0 31.373568
1.0233151 4.184154 2.7364399 313 0 0 0 31.373568
2.3579249 4.8350153 0.23428725 831 0 0 0 31.373568
2.0059369 4.11096 -0.46419382 315 0 0 0 31.373568
1.2091589 4.5750365 -0.135493 357 0 0 0 31.373568
2.3054228 4.7083936 1.5469207 384 0 0 0 31.373568
2.7257795 4.4102855 1.0649251 737 0 0 0 31.373568
2.2410247 4.5849347 0.97889423 824 0 0 0 31.373568
2.9225895 4.7516427 -0.23723184 197 0 0 0 31.373568
2.5792592 4.1304779 1.7833291 610 0 0 0 31.373568
2.3146996 3.4984322 3.5759439 288 0 0 0 31.373568
2.3766735 3.8520086 -0.63296539 191 0 0 0 31.373568
0.88517368 3.8673258 3.4795992 290 0 0 0 31.373568
1.1248041 4.5251946 2.6379154 388 0 0 0 31.373568
2.4267104 3.7871637 2.7695684 466 0 0 0 31.373568
2.0995848 4.238605 2.8084006 174 0 0 0 31.373568
1.855325 4.9945445 1.2251258 39 0 0 0 31.373568
2.2967675 4.6105695 1.8002977 369 0 0 0 31.471359
2.8170145 5.6160922 3.3068705 46 0 0 0 31.471359
1.5058537 3.9774659 -0.48192051 433 0 0 0 31.471359
1.6819793 4.48733 2.4542851 11 0 0 0 31.471359
1.385216 5.1549597 1.1679901 25 0 0 0 31.471359
2.0377402 4.1119356 -0.46583462 303 0 0 0 31.471359
1.327283 3.6467724 3.8395193 293 0 0 0 31.471359
2.2838073 4.6108727 -0.27504954 68 0 0 0 31.471359
2.4577935 3.7843795 2.7784257 444 0 0 0 31.471359
2.2620566 3.2728186 4.1834502 188 0 0 0 31.471359
2.7559094 4.3984656 1.0660987 703 0 0 0 31.471359
1.0003701 4.057137 2.9636004 442 0 0 0 31.471359
1.8738823 3.7777057 -0.63493687 400 0 0 0 31.471359
1.3066541 4.9149218 1.6530704 347 0 0 0 31.471359
1.9210664 3.7888844 3.1465137 307 0 0 0 31.471359
1.7962728 3.4860892 3.977999 214 0 0 0 31.471359
2.0143039 5.3079267 0.17622639 318 0 0 0 31.471359
2.3141789 4.6537309 1.5338475 276 0 0 0 31.471359
1.4513046 5.3552828 0.38060457 188 0 0 0 31.471359
2.3637998 3.5674627 3.281172 261 0 0 0 31.471359
1.189692 4.6026959 2.3798721 302 0 0 0 31.471359
2.6615295 4.2211485 1.55022 757 0 0 0 31.471359
0.90940744 3.864023 3.4815698 281 0 0 0 31.471359
1.2733988 4.8276401 1.9026526 890 0 0 0 31.471359
0.85943609 3.7618349 3.7568841 273 0 0 0 31.471359
1.8480201 6.8244128 0.82239825 32 0 0 0 31.471359
2.1893303 4.3774018 2.276921 6 0 0 0 31.471359
2.1294231 4.2333426 2.813473 168 0 0 0 31.471359
1.8760797 3.6856031 3.4050851 268 0 0 0 31.471359
2.438679 4.9215837 -0.028682319 499 0 0 0 31.471359
1.4618816 3.9448574 3.036783 435 0 0 0 31.471359
2.5696807 4.0389247 2.0287402 589 0 0 0 31.471359
2.8082907 4.4909744 0.81993097 798 0 0 0 31.471359
1.3439195 5.0192609 1.4098636 46 0 0 0 31.471359
2.3399401 3.4898725 3.5817602 342 0 0 0 31.471359
2.6130965 4.1280937 1.789096 624 0 0 0 31.471359
2.2726107 4.5781441 0.98035491 848 0 0 0 31.471359
4.0264287 6.4599462 0.40975982 16 0 0 0 31.471359
2.7119596 4.316391 1.3118936 780 0 0 0 31.471359
2.104156 5.6306205 3.4628251 17 0 0 0 31.471359
1.6475266 4.349009 -0.30088264 315 0 0 0 31.471359
2.4132929 3.6815934 3.0298579 311 0 0 0 31.471359
1.3771906 5.0825863 0.10291925 234 0 0 0 31.471359
1.7754539 4.711328 1.9737003 56 0 0 0 31.471359
3.9541495 10.454593 3.1204317 13 0 0 0 31.471359
0.95456469 3.955493 3.2127941 387 0 0 0 31.471359
2.3550887 4.7506866 0.48932603 840 0 0 0 31.471359
1.8185153 4.7974372 -0.086748675 273 0 0 0 31.471359
1.885936 4.9830661 1.2251258 36 0 0 0 31.471359
1.8374203 3.5908167 3.6866519 242 0 0 0 31.471359
1.7990432 4.7662716 1.7118045 160 0 0 0 31.471359
1.9579202 3.8785257 2.8876474 434 0 0 0 31.471359
1.724741 4.5890608 2.2086947 22 0 0 0 31.471359
1.1531984 4.5207429 2.6393821 441 0 0 0 31.471359
2.2316248 4.4915624 1.2183334 469 0 0 0 31.471359
2.849432 4.5657935 0.56494635 772 0 0 0 31.471359
2.4778483 6.5389109 1.2418787 72 0 0 0 31.471359
1.5980798 4.2934709 2.9628685 240 0 0 0 31.471359
1.373751 3.7496772 3.5582561 350 0 0 0 31.471359
1.1266859 4.1666546 -0.33223113 400 0 0 0 31.471359
2.9680541 4.7599058 -0.23875698 198 0 0 0 31.471359
2.677623 4.2883582 -0.4594737 270 0 0 0 31.471359
1.2411394 4.5819964 -0.13604003 330 0 0 0 31.471359
2.5361683 3.9630351 2.2776453 607 0 0 0 31.471359
2.5012121 3.879694 2.5288427 474 0 0 0 31.471359
1.1083579 4.41328 2.8893754 230 0 0 0 31.471359
1.2396259 4.7437592 2.1538517 65 0 0 0 31.471359
2.3915374 4.828517 0.23462018 802 0 0 0 31.471359
2.2546656 4.5160575 2.0496531 265 0 0 0 31.471359
2.3115404 4.6627846 0.73707163 817 0 0 0 31.471359
3.1687994 5.0823579 0.037220448 208 0 0 0 31.471359
2.2883766 3.3651862 3.8494041 239 0 0 0 31.471359
1.4173086 3.8454161 3.2894759 399 0 0 0 31.471359
2.5643585 3.9534564 2.2810996 614 0 0 0 31.567616
2.3868806 4.741487 0.48983958 778 0 0 0 31.567616
2.5999067 4.0316148 2.0329852 559 0 0 0 31.567616
2.2994173 4.5536895 1.5060321 308 0 0 0 31.567616
2.7420356 4.3053985 1.3136013 694 0 0 0 31.567616
1.3390472 4.9150815 1.6558098 396 0 0 0 31.567616
1.905017 3.7820127 -0.63778371 440 0 0 0 31.567616
1.8195859 3.4787471 3.9822586 224 0 0 0 31.567616
2.9921796 4.7299643 0.58617431 241 0 0 0 31.567616
1.7525396 4.5775385 2.208288 11 0 0 0 31.567616
2.6485231 4.1278257 1.7958807 617 0 0 0 31.567616
2.2844305 4.506278 2.0515132 339 0 0 0 31.567616
1.3022615 4.8170252 1.9015976 836 0 0 0 31.567616
1.8898591 6.8129449 0.82239825 40 0 0 0 31.567616
2.7901981 4.3930683 1.0688372 735 0 0 0 31.567616
3.9488013 10.266056 3.6634932 25 0 0 0 31.567616
2.0211544 5.2318015 0.44896743 22 0 0 0 31.567616
2.3245876 4.5955462 1.7999723 419 0 0 0 31.567616
1.2696623 4.7396069 2.1554441 77 0 0 0 31.567616
1.8026562 4.695992 1.9718971 20 0 0 0 31.567616
2.8368518 4.4753304 0.82022524 799 0 0 0 31.567616
2.6889234 4.2071571 1.5510951 730 0 0 0 31.567616
2.3414433 4.6511693 0.73747408 786 0 0 0 31.567616
1.5998479 6.0311112 3.1157811 99 0 0 0 31.567616
4.0766516 6.4520116 0.41074377 21 0 0 0 31.567616
2.850215 5.5963321 3.3054817 28 0 0 0 31.567616
0.88316333 3.7592883 3.7596653 272 0 0 0 31.567616
1.870978 4.84587 -0.088290006 204 0 0 0 31.567616
2.15575 4.2209649 2.8139803 193 0 0 0 31.567616
2.2824914 3.259444 4.1841731 175 0 0 0 31.567616
1.4121052 5.0875263 0.10309762 246 0 0 0 31.567616
3.022258 4.7813029 -0.2410693 202 0 0 0 31.567616
1.1358403 4.4080348 2.8904412 285 0 0 0 31.567616
1.1802505 4.5110507 2.6379154 416 0 0 0 31.567616
2.5259306 3.8657465 2.5297964 457 0 0 0 31.567616
1.0256485 4.0525079 2.9647512 430 0 0 0 31.567616
2.0790086 4.1313243 -0.46977258 306 0 0 0 31.567616
1.9115591 4.9586554 1.2220622 95 0 0 0 31.567616
0.93452471 3.8642316 3.4868245 271 0 0 0 31.567616
0.97900736 3.9503253 3.2134109 384 0 0 0 31.567616
1.6799296 4.353704 -0.30204609 311 0 0 0 31.567616
1.1567674 4.1759815 -0.33368617 361 0 0 0 31.567616
2.2565143 4.4725714 1.2169501 791 0 0 0 31.567616
2.3131082 3.3570864 3.8562534 218 0 0 0 31.567616
2.3228147 4.6181769 -0.27650636 56 0 0 0 31.567616
1.4886464 3.9426575 3.0420234 405 0 0 0 31.567616
2.5193436 6.5272608 1.2425609 56 0 0 0 31.567616
1.377769 5.0221019 1.4129452 56 0 0 0 31.567616
2.473773 4.9163542 -0.028812867 477 0 0 0 31.567616
2.051523 5.3075881 0.17654854 306 0 0 0 31.567616
2.4865906 3.7777889 2.7846777 368 0 0 0 31.567616
1.4123948 5.1303363 1.1644469 42 0 0 0 31.567616
3.2020593 5.0662012 0.037221145 185 0 0 0 31.567616
2.3651626 3.4811347 3.5875764 286 0 0 0 31.567616
2.3971581 3.5700796 3.2969205 253 0 0 0 31.567616
1.9854872 3.8738708 2.8931508 445 0 0 0 31.567616
1.899369 3.6753983 3.4063511 288 0 0 0 31.567616
1.8601006 3.5807893 3.6879966 298 0 0 0 31.567616
1.6237966 4.2820106 2.9617887 193 0 0 0 31.567616
1.4827983 5.3414693 0.38029322 164 0 0 0 31.567616
1.5338048 3.977411 -0.48313746 380 0 0 0 31.567616
1.7126657 4.4852571 2.4588063 12 0 0 0 31.567616
1.9428045 3.7741597 3.1441445 297 0 0 0 31.567616
2.7193012 4.2962461 -0.46231872 248 0 0 0 31.567616
4.0206494 10.43643 3.1222975 17 0 0 0 31.567616
2.440856 3.674288 3.0360615 329 0 0 0 31.567616
1.2761989 4.5993257 -0.13698824 349 0 0 0 31.567616
1.4397759 3.8337193 3.286983 338 0 0 0 31.567616
2.4242613 4.8200021 0.23487912 831 0 0 0 31.567616
2.1426828 5.6281486 3.46928 19 0 0 0 31.567616
1.3466547 3.6305377 3.8311069 273 0 0 0 31.567616
1.3938485 3.7334616 3.550966 277 0 0 0 31.567616
2.303755 4.57026 0.98163295 836 0 0 0 31.567616
2.5107131 4.9144411 -0.028990887 535 0 0 0 31.667456
2.4191015 4.7329631 0.4904387 830 0 0 0 31.667456
2.5153992 3.7709868 2.7909298 392 0 0 0 31.667456
2.3838861 3.4627821 3.583699 275 0 0 0 31.667456
1.5621749 3.9780865 -0.48447612 460 0 0 0 31.667456
2.3560987 4.6136174 -0.27717406 63 0 0 0 31.667456
1.7117219 4.3563085 -0.30306411 320 0 0 0 31.667456
2.2839546 4.4548626 1.478495 368 0 0 0 31.667456
2.3436749 4.56353 1.7931389 296 0 0 0 31.667456
2.2337189 3.4681242 -0.78274357 177 0 0 0 31.667456
1.9349269 3.7834415 -0.64015609 376 0 0 0 31.667456
1.9704003 3.7707386 3.151252 315 0 0 0 31.667456
1.9408772 6.8337202 0.8261705 55 0 0 0 31.667456
2.1824017 4.2091885 2.8149948 147 0 0 0 31.667456
1.8861773 3.5771687 3.6960633 282 0 0 0 31.667456
2.4647362 3.6612988 3.0377533 347 0 0 0 31.667456
2.0123005 3.8675418 2.8975534 409 0 0 0 31.667456
3.2271569 5.0371923 0.037219226 213 0 0 0 31.667456
4.2091107 6.5670991 0.80376107 19 0 0 0 31.667456
2.4472995 6.2395997 1.8827677 13 0 0 0 31.667456
2.7574193 4.2979164 -0.464477 63 0 0 0 31.667456
1.6445764 4.2578354 2.9520695 186 0 0 0 31.667456
1.2989637 4.7326117 2.1558423 50 0 0 0 31.667456
2.6825082 4.1249108 1.8016475 639 0 0 0 31.667456
1.7792654 4.5632949 2.206661 15 0 0 0 31.667456
2.086982 5.3023415 0.1767468 298 0 0 0 31.667456
1.4196619 3.7325368 3.5582561 306 0 0 0 31.667456
1.4485023 5.0970368 0.10333969 220 0 0 0 31.667456
1.1633 4.4026184 2.8915069 295 0 0 0 31.667456
1.0537974 4.0588002 2.9739583 310 0 0 0 31.667456
2.6341722 4.0302668 2.0403175 578 0 0 0 31.667456
2.270345 4.4035091 2.3045003 87 0 0 0 31.667456
2.1142628 4.1379662 -0.47217909 318 0 0 0 31.667456
1.3689235 4.9058557 1.6555053 336 0 0 0 31.667456
2.3357451 3.3458202 3.859678 247 0 0 0 31.667456
1.5116416 3.9304144 3.0396943 430 0 0 0 31.667456
2.7715533 4.2933836 1.315065 693 0 0 0 31.667456
2.3145847 4.497129 2.0537453 291 0 0 0 31.667456
4.0124111 10.243402 3.6641207 16 0 0 0 31.667456
1.8399071 3.4656503 3.9801288 215 0 0 0 31.667456
2.5979326 6.609797 1.2608101 8 0 0 0 31.667456
1.4061987 5.0051813 1.410634 34 0 0 0 31.667456
1.184551 4.1764712 -0.33437088 344 0 0 0 31.667456
2.2887921 4.4681692 1.2194862 833 0 0 0 31.667456
1.002643 3.9419563 3.2115602 334 0 0 0 31.667456
4.1269283 6.4437037 0.41172776 18 0 0 0 31.667456
1.3087783 4.6067853 -0.13757174 334 0 0 0 31.667456
2.4217 3.5592537 3.3005548 348 0 0 0 31.667456
2.0437202 5.1951747 0.44704965 308 0 0 0 31.667456
1.8331355 4.6891856 1.9737003 29 0 0 0 31.667456
2.5515413 3.8531082 2.5317037 458 0 0 0 31.667456
1.4677478 3.836498 3.2969542 325 0 0 0 31.667456
2.5113885 6.3963099 1.5713061 59 0 0 0 31.667456
0.90485656 3.7482111 3.7541029 262 0 0 0 31.667456
2.2992542 3.2408631 4.1783919 204 0 0 0 31.667456
0.95620853 3.8503776 3.4795992 288 0 0 0 31.667456
2.333545 4.5595398 0.98236328 852 0 0 0 31.667456
2.8865342 5.582675 3.3077965 20 0 0 0 31.667456
2.5945055 3.9466975 2.2862809 596 0 0 0 31.667456
2.4583333 4.8139372 0.23524906 768 0 0 0 31.667456
1.4427829 5.1178088 1.1636132 31 0 0 0 31.667456
1.636117 6.0185876 3.1144495 28 0 0 0 31.667456
2.2000988 5.6739697 3.5055258 54 0 0 0 31.667456
1.9109254 4.8603468 -0.088964336 222 0 0 0 31.667456
1.5191014 5.3447485 0.38110271 295 0 0 0 31.667456
1.2079077 4.5037241 2.6379154 395 0 0 0 31.667456
1.3305407 4.8044343 1.8998392 752 0 0 0 31.667456
1.3714298 3.6288762 3.8381174 279 0 0 0 31.667456
3.0676858 4.7879095 -0.24254526 202 0 0 0 31.667456
2.820282 4.3808155 1.0700108 657 0 0 0 31.667456
2.8647926 4.458672 0.82037234 748 0 0 0 31.667456
2.3753476 4.647305 0.73908401 788 0 0 0 31.667456
2.7224779 4.2026272 1.5554707 718 0 0 0 31.667456
1.9226038 3.6650462 3.4076169 333 0 0 0 31.667456
2.4360445 8.4052591 1.4475802 7 0 0 0 31.762688
2.4129336 3.4593651 3.5953314 307 0 0 0 31.762688
1.4929657 3.8317914 3.3006935 331 0 0 0 31.762688
2.4461989 3.5482609 3.304189 304 0 0 0 31.762688
2.4852965 3.6433756 3.0354974 376 0 0 0 31.762688
1.32748 4.7227864 2.1550462 65 0 0 0 31.762688
1.3594828 4.7943788 1.8991358 437 0 0 0 31.762688
1.3370203 4.5986681 -0.13757174 300 0 0 0 31.762688
0.97775763 3.8364029 3.472374 305 0 0 0 31.762688
2.5069952 6.2781668 1.8987616 61 0 0 0 31.762688
1.9461466 3.6552308 3.4095159 293 0 0 0 31.762688
2.7144887 4.1185904 1.8060576 619 0 0 0 31.762688
3.2792215 5.0500193 0.037226032 145 0 0 0 31.762688
4.0776505 10.224762 3.6663175 23 0 0 0 31.762688
1.981104 6.8159575 0.82550484 44 0 0 0 31.762688
3.1225452 4.8083839 -0.24485759 188 0 0 0 31.762688
2.3191831 3.5529537 -0.80625713 419 0 0 0 31.762688
1.4722549 5.1022835 1.1621542 32 0 0 0 31.762688
1.9621975 3.779386 -0.64157951 430 0 0 0 31.762688
1.9455446 4.8605943 -0.089277416 217 0 0 0 31.762688
1.9972726 3.765697 3.1571751 340 0 0 0 31.762688
1.7421265 4.3549829 -0.30379128 305 0 0 0 31.762688
2.4079237 4.6405602 0.74029148 813 0 0 0 31.762688
2.5417407 4.9007187 -0.029014623 528 0 0 0 31.762688
2.3442831 4.4869566 2.0556054 327 0 0 0 31.762688
2.0552771 5.1371479 0.71415138 9 0 0 0 31.762688
1.2132199 4.179647 -0.3353124 296 0 0 0 31.762688
2.3628371 4.5477533 0.98291099 832 0 0 0 31.762688
1.3989996 4.8973637 1.6555053 348 0 0 0 31.762688
1.0278094 3.9395366 3.2146447 359 0 0 0 31.762688
2.6629219 4.0201845 2.0434046 640 0 0 0 31.762688
1.5324652 3.9127393 3.0332894 468 0 0 0 31.762688
3.9959764 10.035339 4.2035871 29 0 0 0 31.762688
1.0875545 4.0854421 2.9981265 229 0 0 0 31.762688
2.5495012 6.3780618 1.5706496 70 0 0 0 31.762688
1.4425375 3.7237556 3.5582561 294 0 0 0 31.762688
2.803678 4.2852283 1.3177484 707 0 0 0 31.762688
2.9137352 5.5515146 3.2999258 25 0 0 0 31.762688
2.3019531 4.3983512 2.3090968 259 0 0 0 31.762688
2.1409855 4.127563 -0.47250727 362 0 0 0 31.762688
2.3629506 3.3409514 3.8706369 226 0 0 0 31.762688
2.3223181 3.231189 4.1841731 193 0 0 0 31.762688
2.1194773 5.2894363 0.1767468 320 0 0 0 31.762688
2.5394447 3.756897 2.7919719 406 0 0 0 31.762688
2.2788911 4.3785567 1.4581898 795 0 0 0 31.762688
2.4522247 4.7259908 0.49120903 827 0 0 0 31.762688
2.5824718 3.8483348 2.5388565 411 0 0 0 31.762688
2.3379908 4.4844923 1.7680829 275 0 0 0 31.762688
2.2081878 4.1957183 2.8149948 150 0 0 0 31.762688
0.92714262 3.739799 3.7513218 283 0 0 0 31.762688
4.1816034 6.4417248 0.41310531 21 0 0 0 31.762688
2.3861997 4.6026187 -0.27741686 60 0 0 0 31.762688
1.5965111 3.9933074 -0.48776191 374 0 0 0 31.762688
1.4398298 5.0066738 1.4134587 20 0 0 0 31.762688
2.3188574 4.4592223 1.2208695 806 0 0 0 31.762688
2.8508561 4.3691802 1.07138 675 0 0 0 31.762688
1.8611372 3.4542956 3.9801288 244 0 0 0 31.762688
2.4933414 4.8094101 0.23569296 839 0 0 0 31.762688
2.2345531 5.6595559 3.5050292 75 0 0 0 31.762688
2.9039574 4.4592538 0.82360899 621 0 0 0 31.762688
2.6241667 3.9389658 2.2910302 520 0 0 0 31.762688
1.2373748 4.502955 2.6418269 57 0 0 0 31.762688
4.2460761 6.53614 0.8031714 21 0 0 0 31.762688
1.2790304 4.5972795 2.3887494 17 0 0 0 31.762688
3.909452 9.8431683 4.7414436 37 0 0 0 31.762688
1.3959788 3.6263816 3.8444266 276 0 0 0 31.762688
1.4817096 5.0947723 0.10342887 192 0 0 0 31.762688
1.9126284 3.5740156 3.7048025 266 0 0 0 31.762688
1.1891822 4.3913145 2.8888426 303 0 0 0 31.762688
1.5521469 5.3362851 0.38116497 292 0 0 0 31.762688
2.0788975 5.1908679 0.44771349 364 0 0 0 31.762688
2.7576511 4.2002435 1.5607214 731 0 0 0 31.762688
1.6765295 4.2625446 2.9623284 207 0 0 0 31.762688
1.1034236 3.8151712 -0.49988285 451 0 0 0 31.762688
2.0398898 3.8625062 2.9030569 386 0 0 0 31.762688
1.3920147 4.7967329 1.903356 279 0 0 0 31.862272
2.4354334 3.4463658 3.5972703 311 0 0 0 31.862272
2.3920724 4.535779 0.98345876 800 0 0 0 31.862272
2.0277541 4.9796419 0.96217102 6 0 0 0 31.862272
4.1399546 10.198669 3.6660037 16 0 0 0 31.862272
1.308446 4.5936532 2.3909686 19 0 0 0 31.862272
2.3461752 4.44491 1.2208695 789 0 0 0 31.862272
1.2431102 4.1864467 -0.33659625 285 0 0 0 31.862272
1.5854312 5.3285737 0.38128951 225 0 0 0 31.862272
1.8839852 3.4459014 3.9836783 237 0 0 0 31.862272
2.3730743 4.4749484 2.0567214 338 0 0 0 31.862272
1.6552331 5.8770747 3.4465985 46 0 0 0 31.862272
2.4386604 4.6300821 0.74096227 786 0 0 0 31.862272
1.7982717 4.4612441 2.4633276 13 0 0 0 31.862272
2.7881341 4.1904149 1.5633467 678 0 0 0 31.862272
2.6040618 3.8295074 2.5369492 443 0 0 0 31.862272
1.4702495 4.9968181 1.4132019 14 0 0 0 31.862272
2.9448278 5.5280552 3.296685 20 0 0 0 31.862272
1.1290691 3.815928 -0.50096029 464 0 0 0 31.862272
2.3473802 3.2241504 4.1935668 179 0 0 0 31.862272
2.0755231 5.0968666 0.71048492 275 0 0 0 31.862272
2.1099558 5.1761675 0.44756597 290 0 0 0 31.862272
3.114121 4.7188692 0.87304091 182 0 0 0 31.862272
1.3709257 4.6095304 -0.13830113 299 0 0 0 31.862272
2.5838053 6.3505497 1.5678049 37 0 0 0 31.862272
1.0525753 3.935436 3.2164955 360 0 0 0 31.862272
1.4215908 3.6263773 3.8535399 271 0 0 0 31.862272
1.0028118 3.8361657 3.4776287 298 0 0 0 31.862272
1.9744221 3.6541207 3.4196434 314 0 0 0 31.862272
4.0595794 10.015818 4.2057509 23 0 0 0 31.862272
0.94918144 3.7305582 3.7478454 257 0 0 0 31.862272
2.8347363 4.2752228 1.319944 639 0 0 0 31.862272
1.5176036 3.8254659 3.3031862 327 0 0 0 31.862272
4.2364087 6.4393172 0.41448286 26 0 0 0 31.862272
1.1102247 4.0700154 2.9917967 205 0 0 0 31.862272
2.0226307 3.7576287 3.1607287 365 0 0 0 31.862272
2.5726941 4.8868008 -0.029038358 600 0 0 0 31.862272
2.5663018 3.746882 2.79614 415 0 0 0 31.862272
2.6538303 3.9310184 2.2957797 556 0 0 0 31.862272
2.3043692 4.3619428 1.4573554 834 0 0 0 31.862272
2.1695111 4.1205063 -0.47327298 330 0 0 0 31.862272
2.6931875 4.0122004 2.0476496 608 0 0 0 31.862272
2.3318794 4.389761 2.312022 231 0 0 0 31.862272
2.3973856 3.345952 3.8932395 258 0 0 0 31.862272
1.5573487 3.9055278 3.0350363 401 0 0 0 31.862272
1.4678346 3.7211027 3.5642209 283 0 0 0 31.862272
1.2172394 4.3880115 2.8915069 291 0 0 0 31.862272
2.1432047 5.2550435 0.17617683 319 0 0 0 31.862272
1.5200889 5.10954 0.10374739 228 0 0 0 31.862272
1.9543542 4.8091745 1.4647928 281 0 0 0 31.862272
1.4271468 4.8822889 1.6533748 371 0 0 0 31.862272
1.7051575 4.2584276 2.9666481 175 0 0 0 31.862272
1.356179 4.7136712 2.1546481 53 0 0 0 31.862272
3.9721727 9.8249226 4.7442908 28 0 0 0 31.862272
1.9324039 3.5583084 3.7007689 309 0 0 0 31.862272
4.284461 6.5074692 0.80287659 18 0 0 0 31.862272
3.3172855 5.0406675 0.037228301 115 0 0 0 31.862272
2.0667048 3.8558052 2.9074595 401 0 0 0 31.862272
2.7407525 4.1034226 1.806736 609 0 0 0 31.862272
2.476568 3.545588 3.3156977 328 0 0 0 31.862272
1.9775965 4.8541193 -0.089421913 228 0 0 0 31.862272
2.2614634 5.626411 3.4931128 48 0 0 0 31.862272
2.5283864 4.8046341 0.23613687 889 0 0 0 31.862272
2.5113556 3.633496 3.0400093 382 0 0 0 31.862272
1.5088092 5.1109719 1.1661143 10 0 0 0 31.862272
2.3474231 3.5484769 -0.80860847 391 0 0 0 31.862272
1.6236043 3.9898708 -0.48861378 322 0 0 0 31.862272
2.8797722 4.3548789 1.0721625 682 0 0 0 31.862272
3.1700912 4.816679 -0.24648114 218 0 0 0 31.862272
2.4153252 4.5896573 -0.27753827 58 0 0 0 31.862272
2.2355139 4.1851311 2.8170238 140 0 0 0 31.862272
2.4834971 4.7152638 0.49163699 852 0 0 0 31.862272
1.9908714 3.7777593 -0.64347738 413 0 0 0 31.862272
1.7808592 4.3737669 -0.30611819 326 0 0 0 31.862272
2.3274477 4.3981757 1.7400981 246 0 0 0 31.862272
2.0234561 6.8055782 0.82572669 49 0 0 0 31.862272
1.9512908 4.7255163 1.7177672 84 0 0 0 31.958784
1.8160673 4.3830256 -0.30771792 304 0 0 0 31.958784
0.97278351 3.7274446 3.7506266 281 0 0 0 31.958784
2.2949183 4.2730012 1.6968195 532 0 0 0 31.958784
3.1166515 4.6601882 0.86597919 334 0 0 0 31.958784
1.4881252 3.7057731 3.5582561 319 0 0 0 31.958784
2.8212705 4.1843376 1.5674306 650 0 0 0 31.958784
1.0282919 3.8372209 3.4841971 312 0 0 0 31.958784
2.4486115 4.5844369 -0.27820596 176 0 0 0 31.958784
1.955272 3.5483298 3.7027857 299 0 0 0 31.958784
1.4411688 3.6109643 3.8465297 329 0 0 0 31.958784
2.4660902 4.6132836 0.74069393 705 0 0 0 31.958784
2.7664056 4.0873079 1.8070753 579 0 0 0 31.958784
1.5000441 4.9849267 1.4124316 10 0 0 0 31.958784
2.421289 3.3359005 3.8987191 232 0 0 0 31.958784
2.3342657 4.3536482 1.4593024 754 0 0 0 31.958784
2.5620546 4.7969642 0.23646981 821 0 0 0 31.958784
1.6510955 3.987169 -0.48958737 355 0 0 0 31.958784
2.9113467 4.3444629 1.0739229 631 0 0 0 31.958784
2.2668977 4.1819444 2.8241251 156 0 0 0 31.958784
2.5926445 3.875437 -0.65326774 92 0 0 0 31.958784
2.5123827 4.6999364 0.49163699 776 0 0 0 31.958784
2.5936174 3.7373803 2.8008289 455 0 0 0 31.958784
2.1363006 5.1476231 0.17364915 319 0 0 0 31.958784
2.2880516 5.5931492 3.4811964 62 0 0 0 31.958784
2.2064588 4.1290369 -0.47600764 301 0 0 0 31.958784
2.3587706 4.37537 2.312022 239 0 0 0 31.958784
1.2436768 4.3788323 2.8904412 258 0 0 0 31.958784
1.5560794 5.1154194 0.10395124 230 0 0 0 31.958784
1.721081 4.2229457 2.9493699 196 0 0 0 31.958784
4.0323825 9.8003654 4.7442908 24 0 0 0 31.958784
4.3270688 6.4851985 0.80336797 16 0 0 0 31.958784
1.420085 4.7836151 1.9015976 174 0 0 0 31.958784
2.6804435 3.9183855 2.2979386 513 0 0 0 31.958784
1.9078242 3.4392047 3.9893579 218 0 0 0 31.958784
1.690294 5.8634553 3.4446428 28 0 0 0 31.958784
2.3752415 4.4338617 1.2217919 823 0 0 0 31.958784
2.0601575 4.9716573 0.96302378 23 0 0 0 31.958784
4.2858052 6.4281654 0.41536844 22 0 0 0 31.958784
2.8609154 4.2577486 1.319944 628 0 0 0 31.958784
2.6309965 3.818527 2.540287 432 0 0 0 31.958784
2.3699858 3.2135847 4.1986251 163 0 0 0 31.958784
2.315505 4.2824473 2.5679438 127 0 0 0 31.958784
1.1599481 3.8335798 -0.50446188 386 0 0 0 31.958784
2.142441 5.1649656 0.44771349 356 0 0 0 31.958784
1.6227558 5.3340192 0.3822858 173 0 0 0 31.958784
1.3371106 4.5872583 2.3918562 17 0 0 0 31.958784
2.384263 5.8107376 3.208879 6 0 0 0 31.958784
2.019599 3.7759225 -0.64537531 379 0 0 0 31.958784
2.0143759 4.8660779 1.2113398 7 0 0 0 31.958784
2.1059976 5.082202 0.71024048 314 0 0 0 31.958784
4.121315 9.9915819 4.2061119 19 0 0 0 31.958784
1.0769118 3.9296622 3.2171123 337 0 0 0 31.958784
1.2702261 4.1835055 -0.33702421 296 0 0 0 31.958784
2.3815815 4.4251509 2.0407248 226 0 0 0 31.958784
2.4231045 4.5270848 0.9847368 878 0 0 0 31.958784
1.5422202 3.8189824 3.3056791 325 0 0 0 31.958784
2.3751497 3.5429721 -0.8107639 372 0 0 0 31.958784
2.0196028 4.8714423 -0.090192579 251 0 0 0 31.958784
1.539291 5.0988097 1.1654891 10 0 0 0 31.958784
2.5051603 3.5400755 3.3247833 323 0 0 0 31.958784
2.0674932 6.8006401 0.82661432 49 0 0 0 31.958784
1.4032651 4.6144137 -0.13881169 283 0 0 0 31.958784
2.0491226 3.7515125 3.1660595 379 0 0 0 31.958784
1.9968061 3.641937 3.4196434 318 0 0 0 31.958784
2.6059277 4.8770971 -0.029121434 558 0 0 0 31.958784
2.7239733 4.0047588 2.0522804 583 0 0 0 31.958784
1.5834255 3.901171 3.0391121 424 0 0 0 31.958784
2.4565341 3.4313574 3.5972703 262 0 0 0 31.958784
1.128549 4.0395031 2.9745336 242 0 0 0 31.958784
1.9926715 4.8184662 1.4711905 601 0 0 0 31.958784
1.4576243 4.8752651 1.6539835 781 0 0 0 31.958784
1.3853358 4.7061405 2.1550462 70 0 0 0 31.958784
3.3337402 4.9985776 0.037223764 74 0 0 0 31.958784
2.5430627 3.631557 3.0512884 373 0 0 0 31.958784
2.0939128 3.849654 2.9124124 444 0 0 0 31.958784
1.5303179 4.9747052 1.4121747 12 0 0 0 32.057343
2.8506646 4.1724796 1.5694726 616 0 0 0 32.057343
1.9806174 4.7143297 1.7180811 358 0 0 0 32.057343
2.0910072 4.9598308 0.96319437 379 0 0 0 32.057343
2.4503675 4.5112677 0.98455417 750 0 0 0 32.057343
2.406749 3.542942 -0.81429094 433 0 0 0 32.057343
1.8786494 3.4594836 -0.78924495 428 0 0 0 32.057343
2.1943984 3.2235956 -0.93960309 409 0 0 0 32.057343
2.0188334 4.7981539 1.4687914 932 0 0 0 32.057343
2.3627706 4.3426189 1.4604151 763 0 0 0 32.057343
1.4883486 4.8689613 1.6548966 896 0 0 0 32.057343
1.189911 3.8472099 -0.50742483 379 0 0 0 32.057343
1.7262398 5.8529735 3.4446428 35 0 0 0 32.057343
2.4065831 4.4268994 1.2238668 808 0 0 0 32.057343
4.335783 6.4174771 0.41630319 28 0 0 0 32.057343
2.6604064 3.8109663 2.5460093 459 0 0 0 32.057343
1.2976488 4.1813407 -0.33753777 298 0 0 0 32.057343
2.3991575 3.2117324 4.2152448 187 0 0 0 32.057343
1.1016442 3.9252532 3.2189631 383 0 0 0 32.057343
2.3447208 4.2735996 2.5711849 176 0 0 0 32.057343
2.0438168 4.8527269 1.211121 10 0 0 0 32.057343
2.3166533 5.565383 3.4727554 32 0 0 0 32.057343
1.5650289 3.808001 3.3044326 264 0 0 0 32.057343
1.4354186 4.6181192 -0.1392858 300 0 0 0 32.057343
1.6509986 5.3096695 0.38135177 86 0 0 0 32.057343
2.4174652 5.7902374 3.2057142 17 0 0 0 32.057343
1.3660028 4.581543 2.3931878 18 0 0 0 32.057343
2.0221238 3.6350298 3.4247072 323 0 0 0 32.057343
2.1647811 5.1296735 0.44594324 301 0 0 0 32.057343
2.8946187 4.2513433 1.3233594 652 0 0 0 32.057343
1.9309616 3.4311171 3.9936175 214 0 0 0 32.057343
2.2450132 4.1398907 -0.47907051 306 0 0 0 32.057343
1.1487985 4.0167809 2.9630249 288 0 0 0 32.057343
3.3872833 5.012013 0.03723092 29 0 0 0 32.057343
2.5715003 3.6246469 3.0586197 407 0 0 0 32.057343
2.122736 3.8462386 2.9195669 408 0 0 0 32.057343
1.7414742 4.1990905 2.9401908 198 0 0 0 32.057343
1.6095074 3.896641 3.0431879 439 0 0 0 32.057343
2.6386626 4.8662906 -0.029192641 617 0 0 0 32.057343
1.5942822 5.1277308 0.10424427 245 0 0 0 32.057343
1.2724173 4.3776174 2.8947041 263 0 0 0 32.057343
2.3179278 4.2530265 1.6945417 705 0 0 0 32.057343
2.0744448 3.743098 3.1696131 349 0 0 0 32.057343
2.0888646 4.9474802 0.16861857 410 0 0 0 32.057343
2.6194422 3.7255883 2.8039551 463 0 0 0 32.057343
2.5310009 3.5304623 3.3302345 310 0 0 0 32.057343
2.3024774 4.1860824 2.8362987 171 0 0 0 32.057343
1.5618742 5.0612388 1.1592363 6 0 0 0 32.057343
1.6770718 3.9806213 -0.49007413 334 0 0 0 32.057343
2.0587854 4.8810635 -0.090770572 281 0 0 0 32.057343
2.5976276 4.7925758 0.23695071 806 0 0 0 32.057343
2.7070017 3.9055736 2.3000975 544 0 0 0 32.057343
2.1336696 5.0609541 0.70914054 276 0 0 0 32.057343
4.1829057 9.9669666 4.2064724 26 0 0 0 32.057343
2.4904823 4.5947785 -0.27996626 232 0 0 0 32.057343
2.3735595 4.346087 2.0113354 260 0 0 0 32.057343
2.1091824 6.7878261 0.82661432 38 0 0 0 32.057343
2.4391267 3.3174555 3.8946095 201 0 0 0 32.057343
1.4567719 4.7989912 1.9110929 97 0 0 0 32.057343
2.0469663 3.7712712 -0.64679873 403 0 0 0 32.057343
1.9835054 3.5479002 3.714886 276 0 0 0 32.057343
0.9950763 3.7193234 3.7485406 257 0 0 0 32.057343
2.7552919 3.9978502 2.0572972 610 0 0 0 32.057343
1.5347017 3.6483645 -0.64284188 424 0 0 0 32.057343
1.4171033 4.7072115 2.1594253 42 0 0 0 32.057343
4.3539691 6.439558 0.80110759 20 0 0 0 32.057343
1.4654477 3.607338 3.852138 244 0 0 0 32.057343
1.5122533 3.7000377 3.5615699 366 0 0 0 32.057343
1.8506805 4.3901782 -0.30917224 281 0 0 0 32.057343
4.0956163 9.7830219 4.7479515 16 0 0 0 32.057343
3.0513091 4.4937353 1.1142173 261 0 0 0 32.057343
2.497184 4.6032925 0.74149889 780 0 0 0 32.057343
2.3855729 4.3608146 2.312022 271 0 0 0 32.057343
1.0512156 3.8286588 3.4822266 268 0 0 0 32.057343
2.6579483 3.9208963 -0.66430169 357 0 0 0 32.057343
2.5440228 4.6896877 0.49215052 752 0 0 0 32.057343
2.4829099 3.4236391 3.6050253 281 0 0 0 32.057343
2.7994037 4.0819001 1.8121637 600 0 0 0 32.057343
2.5563505 3.5200205 3.3350804 304 0 0 0 32.155647
1.5622661 4.9698305 1.4134587 8 0 0 0 32.155647
2.3485539 4.2470002 1.6977957 675 0 0 0 32.155647
2.097373 3.730299 3.1696131 316 0 0 0 32.155647
1.631495 3.8821955 3.0396943 437 0 0 0 32.155647
2.670399 4.8535132 -0.029240113 631 0 0 0 32.155647
1.4878271 3.5989373 3.852839 262 0 0 0 32.155647
2.0478568 4.7847905 1.4685248 1046 0 0 0 32.155647
1.9069195 3.460748 -0.79234314 478 0 0 0 32.155647
1.0178789 3.7131476 3.7485406 246 0 0 0 32.155647
2.5272827 4.5951557 -0.28105888 261 0 0 0 32.155647
2.0902739 4.8720136 -0.090866908 266 0 0 0 32.155647
2.4629121 3.307106 3.9000888 228 0 0 0 32.155647
2.4323292 3.5337658 -0.81566256 401 0 0 0 32.155647
2.4855914 4.5099268 0.98747545 680 0 0 0 32.155647
1.3275088 4.1865921 -0.33873603 280 0 0 0 32.155647
2.008522 3.54146 3.7209361 312 0 0 0 32.155647
1.1254901 3.9176633 3.2183461 375 0 0 0 32.155647
1.5395334 3.7017498 3.5721741 343 0 0 0 32.155647
1.8862361 4.3989038 -0.310772 269 0 0 0 32.155647
1.5898749 3.8019335 3.3075485 309 0 0 0 32.155647
1.0748931 3.8228621 3.4828835 303 0 0 0 32.155647
1.4673669 4.6206512 -0.13972344 319 0 0 0 32.155647
2.0519943 3.6360412 3.4373667 307 0 0 0 32.155647
2.5097344 3.4163418 3.6134267 291 0 0 0 32.155647
1.4448773 4.694922 2.1578329 35 0 0 0 32.155647
2.4522502 5.773653 3.2048099 30 0 0 0 32.155647
1.3951372 4.5765028 2.3949633 16 0 0 0 32.155647
2.1592171 5.0301604 0.43900979 345 0 0 0 32.155647
2.7433393 3.9066174 2.3104599 449 0 0 0 32.155647
2.6886683 3.9143031 -0.66606712 334 0 0 0 32.155647
2.5813942 4.6897025 0.49369115 838 0 0 0 32.155647
2.2234824 3.2236502 -0.94375604 413 0 0 0 32.155647
2.4056754 4.334178 2.3057539 214 0 0 0 32.155647
4.1541348 9.7543459 4.7463245 21 0 0 0 32.155647
4.3866553 6.4028659 0.79992825 17 0 0 0 32.155647
1.5150633 4.8497386 1.6515486 477 0 0 0 32.155647
2.880563 4.1612048 1.5718062 607 0 0 0 32.155647
2.784518 3.9876804 2.0607705 617 0 0 0 32.155647
2.0800655 3.7768066 -0.65012002 448 0 0 0 32.155647
2.1541057 6.7851744 0.82783473 46 0 0 0 32.155647
2.3367789 4.2169437 1.9588811 351 0 0 0 32.155647
2.5633192 6.0057302 2.5518191 43 0 0 0 32.155647
2.1646829 5.0477667 0.70914054 288 0 0 0 32.155647
2.0095067 4.7020879 1.7180811 304 0 0 0 32.155647
1.9317942 6.2218962 2.4744816 63 0 0 0 32.155647
1.56637 3.6606188 -0.64692688 406 0 0 0 32.155647
2.5301588 4.5965657 0.74284047 805 0 0 0 32.155647
2.8302946 4.0731492 1.8158952 550 0 0 0 32.155647
1.7049862 3.9784658 -0.49116939 381 0 0 0 32.155647
3.423053 4.9985638 0.037232492 8 0 0 0 32.155647
2.5994675 3.6168532 3.0653872 355 0 0 0 32.155647
2.1467037 3.8338699 2.9201171 417 0 0 0 32.155647
1.7495233 4.1464553 2.9110336 198 0 0 0 32.155647
1.6305703 5.1330962 0.10444812 231 0 0 0 32.155647
1.3026414 4.3810797 2.9021645 262 0 0 0 32.155647
2.3907638 4.3305626 1.4612496 832 0 0 0 32.155647
2.2789941 4.1417155 -0.48103946 272 0 0 0 32.155647
2.1097093 4.9125271 0.16802384 748 0 0 0 32.155647
2.6462088 3.7150111 2.8081231 440 0 0 0 32.155647
2.3306377 4.1763921 2.8393421 164 0 0 0 32.155647
1.1734233 4.0096564 2.9630249 337 0 0 0 32.155647
2.6313176 4.7844286 0.23728365 850 0 0 0 32.155647
2.3483872 5.5454688 3.46928 34 0 0 0 32.155647
1.7608579 5.8380966 3.4421983 54 0 0 0 32.155647
4.3824072 6.4014707 0.41694278 22 0 0 0 32.155647
2.1350009 4.9785995 0.96916372 347 0 0 0 32.155647
2.6928637 3.8074965 2.5545926 442 0 0 0 32.155647
2.4175701 3.1952956 4.2130771 166 0 0 0 32.155647
2.3769312 4.2699766 2.5776665 157 0 0 0 32.155647
1.2134947 3.8398364 -0.50742483 429 0 0 0 32.155647
1.6968734 5.3412828 0.38409156 36 0 0 0 32.155647
3.0543933 4.4393611 1.1056107 23 0 0 0 32.155647
1.5970278 5.0646157 1.1621542 7 0 0 0 32.155647
2.4402771 4.4239798 1.2270947 817 0 0 0 32.155647
2.9278009 4.243885 1.3265308 670 0 0 0 32.155647
1.9551182 3.4247103 4.0000072 226 0 0 0 32.155647
2.1250746 4.9602695 1.2404435 53 0 0 0 32.155647
2.0298455 3.5284274 3.720264 301 0 0 0 32.254463
2.6630585 4.7725573 0.2374686 808 0 0 0 32.254463
2.0779469 4.7739019 1.4690579 1032 0 0 0 32.254463
1.5939174 3.6626832 -0.64913958 407 0 0 0 32.254463
2.6279209 3.6095207 3.0727189 372 0 0 0 32.254463
2.5602469 4.5844154 0.74337709 797 0 0 0 32.254463
1.2403913 3.8426876 -0.50890625 348 0 0 0 32.254463
4.4224577 6.3709226 0.79933858 17 0 0 0 32.254463
2.611578 4.6763854 0.49394792 907 0 0 0 32.254463
1.0443517 3.719975 3.7617509 279 0 0 0 32.254463
2.7211001 3.9099171 -0.66827393 341 0 0 0 32.254463
1.7369058 3.9852152 -0.49348164 336 0 0 0 32.254463
2.1225288 4.864593 -0.091011405 263 0 0 0 32.254463
1.6265708 5.0500674 1.1611122 18 0 0 0 32.254463
1.4708979 4.6772194 2.1538517 76 0 0 0 32.254463
2.1000934 4.8201256 1.2093704 274 0 0 0 32.254463
1.5096049 3.5890832 3.852138 240 0 0 0 32.254463
1.1972978 4.0000315 2.9612987 390 0 0 0 32.254463
2.5184929 4.5040312 0.98948383 721 0 0 0 32.254463
1.7953585 5.8230152 3.4397535 57 0 0 0 32.254463
2.4678512 4.4097724 1.2273252 825 0 0 0 32.254463
1.917181 4.3963881 -0.31149918 296 0 0 0 32.254463
2.9801085 4.2891836 -0.47595519 69 0 0 0 32.254463
2.3801177 4.2424073 1.7017006 688 0 0 0 32.254463
1.1492844 3.909929 3.2177293 395 0 0 0 32.254463
2.1908507 5.0234737 0.70767391 250 0 0 0 32.254463
2.462929 3.5316527 -0.81879771 388 0 0 0 32.254463
2.4358714 3.1787536 4.2109094 198 0 0 0 32.254463
2.4057002 4.259943 2.5804446 157 0 0 0 32.254463
2.4095018 4.2789555 2.2844427 207 0 0 0 32.254463
2.531559 3.4021034 3.6147192 286 0 0 0 32.254463
1.5616337 3.6908548 3.5708485 315 0 0 0 32.254463
2.3658774 5.4926925 3.445447 34 0 0 0 32.254463
2.1706326 4.9771457 0.97138089 335 0 0 0 32.254463
2.4875383 3.2977538 3.9069381 206 0 0 0 32.254463
2.8110619 3.9735343 2.062314 582 0 0 0 32.254463
2.141814 4.9040699 0.16814774 738 0 0 0 32.254463
2.5622368 4.5917668 -0.28190866 242 0 0 0 32.254463
2.1104212 3.7769043 -0.6524924 394 0 0 0 32.254463
1.5479861 4.8503304 1.6548966 395 0 0 0 32.254463
2.3357856 4.1547799 1.9369322 662 0 0 0 32.254463
1.3294988 4.3730044 2.9021645 254 0 0 0 32.254463
2.1389415 4.8998394 0.42956844 378 0 0 0 32.254463
2.9109788 4.1505036 1.5744315 528 0 0 0 32.254463
2.5854337 3.5145319 3.3447716 310 0 0 0 32.254463
1.6153182 3.7971435 3.3119109 320 0 0 0 32.254463
1.0993768 3.8198166 3.4861677 317 0 0 0 32.254463
2.2581954 3.2314231 -0.95035189 390 0 0 0 32.254463
2.1978476 6.7784457 0.82861137 51 0 0 0 32.254463
4.4272919 6.3826699 0.41743475 21 0 0 0 32.254463
2.1190255 3.7152596 3.1678362 330 0 0 0 32.254463
1.4245285 4.5721326 2.3971825 19 0 0 0 32.254463
2.3159871 4.1484871 -0.48366478 233 0 0 0 32.254463
1.4997094 4.6239152 -0.14019753 275 0 0 0 32.254463
2.0781097 3.6301022 3.4436965 328 0 0 0 32.254463
3.3034804 4.7482524 0.89246064 15 0 0 0 32.254463
2.6001215 5.9898887 2.5518191 57 0 0 0 32.254463
1.6556048 3.8728592 3.0402765 415 0 0 0 32.254463
2.7045138 4.8448954 -0.029346926 676 0 0 0 32.254463
2.1693633 3.8191736 2.9190164 412 0 0 0 32.254463
2.3562195 4.1620126 2.8393421 151 0 0 0 32.254463
2.0386989 4.6905403 1.7183949 249 0 0 0 32.254463
1.3562506 4.1878438 -0.33959192 266 0 0 0 32.254463
2.4233897 4.3267078 1.4648656 840 0 0 0 32.254463
1.7348629 5.3469057 0.3851501 27 0 0 0 32.254463
2.4851532 5.7527666 3.2016451 19 0 0 0 32.254463
2.7724802 3.8970654 2.3147776 523 0 0 0 32.254463
1.9796213 3.4187455 4.0071063 233 0 0 0 32.254463
2.9593353 4.2337933 1.3289703 645 0 0 0 32.254463
1.7702816 4.124815 2.9034743 192 0 0 0 32.254463
2.6729438 3.7042456 2.8122911 449 0 0 0 32.254463
1.6722418 5.1543741 0.10486855 254 0 0 0 32.254463
2.7223105 3.7994819 2.5603149 446 0 0 0 32.254463
1.9688001 6.2063575 2.4730747 89 0 0 0 32.254463
1.9343213 3.4600868 -0.79502821 498 0 0 0 32.254463
2.8606422 4.0634027 1.8192875 598 0 0 0 32.254463
4.2149978 9.7311878 4.7475448 11 0 0 0 32.254463
2.0776134 6.4661207 1.8338329 18 0 0 0 32.254463
1.949784 4.3973045 -0.3125172 292 0 0 0 32.351746
2.4996643 4.4030104 1.2296308 817 0 0 0 32.351746
2.5565138 3.3919957 3.6205356 319 0 0 0 32.351746
2.139396 3.7741938 -0.65439034 446 0 0 0 32.351746
2.601176 4.5950718 -0.28324407 227 0 0 0 32.351746
2.7486663 3.7869775 2.5631759 418 0 0 0 32.351746
3.3450773 4.7456884 0.89569724 17 0 0 0 32.351746
1.5738711 4.8289704 1.6509398 229 0 0 0 32.351746
2.6402225 4.6602731 0.49394792 875 0 0 0 32.351746
2.2011309 4.9637332 0.97138089 319 0 0 0 32.351746
2.456058 4.3226151 1.4684815 786 0 0 0 32.351746
2.63871 5.9780879 2.5536225 65 0 0 0 32.351746
2.3616946 4.1411762 1.9373043 718 0 0 0 32.351746
1.351016 4.3477998 2.890974 246 0 0 0 32.351746
1.5827695 3.6777647 3.5675347 346 0 0 0 32.351746
2.3793244 5.431962 3.4166489 48 0 0 0 32.351746
2.1410341 4.8237352 0.42447898 737 0 0 0 32.351746
1.4995692 4.6681061 2.1538517 47 0 0 0 32.351746
3.5634203 10.82022 2.4581335 25 0 0 0 32.351746
2.9424782 4.1411462 1.5776402 605 0 0 0 32.351746
2.5909138 5.8838139 2.8883517 15 0 0 0 32.351746
1.8302659 5.8093939 3.4382868 62 0 0 0 32.351746
1.7685696 3.9908144 -0.49567217 379 0 0 0 32.351746
2.1612616 4.8715796 -0.091541238 291 0 0 0 32.351746
2.512584 3.2888033 3.9144723 211 0 0 0 32.351746
2.7518713 3.9028535 -0.67003936 351 0 0 0 32.351746
2.4964197 3.5333037 -0.82291257 418 0 0 0 32.351746
2.4282708 4.2389479 2.5767405 192 0 0 0 32.351746
1.8446957 5.5682254 0.40040576 14 0 0 0 32.351746
2.4595609 3.1692142 4.2181354 184 0 0 0 32.351746
2.5193279 5.7349601 3.2002888 26 0 0 0 32.351746
1.3863122 4.1926827 -0.34079021 313 0 0 0 32.351746
2.1450524 4.841938 1.2179046 469 0 0 0 32.351746
2.8000271 3.8851061 2.3178 502 0 0 0 32.351746
2.1136274 6.4422331 1.8307513 20 0 0 0 32.351746
1.1748459 3.9080777 3.2220476 413 0 0 0 32.351746
1.5327767 4.6288524 -0.14074457 280 0 0 0 32.351746
2.0037684 3.4120016 4.0134959 230 0 0 0 32.351746
3.17448 4.483212 1.4114267 165 0 0 0 32.351746
1.7894924 4.0999918 2.8937552 191 0 0 0 32.351746
1.9617865 3.4592195 -0.79771328 444 0 0 0 32.351746
3.0435641 4.3237414 -0.48233193 261 0 0 0 32.351746
2.6951194 3.6870854 2.8117702 434 0 0 0 32.351746
2.0705137 4.6848893 1.7209055 271 0 0 0 32.351746
2.097625 3.6125951 3.4392657 303 0 0 0 32.351746
2.3942759 4.1915016 2.2459991 190 0 0 0 32.351746
2.3791394 4.142992 2.8362987 174 0 0 0 32.351746
1.7060428 5.1506591 0.10495774 237 0 0 0 32.351746
2.6112223 3.5043488 3.3502231 280 0 0 0 32.351746
