# .PCD v0.7 - Point Cloud Data file format
VERSION 0.7
FIELDS x y z intensity normal_x normal_y normal_z curvature
SIZE 4 4 4 4 4 4 4 4
TYPE F F F F F F F F
COUNT 1 1 1 1 1 1 1 1
WIDTH 1127
HEIGHT 1
VIEWPOINT 0 0 0 1 0 0 0
POINTS 1127
DATA ascii
-0.639 1.159 1.288 50 0 0 0 67.063858
-0.64700001 0.958 1.3200001 67 0 0 0 67.078697
-0.68300003 1.028 1.327 38 0 0 0 67.093536
-0.70300001 1.074 1.309 42 0 0 0 67.108383
-0.72000003 1.113 1.279 61 0 0 0 67.123222
-0.68699998 0.889 1.291 74 0 0 0 67.138062
-0.73500001 0.96200001 1.303 80 0 0 0 67.152901
-0.76200002 1.006 1.2819999 39 0 0 0 67.167747
-0.79400003 1.057 1.265 51 0 0 0 67.182587
-0.741 0.84200001 1.296 35 0 0 0 67.197426
-0.78200001 0.89399999 1.279 57 0 0 0 67.212273
-0.82099998 0.94300002 1.265 59 0 0 0 67.227112
-0.86699998 0.99900001 1.255 54 0 0 0 67.241951
-0.77700001 0.778 1.278 56 0 0 0 67.25679
-0.82999998 0.83099997 1.267 55 0 0 0 67.271629
-0.87900001 0.88 1.2539999 55 0 0 0 67.286469
-0.93099999 0.93099999 1.24 52 0 0 0 67.301315
-0.81800002 0.722 1.275 55 0 0 0 67.316162
-0.87699997 0.76999998 1.26 60 0 0 0 67.331001
-0.93599999 0.81800002 1.249 55 0 0 0 67.34584
-1 0.86799997 1.239 57 0 0 0 67.36068
-0.85100001 0.66000003 1.266 56 0 0 0 67.375519
-0.92000002 0.70599997 1.2539999 52 0 0 0 67.244751
-0.98799998 0.75099999 1.245 51 0 0 0 67.25959
-1.058 0.79500002 1.2309999 50 0 0 0 67.274429
-0.88800001 0.60299999 1.267 55 0 0 0 67.289268
-0.95999998 0.64200002 1.249 55 0 0 0 67.304115
-1.035 0.68099999 1.239 52 0 0 0 67.318954
-1.108 0.71600002 1.22 49 0 0 0 67.333794
-0.917 0.54299998 1.2640001 63 0 0 0 67.348633
-0.99699998 0.57499999 1.247 59 0 0 0 67.363472
-1.079 0.60900003 1.237 51 0 0 0 67.378319
-1.1619999 0.639 1.221 43 0 0 0 67.393158
-0.94700003 0.48300001 1.265 57 0 0 0 67.407997
-1.029 0.50700003 1.244 56 0 0 0 67.422836
-1.1160001 0.53200001 1.233 45 0 0 0 67.437683
-1.2029999 0.55500001 1.215 47 0 0 0 67.452522
-0.96499997 0.41800001 1.256 60 0 0 0 67.467361
-1.0549999 0.43599999 1.238 53 0 0 0 67.482208
-1.148 0.45500001 1.23 48 0 0 0 67.497047
-1.239 0.46799999 1.211 41 0 0 0 67.511887
-0.98699999 0.35699999 1.258 63 0 0 0 67.526726
-1.08 0.366 1.238 57 0 0 0 67.541565
-1.173 0.37400001 1.225 46 0 0 0 67.556412
-1.265 0.37799999 1.205 47 0 0 0 67.571251
-1.0039999 0.294 1.257 61 0 0 0 67.58609
-1.1 0.294 1.238 54 0 0 0 67.600929
-1.193 0.29300001 1.221 48 0 0 0 67.615776
-1.291 0.289 1.205 52 0 0 0 67.630615
-1.015 0.229 1.252 56 0 0 0 67.645454
-1.114 0.221 1.2359999 54 0 0 0 67.660294
-1.209 0.211 1.221 52 0 0 0 67.675133
-1.306 0.197 1.201 50 0 0 0 67.68998
-1.024 0.16500001 1.251 59 0 0 0 67.704819
-1.127 0.148 1.238 55 0 0 0 67.677574
-1.219 0.12800001 1.219 50 0 0 0 67.692413
-1.314 0.104 1.199 60 0 0 0 67.707253
-1.033 0.101 1.253 55 0 0 0 67.722099
-1.1339999 0.074000001 1.238 57 0 0 0 67.736946
-1.234 0.045000002 1.228 57 0 0 0 67.751785
-1.319 0.012 1.2 64 0 0 0 67.766624
-1.038 0.037 1.2539999 55 0 0 0 67.781464
-1.136 0 1.239 59 0 0 0 67.796303
-1.23 -0.037 1.226 63 0 0 0 67.811142
-1.321 -0.079999998 1.206 61 0 0 0 67.825981
-1.0369999 -0.027000001 1.252 58 0 0 0 67.84082
-1.1339999 -0.072999999 1.239 60 0 0 0 67.855667
-1.227 -0.12 1.229 59 0 0 0 67.870514
-1.312 -0.17299999 1.209 57 0 0 0 67.885353
-1.04 -0.092 1.26 62 0 0 0 67.900192
-1.13 -0.147 1.244 61 0 0 0 67.915031
-1.217 -0.20299999 1.233 61 0 0 0 67.929871
-1.294 -0.26300001 1.209 58 0 0 0 67.94471
-1.033 -0.15700001 1.258 59 0 0 0 67.959549
-1.117 -0.22 1.244 66 0 0 0 67.974403
-1.2 -0.285 1.234 56 0 0 0 67.989243
-1.274 -0.35299999 1.215 59 0 0 0 68.004082
-1.024 -0.222 1.2589999 60 0 0 0 68.018921
-1.1 -0.292 1.244 61 0 0 0 68.03376
-1.181 -0.366 1.239 56 0 0 0 68.048599
-1.249 -0.442 1.222 57 0 0 0 68.063438
-1.0089999 -0.28600001 1.257 59 0 0 0 68.078278
-1.084 -0.36500001 1.25 58 0 0 0 68.093117
-1.153 -0.44400001 1.242 52 0 0 0 68.107971
-1.219 -0.52899998 1.232 59 0 0 0 68.12281
-0.99599999 -0.35100001 1.263 54 0 0 0 68.13765
-1.058 -0.435 1.25 57 0 0 0 68.649628
-1.124 -0.52200001 1.249 55 0 0 0 68.664467
-1.178 -0.611 1.237 59 0 0 0 68.679306
-0.97799999 -0.41600001 1.266 56 0 0 0 68.694145
-1.035 -0.50599998 1.26 61 0 0 0 68.708984
-1.086 -0.59600002 1.253 54 0 0 0 68.723824
-1.133 -0.69099998 1.243 57 0 0 0 68.73867
-0.95700002 -0.48100001 1.271 55 0 0 0 68.75351
-1.006 -0.57599998 1.267 59 0 0 0 68.768349
-1.046 -0.66900003 1.2589999 55 0 0 0 68.783195
-1.0829999 -0.76700002 1.253 58 0 0 0 68.798035
-0.935 -0.54699999 1.28 51 0 0 0 68.812874
-0.972 -0.64399999 1.274 56 0 0 0 68.827713
-1.005 -0.74199998 1.271 54 0 0 0 68.84256
-1.026 -0.838 1.2589999 56 0 0 0 68.857399
-0.903 -0.60799998 1.28 54 0 0 0 68.872238
-0.935 -0.71100003 1.284 53 0 0 0 68.887077
-0.95300001 -0.80699998 1.276 56 0 0 0 68.901917
-0.96899998 -0.90700001 1.27 57 0 0 0 68.916763
-0.87400001 -0.67400002 1.29 53 0 0 0 68.931602
-0.89300001 -0.77600002 1.291 55 0 0 0 68.946442
-0.90200001 -0.87199998 1.286 55 0 0 0 68.961281
-0.90200001 -0.96799999 1.277 56 0 0 0 68.976128
-0.83899999 -0.73799998 1.298 54 0 0 0 68.990967
-0.84399998 -0.83600003 1.2970001 54 0 0 0 69.005806
-0.84600002 -0.935 1.2970001 51 0 0 0 69.020645
-0.83899999 -1.0319999 1.294 52 0 0 0 69.035484
-0.79699999 -0.79799998 1.303 49 0 0 0 69.050331
-0.79400003 -0.89600003 1.3049999 55 0 0 0 69.06517
-0.787 -0.99299997 1.309 54 0 0 0 69.080017
-0.76999998 -1.09 1.3099999 54 0 0 0 69.094856
-0.75700003 -0.86299998 1.316 51 0 0 0 69.109695
-0.73900002 -0.95300001 1.314 52 0 0 0 69.021767
-0.72100002 -1.045 1.317 52 0 0 0 69.036606
-0.69599998 -1.138 1.322 53 0 0 0 69.051453
-0.708 -0.92199999 1.323 53 0 0 0 69.066299
-0.68400002 -1.012 1.329 52 0 0 0 69.081139
-0.65399998 -1.096 1.33 48 0 0 0 69.095978
-0.61900002 -1.182 1.334 47 0 0 0 69.110817
-0.65499997 -0.97899997 1.331 51 0 0 0 69.125656
-0.62199998 -1.0650001 1.34 52 0 0 0 69.140495
-0.58499998 -1.146 1.346 43 0 0 0 69.155342
-0.54000002 -1.224 1.351 51 0 0 0 69.170181
-0.59799999 -1.035 1.341 45 0 0 0 69.18502
-0.55699998 -1.114 1.352 47 0 0 0 69.199867
-0.51099998 -1.187 1.358 47 0 0 0 69.214706
-0.458 -1.2539999 1.3609999 51 0 0 0 69.229546
-0.537 -1.091 1.353 50 0 0 0 69.244385
-0.48800001 -1.1619999 1.3660001 47 0 0 0 69.259224
-0.43399999 -1.221 1.368 42 0 0 0 69.274063
-0.37599999 -1.285 1.3789999 58 0 0 0 69.28891
-0.47 -1.138 1.359 42 0 0 0 69.303749
-0.414 -1.2 1.373 46 0 0 0 69.318588
-0.35600001 -1.256 1.383 48 0 0 0 69.333435
-0.29100001 -1.3049999 1.391 51 0 0 0 69.348274
-0.39899999 -1.1849999 1.369 44 0 0 0 69.363113
-0.338 -1.237 1.385 43 0 0 0 69.377953
-0.27500001 -1.284 1.397 50 0 0 0 69.392799
-0.206 -1.3200001 1.405 48 0 0 0 69.407639
-0.32499999 -1.23 1.381 42 0 0 0 69.422478
-0.259 -1.271 1.398 48 0 0 0 69.437317
-0.192 -1.307 1.411 47 0 0 0 69.452164
-0.121 -1.3329999 1.4220001 48 0 0 0 69.467003
-0.24699999 -1.277 1.399 43 0 0 0 69.481842
-0.178 -1.304 1.415 45 0 0 0 69.026993
-0.108 -1.326 1.427 48 0 0 0 69.041832
-0.035 -1.34 1.439 50 0 0 0 69.056671
-0.164 -1.3150001 1.413 47 0 0 0 69.07151
-0.093000002 -1.329 1.429 39 0 0 0 69.086349
-0.022 -1.341 1.444 42 0 0 0 69.101189
0.048999999 -1.342 1.457 45 0 0 0 69.116035
-0.075999998 -1.352 1.432 48 0 0 0 69.130875
-0.0049999999 -1.352 1.447 43 0 0 0 69.145714
0.064000003 -1.351 1.462 41 0 0 0 69.160561
0.134 -1.331 1.466 46 0 0 0 69.1754
0.015 -1.381 1.447 44 0 0 0 69.190239
0.083999999 -1.367 1.462 45 0 0 0 69.205078
0.15099999 -1.345 1.4680001 41 0 0 0 69.219917
0.21699999 -1.317 1.477 44 0 0 0 69.234756
0.111 -1.402 1.462 46 0 0 0 69.249603
0.176 -1.375 1.476 45 0 0 0 69.26445
0.23899999 -1.3430001 1.485 44 0 0 0 69.279289
0.29899999 -1.301 1.492 47 0 0 0 69.294128
0.20900001 -1.41 1.4680001 50 0 0 0 69.308968
0.26899999 -1.375 1.487 49 0 0 0 69.323807
0.32499999 -1.329 1.493 47 0 0 0 69.338646
0.37799999 -1.276 1.501 49 0 0 0 69.353485
0.31200001 -1.427 1.492 43 0 0 0 69.368324
0.36300001 -1.365 1.4960001 48 0 0 0 69.383171
0.41299999 -1.313 1.507 46 0 0 0 69.398018
0.45699999 -1.253 1.518 45 0 0 0 69.412857
0.417 -1.427 1.506 43 0 0 0 69.427696
0.461 -1.364 1.52 51 0 0 0 69.442535
0.498 -1.289 1.516 55 0 0 0 69.457375
0.53200001 -1.22 1.528 43 0 0 0 69.472214
0.52499998 -1.425 1.525 49 0 0 0 69.487053
0.55900002 -1.351 1.539 46 0 0 0 69.641098
0.58499998 -1.267 1.536 40 0 0 0 69.655937
0.60600001 -1.183 1.539 46 0 0 0 69.670776
0.63499999 -1.414 1.545 48 0 0 0 69.685616
0.65700001 -1.33 1.556 48 0 0 0 69.700455
0.671 -1.238 1.553 48 0 0 0 69.715294
0.67799997 -1.146 1.554 54 0 0 0 69.730141
0.74400002 -1.391 1.5599999 43 0 0 0 69.744987
0.75 -1.293 1.563 47 0 0 0 69.759827
0.75199997 -1.199 1.563 41 0 0 0 69.774666
0.74199998 -1.096 1.556 47 0 0 0 69.789505
0.85399997 -1.36 1.576 45 0 0 0 69.804344
0.847 -1.2589999 1.581 45 0 0 0 69.819183
0.83200002 -1.155 1.575 51 0 0 0 69.834023
0.80699998 -1.048 1.564 49 0 0 0 69.848862
0.95899999 -1.3150001 1.585 47 0 0 0 69.863708
0.93699998 -1.211 1.59 46 0 0 0 69.878555
0.90899998 -1.1059999 1.585 45 0 0 0 69.893394
0.866 -0.99400002 1.569 54 0 0 0 69.908234
1.072 -1.273 1.609 44 0 0 0 69.923073
1.03 -1.161 1.6059999 51 0 0 0 69.937912
0.98100001 -1.048 1.59 46 0 0 0 69.952751
0.92500001 -0.94 1.577 54 0 0 0 69.967598
1.178 -1.217 1.626 42 0 0 0 69.982437
1.12 -1.104 1.622 50 0 0 0 69.997276
1.05 -0.98799998 1.597 44 0 0 0 70.012123
0.98400003 -0.88599998 1.59 46 0 0 0 70.026962
1.278 -1.148 1.6390001 44 0 0 0 70.041801
1.201 -1.035 1.63 47 0 0 0 70.056641
1.123 -0.92900002 1.615 49 0 0 0 70.07148
1.039 -0.82700002 1.601 45 0 0 0 70.086319
1.38 -1.075 1.659 53 0 0 0 70.101166
1.2819999 -0.963 1.641 49 0 0 0 69.963554
1.1900001 -0.86199999 1.627 48 0 0 0 69.978394
1.09 -0.76599997 1.6109999 44 0 0 0 69.993233
1.475 -0.99199998 1.676 49 0 0 0 70.008072
1.357 -0.884 1.652 46 0 0 0 70.022911
1.249 -0.78799999 1.633 50 0 0 0 70.03775
1.135 -0.699 1.6160001 45 0 0 0 70.052589
1.5599999 -0.898 1.687 47 0 0 0 70.067436
1.427 -0.79799998 1.6619999 50 0 0 0 70.082283
1.302 -0.70899999 1.638 46 0 0 0 70.097122
1.1799999 -0.63099998 1.624 51 0 0 0 70.111961
1.636 -0.79500002 1.696 47 0 0 0 70.126801
1.492 -0.70700002 1.673 48 0 0 0 70.14164
1.353 -0.62800002 1.645 46 0 0 0 70.156479
1.221 -0.56099999 1.632 47 0 0 0 70.171318
1.7029999 -0.685 1.7029999 46 0 0 0 70.186157
1.545 -0.60900003 1.677 48 0 0 0 70.201012
1.404 -0.54500002 1.6569999 52 0 0 0 70.215851
1.258 -0.48800001 1.637 48 0 0 0 70.23069
1.766 -0.56999999 1.714 55 0 0 0 70.245529
1.598 -0.509 1.686 48 0 0 0 70.260368
1.446 -0.456 1.664 51 0 0 0 70.275208
1.29 -0.412 1.641 48 0 0 0 70.290047
1.818 -0.449 1.722 52 0 0 0 70.304893
1.645 -0.40400001 1.697 46 0 0 0 70.319733
1.475 -0.36300001 1.6619999 44 0 0 0 70.334579
1.319 -0.33399999 1.6440001 50 0 0 0 70.349419
1.852 -0.322 1.723 54 0 0 0 70.364258
1.676 -0.294 1.699 46 0 0 0 70.379097
1.502 -0.26800001 1.664 50 0 0 0 70.393936
1.344 -0.25400001 1.648 47 0 0 0 70.408775
1.877 -0.193 1.724 51 0 0 0 70.423615
1.697 -0.18000001 1.698 48 0 0 0 70.900688
1.523 -0.171 1.664 53 0 0 0 70.915535
1.363 -0.171 1.649 51 0 0 0 70.930374
1.89 -0.061000001 1.723 51 0 0 0 70.945213
1.712 -0.066 1.699 51 0 0 0 70.960052
1.536 -0.071999997 1.664 55 0 0 0 70.974899
1.376 -0.086000003 1.646 51 0 0 0 70.989738
1.89 0.07 1.719 53 0 0 0 71.004578
1.7130001 0.048999999 1.693 54 0 0 0 71.019424
1.546 0.028000001 1.666 53 0 0 0 71.034264
1.386 0 1.645 49 0 0 0 71.049103
1.8839999 0.20100001 1.719 53 0 0 0 71.063942
1.707 0.164 1.688 49 0 0 0 71.078781
1.546 0.12899999 1.663 55 0 0 0 71.09362
1.393 0.086000003 1.646 50 0 0 0 71.108467
1.8609999 0.331 1.712 52 0 0 0 71.123306
1.694 0.28 1.6849999 50 0 0 0 71.138145
1.538 0.23 1.658 52 0 0 0 71.152992
1.39 0.175 1.6390001 47 0 0 0 71.167831
1.824 0.458 1.701 50 0 0 0 71.182671
1.674 0.39399999 1.683 49 0 0 0 71.19751
1.522 0.331 1.653 53 0 0 0 71.212349
1.383 0.264 1.635 49 0 0 0 71.227196
1.783 0.58099997 1.6950001 46 0 0 0 71.242035
1.646 0.50700003 1.679 47 0 0 0 71.256882
1.503 0.43200001 1.65 48 0 0 0 71.271721
1.376 0.35499999 1.635 45 0 0 0 71.28656
1.725 0.69800001 1.682 45 0 0 0 71.301399
1.601 0.61400002 1.6670001 40 0 0 0 71.316238
1.472 0.53100002 1.641 50 0 0 0 71.331078
1.359 0.44600001 1.631 42 0 0 0 71.345917
1.663 0.81 1.6720001 51 0 0 0 71.360764
1.553 0.72000003 1.659 45 0 0 0 71.27095
1.436 0.62800002 1.633 46 0 0 0 71.285789
1.3380001 0.53799999 1.627 42 0 0 0 71.300636
1.592 0.91600001 1.661 46 0 0 0 71.315483
1.493 0.81900001 1.646 42 0 0 0 71.330322
1.398 0.72500002 1.631 46 0 0 0 71.345161
1.308 0.62800002 1.62 41 0 0 0 71.360001
1.51 1.0140001 1.646 46 0 0 0 71.37484
1.424 0.912 1.6289999 42 0 0 0 71.389679
1.345 0.815 1.618 43 0 0 0 71.404526
1.278 0.72100002 1.62 41 0 0 0 71.419365
1.4069999 1.092 1.614 35 0 0 0 71.434212
1.349 0.99800003 1.612 44 0 0 0 71.449051
1.289 0.90499997 1.609 44 0 0 0 71.46389
1.2309999 0.80500001 1.605 38 0 0 0 71.478729
1.318 1.175 1.602 37 0 0 0 71.493568
1.271 1.081 1.599 43 0 0 0 71.508408
1.225 0.98900002 1.598 41 0 0 0 71.523247
1.183 0.89200002 1.598 36 0 0 0 71.538094
1.221 1.248 1.587 39 0 0 0 71.552933
1.186 1.155 1.5829999 44 0 0 0 71.56778
1.154 1.067 1.584 40 0 0 0 71.582619
1.125 0.97399998 1.585 38 0 0 0 71.597458
1.117 1.309 1.568 45 0 0 0 71.612297
1.099 1.225 1.5700001 45 0 0 0 71.627136
1.082 1.1440001 1.575 37 0 0 0 71.641983
1.0650001 1.0549999 1.577 37 0 0 0 71.656822
1.013 1.365 1.554 41 0 0 0 71.671661
1.0039999 1.284 1.551 51 0 0 0 71.686501
0.99900001 1.21 1.558 45 0 0 0 71.701347
0.99699998 1.131 1.5650001 38 0 0 0 71.716187
0.903 1.406 1.5319999 43 0 0 0 71.731026
0.91000003 1.341 1.538 43 0 0 0 71.276443
0.91100001 1.2690001 1.54 44 0 0 0 71.291283
0.921 1.201 1.551 37 0 0 0 71.306122
0.796 1.444 1.515 39 0 0 0 71.320961
0.80900002 1.385 1.52 40 0 0 0 71.3358
0.82200003 1.326 1.526 40 0 0 0 71.350639
0.83700001 1.262 1.5319999 46 0 0 0 71.365486
0.685 1.4680001 1.494 43 0 0 0 71.380325
0.70700002 1.4220001 1.501 42 0 0 0 71.395164
0.72500002 1.369 1.5039999 37 0 0 0 71.410011
0.74699998 1.316 1.51 39 0 0 0 71.42485
0.57800001 1.4910001 1.48 45 0 0 0 71.43969
0.602 1.449 1.4809999 41 0 0 0 71.454529
0.62800002 1.41 1.487 42 0 0 0 71.469368
0.65899998 1.373 1.499 40 0 0 0 71.484207
0.47 1.502 1.462 45 0 0 0 71.499054
0.49900001 1.474 1.466 46 0 0 0 71.513893
0.528 1.444 1.471 42 0 0 0 71.528732
0.56199998 1.418 1.4809999 39 0 0 0 71.543579
0.36399999 1.508 1.447 41 0 0 0 71.558418
0.39700001 1.495 1.455 45 0 0 0 71.573257
0.42699999 1.473 1.4579999 41 0 0 0 71.588097
0.46399999 1.459 1.467 39 0 0 0 71.602943
0.25999999 1.507 1.432 42 0 0 0 71.617783
0.29300001 1.505 1.4400001 43 0 0 0 71.632622
0.32499999 1.497 1.4450001 37 0 0 0 71.647461
0.361 1.4910001 1.452 40 0 0 0 71.662308
0.156 1.484 1.404 48 0 0 0 71.677147
0.18799999 1.499 1.416 40 0 0 0 71.691986
0.22 1.505 1.424 37 0 0 0 71.706825
0.25600001 1.517 1.437 38 0 0 0 71.721664
0.057999998 1.478 1.398 42 0 0 0 71.736511
0.086999997 1.4910001 1.399 42 0 0 0 71.714127
0.116 1.508 1.406 41 0 0 0 71.728966
0.148 1.522 1.41 41 0 0 0 71.743805
-0.037 1.455 1.381 45 0 0 0 71.758652
-0.012 1.4809999 1.385 42 0 0 0 71.773491
0.012 1.5 1.386 44 0 0 0 71.78833
0.039999999 1.529 1.392 42 0 0 0 71.803169
-0.13 1.429 1.369 46 0 0 0 71.818016
-0.111 1.466 1.373 44 0 0 0 71.832855
-0.090000004 1.498 1.377 43 0 0 0 71.847694
-0.068000004 1.524 1.372 48 0 0 0 71.862534
-0.219 1.398 1.355 45 0 0 0 71.877373
-0.206 1.441 1.358 42 0 0 0 71.89222
-0.192 1.48 1.3609999 41 0 0 0 71.907059
-0.177 1.5190001 1.359 46 0 0 0 71.921898
-0.30500001 1.364 1.344 49 0 0 0 71.936737
-0.29899999 1.408 1.342 45 0 0 0 71.951584
-0.29100001 1.4529999 1.342 40 0 0 0 71.966423
-0.285 1.5039999 1.345 42 0 0 0 71.981262
-0.38499999 1.3150001 1.324 50 0 0 0 71.996101
-0.38699999 1.369 1.325 47 0 0 0 72.010941
-0.38800001 1.419 1.325 49 0 0 0 72.025787
-0.38999999 1.475 1.326 47 0 0 0 72.040627
-0.463 1.274 1.3150001 49 0 0 0 72.055473
-0.472 1.324 1.308 46 0 0 0 72.070312
-0.48300001 1.381 1.3099999 46 0 0 0 72.085152
-0.49200001 1.436 1.3049999 47 0 0 0 72.099991
-0.537 1.226 1.304 48 0 0 0 72.11483
-0.55500001 1.2819999 1.299 46 0 0 0 72.129669
-0.574 1.3380001 1.296 48 0 0 0 72.144508
-0.59500003 1.399 1.294 48 0 0 0 72.159355
-0.60699999 1.175 1.294 50 0 0 0 72.174194
-0.634 1.2309999 1.286 48 0 0 0 72.814728
-0.66100001 1.288 1.283 50 0 0 0 72.829567
-0.68900001 1.345 1.273 49 0 0 0 72.844406
-0.67299998 1.123 1.286 55 0 0 0 72.859245
-0.71200001 1.182 1.281 48 0 0 0 72.8741
-0.74699998 1.237 1.274 51 0 0 0 72.888939
-0.78600001 1.295 1.265 51 0 0 0 72.903778
-0.74299997 1.0779999 1.291 73 0 0 0 72.918617
-0.78299999 1.124 1.271 49 0 0 0 72.933456
-0.82200003 1.17 1.255 48 0 0 0 72.948296
-0.87300003 1.229 1.248 49 0 0 0 72.963135
-0.79299998 1.007 1.268 58 0 0 0 72.977982
-0.84500003 1.056 1.2539999 49 0 0 0 72.992821
-0.89999998 1.109 1.248 49 0 0 0 73.007668
-0.958 1.163 1.238 50 0 0 0 73.022507
-0.84600002 0.94599998 1.2589999 55 0 0 0 73.037346
-0.90899998 0.99400002 1.248 48 0 0 0 73.052185
-0.97299999 1.043 1.2410001 52 0 0 0 73.067024
-1.0369999 1.0880001 1.225 58 0 0 0 73.081863
-0.89700001 0.884 1.2539999 54 0 0 0 73.096703
-0.96600002 0.92400002 1.238 53 0 0 0 73.111549
-1.0369999 0.96799999 1.23 48 0 0 0 73.126389
-1.1109999 1.01 1.216 55 0 0 0 73.141235
-0.94499999 0.82099998 1.249 55 0 0 0 73.156075
-1.021 0.85600001 1.234 47 0 0 0 73.170914
-1.096 0.88999999 1.219 48 0 0 0 73.185753
-1.179 0.92699999 1.207 47 0 0 0 73.200592
-0.98900002 0.75599998 1.245 53 0 0 0 73.215439
-1.071 0.78299999 1.228 52 0 0 0 73.230278
-1.153 0.81099999 1.214 44 0 0 0 73.245117
-1.237 0.83600003 1.1950001 44 0 0 0 73.259956
-1.03 0.68900001 1.242 51 0 0 0 73.274803
-1.117 0.70899999 1.224 48 0 0 0 73.180878
-1.205 0.72899997 1.21 35 0 0 0 73.195717
-1.299 0.74800003 1.194 35 0 0 0 73.210564
-1.068 0.62199998 1.24 46 0 0 0 73.225403
-1.1619999 0.634 1.223 42 0 0 0 73.240242
-1.252 0.64399999 1.207 35 0 0 0 73.255089
-1.349 0.653 1.189 34 0 0 0 73.269928
-1.102 0.55199999 1.238 45 0 0 0 73.284767
-1.193 0.55199999 1.214 40 0 0 0 73.299606
-1.289 0.55500001 1.2 34 0 0 0 73.314445
-1.387 0.55299997 1.181 33 0 0 0 73.329285
-1.128 0.47999999 1.232 46 0 0 0 73.344131
-1.227 0.47299999 1.214 40 0 0 0 73.358978
-1.325 0.465 1.199 39 0 0 0 73.373817
-1.419 0.45199999 1.175 37 0 0 0 73.388657
-1.151 0.40599999 1.227 44 0 0 0 73.403496
-1.248 0.389 1.206 45 0 0 0 73.418335
-1.35 0.37200001 1.194 39 0 0 0 73.433174
-1.447 0.34900001 1.1720001 49 0 0 0 73.448013
-1.171 0.33199999 1.223 44 0 0 0 73.462852
-1.274 0.30700001 1.2079999 51 0 0 0 73.477699
-1.374 0.27900001 1.194 44 0 0 0 73.492546
-1.471 0.24699999 1.173 54 0 0 0 73.507385
-1.1900001 0.259 1.223 44 0 0 0 73.522224
-1.293 0.222 1.209 58 0 0 0 73.537064
-1.385 0.184 1.1900001 51 0 0 0 73.551903
-1.482 0.141 1.17 60 0 0 0 73.566742
-1.2029999 0.183 1.221 48 0 0 0 73.581581
-1.3049999 0.13699999 1.209 56 0 0 0 73.596436
-1.393 0.089000002 1.187 51 0 0 0 73.611275
-1.489 0.035999998 1.17 59 0 0 0 73.626114
-1.215 0.107 1.222 52 0 0 0 73.640953
-1.3150001 0.050999999 1.211 59 0 0 0 73.186005
-1.398 -0.0049999999 1.189 54 0 0 0 73.200851
-1.4910001 -0.068000004 1.174 59 0 0 0 73.215691
-1.224 0.030999999 1.224 51 0 0 0 73.23053
-1.314 -0.034000002 1.2079999 59 0 0 0 73.245369
-1.3940001 -0.1 1.189 58 0 0 0 73.260208
-1.482 -0.17200001 1.175 59 0 0 0 73.275055
-1.2309999 -0.046 1.228 52 0 0 0 73.289894
-1.311 -0.121 1.21 63 0 0 0 73.304733
-1.3839999 -0.19400001 1.1900001 56 0 0 0 73.319572
-1.469 -0.27599999 1.179 54 0 0 0 73.334419
-1.232 -0.125 1.2309999 57 0 0 0 73.349258
-1.301 -0.207 1.209 59 0 0 0 73.364098
-1.375 -0.289 1.197 52 0 0 0 73.378937
-1.447 -0.37799999 1.183 58 0 0 0 73.393776
-1.225 -0.204 1.23 56 0 0 0 73.408623
-1.293 -0.29300001 1.216 57 0 0 0 73.423462
-1.3609999 -0.384 1.206 51 0 0 0 73.438301
-1.4220001 -0.479 1.191 55 0 0 0 73.45314
-1.217 -0.28299999 1.234 54 0 0 0 73.467987
-1.278 -0.38 1.221 53 0 0 0 73.482826
-1.3380001 -0.477 1.2130001 53 0 0 0 73.497665
-1.39 -0.57800001 1.199 63 0 0 0 73.512512
-1.202 -0.36199999 1.234 52 0 0 0 73.527351
-1.2589999 -0.46599999 1.228 54 0 0 0 73.542191
-1.308 -0.56800002 1.219 51 0 0 0 73.55703
-1.351 -0.67400002 1.207 59 0 0 0 73.571869
-1.182 -0.44100001 1.234 49 0 0 0 73.586716
-1.2309999 -0.55000001 1.2309999 52 0 0 0 73.601555
-1.271 -0.65700001 1.225 56 0 0 0 73.616394
-1.304 -0.76700002 1.216 58 0 0 0 73.631233
-1.163 -0.52200001 1.2410001 50 0 0 0 73.64608
-1.2 -0.634 1.237 58 0 0 0 73.756905
-1.228 -0.74199998 1.2309999 57 0 0 0 73.771744
-1.251 -0.85600001 1.225 64 0 0 0 73.786583
-1.14 -0.60299999 1.248 48 0 0 0 73.801422
-1.161 -0.71499997 1.242 53 0 0 0 73.816261
-1.183 -0.82800001 1.2410001 70 0 0 0 73.8311
-1.197 -0.94400001 1.238 58 0 0 0 73.845955
-1.108 -0.68199998 1.252 49 0 0 0 73.860794
-1.124 -0.79900002 1.253 55 0 0 0 73.875633
-1.131 -0.91000003 1.25 57 0 0 0 73.890472
-1.133 -1.026 1.249 57 0 0 0 73.905312
-1.073 -0.76200002 1.258 49 0 0 0 73.920151
-1.073 -0.87400001 1.256 54 0 0 0 73.93499
-1.074 -0.98900002 1.26 54 0 0 0 73.949837
-1.063 -1.101 1.2589999 58 0 0 0 73.964684
-1.03 -0.838 1.261 48 0 0 0 73.979523
-1.024 -0.95300001 1.267 51 0 0 0 73.994362
-1.011 -1.063 1.2690001 56 0 0 0 74.009201
-0.99199998 -1.176 1.274 52 0 0 0 74.02404
-0.986 -0.917 1.2690001 49 0 0 0 74.038879
-0.96700001 -1.027 1.275 50 0 0 0 74.053719
-0.94400001 -1.1339999 1.279 51 0 0 0 74.068558
-0.912 -1.24 1.283 52 0 0 0 74.083405
-0.93400002 -0.99199998 1.275 47 0 0 0 74.098251
-0.90499997 -1.098 1.2819999 53 0 0 0 74.113091
-0.87400001 -1.204 1.293 52 0 0 0 74.12793
-0.83399999 -1.308 1.302 51 0 0 0 74.142769
-0.88200003 -1.071 1.289 52 0 0 0 74.157608
-0.84299999 -1.173 1.299 52 0 0 0 74.172447
-0.79799998 -1.267 1.3049999 46 0 0 0 74.187294
-0.74900001 -1.364 1.316 51 0 0 0 74.202133
-0.81999999 -1.145 1.299 51 0 0 0 74.216972
-0.77499998 -1.245 1.316 51 0 0 0 74.77095
-0.72000003 -1.33 1.321 52 0 0 0 74.785789
-0.65899998 -1.414 1.329 52 0 0 0 74.800629
-0.75599998 -1.221 1.313 50 0 0 0 74.815475
-0.699 -1.307 1.327 60 0 0 0 74.830322
-0.639 -1.391 1.34 47 0 0 0 74.845161
-0.57099998 -1.467 1.352 50 0 0 0 74.860001
-0.68599999 -1.296 1.331 56 0 0 0 74.87484
-0.62 -1.3710001 1.3430001 51 0 0 0 74.889679
-0.54900002 -1.436 1.349 48 0 0 0 74.904518
-0.477 -1.5089999 1.369 46 0 0 0 74.919357
-0.60699999 -1.364 1.3430001 51 0 0 0 74.934212
-0.53600001 -1.433 1.362 47 0 0 0 74.949051
-0.461 -1.4910001 1.373 44 0 0 0 74.96389
-0.38 -1.5420001 1.385 44 0 0 0 74.978729
-0.523 -1.429 1.358 50 0 0 0 74.993568
-0.44600001 -1.487 1.377 47 0 0 0 75.008408
-0.366 -1.53 1.387 42 0 0 0 75.023247
-0.28200001 -1.574 1.405 57 0 0 0 75.038086
-0.43399999 -1.4960001 1.378 46 0 0 0 75.052925
-0.352 -1.536 1.3940001 43 0 0 0 75.06778
-0.26899999 -1.574 1.411 57 0 0 0 75.082619
-0.184 -1.61 1.434 62 0 0 0 75.097458
-0.33700001 -1.55 1.391 40 0 0 0 75.112297
-0.25400001 -1.589 1.419 60 0 0 0 75.127136
-0.17 -1.622 1.444 60 0 0 0 75.141975
-0.082000002 -1.63 1.455 69 0 0 0 75.156815
-0.23899999 -1.6339999 1.436 42 0 0 0 75.171661
-0.15099999 -1.642 1.449 61 0 0 0 75.186501
-0.064999998 -1.638 1.454 64 0 0 0 75.201347
0.02 -1.635 1.4680001 56 0 0 0 75.216187
-0.127 -1.675 1.448 28 0 0 0 75.231026
-0.041999999 -1.671 1.464 35 0 0 0 74.985939
0.039999999 -1.638 1.456 40 0 0 0 75.000778
0.121 -1.614 1.464 45 0 0 0 75.015617
-0.011 -1.706 1.4579999 66 0 0 0 75.030457
0.07 -1.686 1.472 61 0 0 0 75.045296
0.147 -1.642 1.467 46 0 0 0 75.060143
0.222 -1.605 1.475 48 0 0 0 75.074982
0.108 -1.734 1.471 41 0 0 0 75.089821
0.183 -1.6900001 1.479 48 0 0 0 75.104668
0.255 -1.645 1.483 49 0 0 0 75.119507
0.32300001 -1.596 1.493 48 0 0 0 75.134346
0.23199999 -1.748 1.4809999 44 0 0 0 75.149185
0.30000001 -1.6950001 1.492 45 0 0 0 75.164024
0.36500001 -1.641 1.5 46 0 0 0 75.178864
0.42399999 -1.582 1.51 47 0 0 0 75.19371
0.361 -1.766 1.502 41 0 0 0 75.208549
0.41999999 -1.701 1.513 45 0 0 0 75.223389
0.47499999 -1.6339999 1.5190001 45 0 0 0 75.238235
0.523 -1.561 1.527 45 0 0 0 75.253075
0.49900001 -1.7869999 1.5319999 58 0 0 0 75.267914
0.54400003 -1.702 1.536 44 0 0 0 75.282753
0.58700001 -1.62 1.54 44 0 0 0 75.2976
0.62199998 -1.535 1.544 51 0 0 0 75.312439
0.63800001 -1.791 1.557 47 0 0 0 75.327278
0.66900003 -1.691 1.558 40 0 0 0 75.342117
0.699 -1.6 1.561 48 0 0 0 75.356956
0.71799999 -1.501 1.559 46 0 0 0 75.371803
0.77899998 -1.78 1.579 44 0 0 0 75.386642
0.79400003 -1.668 1.576 42 0 0 0 75.401482
0.80699998 -1.564 1.573 43 0 0 0 75.416321
0.81199998 -1.459 1.571 47 0 0 0 75.431168
0.92299998 -1.7589999 1.601 47 0 0 0 75.446007
0.92299998 -1.6440001 1.602 44 0 0 0 75.361404
0.91399997 -1.521 1.586 39 0 0 0 75.376251
0.903 -1.413 1.584 47 0 0 0 75.39109
1.068 -1.727 1.624 44 0 0 0 75.40593
1.048 -1.601 1.619 44 0 0 0 75.420769
1.027 -1.484 1.612 52 0 0 0 75.435616
0.99299997 -1.362 1.598 49 0 0 0 75.450455
1.21 -1.679 1.6440001 41 0 0 0 75.465294
1.175 -1.5549999 1.643 42 0 0 0 75.480133
1.135 -1.433 1.631 45 0 0 0 75.494972
1.082 -1.309 1.614 47 0 0 0 75.509819
1.352 -1.622 1.665 38 0 0 0 75.524658
1.298 -1.4960001 1.6619999 42 0 0 0 75.539497
1.242 -1.375 1.651 48 0 0 0 75.554337
1.17 -1.251 1.632 44 0 0 0 75.569183
1.488 -1.5470001 1.681 40 0 0 0 75.584023
1.415 -1.4220001 1.676 45 0 0 0 75.598862
1.334 -1.298 1.6569999 51 0 0 0 75.613701
1.2539999 -1.187 1.647 45 0 0 0 75.628548
1.622 -1.4630001 1.699 40 0 0 0 75.643387
1.521 -1.335 1.684 40 0 0 0 75.658226
1.427 -1.219 1.6670001 48 0 0 0 75.673073
1.325 -1.109 1.649 41 0 0 0 75.687912
1.756 -1.3710001 1.722 38 0 0 0 75.702751
1.633 -1.248 1.702 43 0 0 0 75.71759
1.524 -1.14 1.687 47 0 0 0 75.73243
1.409 -1.04 1.6720001 52 0 0 0 75.747269
1.895 -1.275 1.755 34 0 0 0 75.762115
1.738 -1.15 1.719 38 0 0 0 75.776955
1.612 -1.051 1.702 49 0 0 0 75.791794
1.477 -0.95599997 1.679 53 0 0 0 75.806641
1.998 -1.147 1.76 38 0 0 0 75.82148
1.841 -1.045 1.738 50 0 0 0 75.757965
1.691 -0.95099998 1.71 46 0 0 0 75.772804
1.544 -0.87 1.688 51 0 0 0 75.787651
2.099 -1.015 1.772 40 0 0 0 75.802498
1.928 -0.92799997 1.749 45 0 0 0 75.817337
1.765 -0.847 1.721 49 0 0 0 75.832176
1.604 -0.778 1.694 47 0 0 0 75.847015
2.188 -0.87300003 1.781 38 0 0 0 75.861855
2.0009999 -0.80000001 1.7539999 47 0 0 0 75.876694
1.835 -0.73699999 1.732 47 0 0 0 75.891533
1.661 -0.68199998 1.702 43 0 0 0 75.90638
2.2690001 -0.72399998 1.793 39 0 0 0 75.921219
2.072 -0.66900003 1.765 42 0 0 0 75.936066
1.888 -0.61900002 1.733 44 0 0 0 75.950905
1.716 -0.58399999 1.7130001 44 0 0 0 75.965744
2.3299999 -0.565 1.7970001 43 0 0 0 75.980583
2.1259999 -0.52899998 1.768 43 0 0 0 75.995422
1.936 -0.49700001 1.737 46 0 0 0 76.010262
1.763 -0.479 1.719 50 0 0 0 76.025101
2.3770001 -0.40099999 1.799 46 0 0 0 76.039955
2.1789999 -0.38699999 1.779 43 0 0 0 76.054794
1.98 -0.37200001 1.742 48 0 0 0 76.069633
1.798 -0.37 1.7180001 52 0 0 0 76.084473
2.4130001 -0.234 1.803 36 0 0 0 76.099312
2.2049999 -0.23800001 1.775 42 0 0 0 76.114151
2.01 -0.242 1.743 44 0 0 0 76.12899
1.835 -0.25799999 1.725 48 0 0 0 76.143829
2.431 -0.064000003 1.803 38 0 0 0 76.158669
2.2279999 -0.086999997 1.777 39 0 0 0 76.173523
2.0309999 -0.11 1.7410001 46 0 0 0 76.188362
1.8609999 -0.14300001 1.727 44 0 0 0 76.203201
2.4330001 0.107 1.801 36 0 0 0 76.21804
2.2409999 0.064999998 1.778 42 0 0 0 76.743095
2.049 0.024 1.745 43 0 0 0 76.757935
1.881 -0.024 1.728 45 0 0 0 76.772774
2.4200001 0.278 1.7970001 35 0 0 0 76.787613
2.2360001 0.21799999 1.775 41 0 0 0 76.80246
2.0539999 0.16 1.745 48 0 0 0 76.817299
1.8890001 0.096000001 1.725 49 0 0 0 76.832146
2.3940001 0.44600001 1.793 38 0 0 0 76.846985
2.217 0.37 1.7690001 43 0 0 0 76.861824
2.0450001 0.29800001 1.74 40 0 0 0 76.876663
1.899 0.22 1.73 45 0 0 0 76.891502
2.348 0.61000001 1.7819999 35 0 0 0 76.906342
2.1800001 0.51999998 1.757 36 0 0 0 76.921181
2.03 0.435 1.737 43 0 0 0 76.936028
1.885 0.34400001 1.719 41 0 0 0 76.950867
2.2850001 0.76700002 1.7690001 36 0 0 0 76.965714
2.142 0.66799998 1.752 35 0 0 0 76.980553
1.999 0.57099998 1.728 40 0 0 0 76.995392
1.874 0.47 1.716 43 0 0 0 77.010231
2.214 0.92000002 1.757 37 0 0 0 77.02507
2.089 0.81199998 1.743 34 0 0 0 77.039909
1.96 0.70499998 1.72 36 0 0 0 77.054749
1.852 0.597 1.712 38 0 0 0 77.069603
2.1300001 1.064 1.745 35 0 0 0 77.084442
2.0179999 0.94700003 1.727 36 0 0 0 77.099281
1.9119999 0.83600003 1.712 36 0 0 0 77.11412
1.8200001 0.72299999 1.706 38 0 0 0 77.12896
2.0739999 1.222 1.763 17 0 0 0 77.143799
1.946 1.082 1.719 40 0 0 0 77.158638
1.85 0.963 1.699 37 0 0 0 77.173477
1.773 0.84500003 1.693 36 0 0 0 77.188316
1.955 1.342 1.737 15 0 0 0 77.203171
1.872 1.214 1.717 26 0 0 0 76.959198
1.7869999 1.089 1.692 38 0 0 0 76.974045
1.721 0.96700001 1.683 35 0 0 0 76.988892
1.79 1.42 1.674 33 0 0 0 77.003731
1.784 1.339 1.71 25 0 0 0 77.01857
1.7180001 1.214 1.689 33 0 0 0 77.033409
1.6720001 1.094 1.684 46 0 0 0 77.048248
1.664 1.518 1.652 34 0 0 0 77.063087
1.635 1.411 1.65 32 0 0 0 77.077934
1.617 1.316 1.6619999 64 0 0 0 77.092773
1.59 1.2029999 1.661 43 0 0 0 77.107613
1.534 1.605 1.63 37 0 0 0 77.122459
1.52 1.505 1.6289999 33 0 0 0 77.137299
1.505 1.406 1.6289999 36 0 0 0 77.152138
1.505 1.309 1.641 32 0 0 0 77.166977
1.398 1.678 1.605 36 0 0 0 77.181816
1.398 1.587 1.605 35 0 0 0 77.196655
1.398 1.4960001 1.607 32 0 0 0 77.211502
1.4069999 1.405 1.6160001 34 0 0 0 77.226341
1.2589999 1.738 1.579 35 0 0 0 77.24118
1.275 1.664 1.585 38 0 0 0 77.256027
1.289 1.585 1.591 32 0 0 0 77.270866
1.3099999 1.5039999 1.601 37 0 0 0 77.285706
1.122 1.794 1.5599999 40 0 0 0 77.300545
1.147 1.729 1.5650001 36 0 0 0 77.315392
1.1720001 1.6619999 1.573 37 0 0 0 77.330231
1.202 1.591 1.58 36 0 0 0 77.34507
0.98500001 1.84 1.541 38 0 0 0 77.359909
1.018 1.7869999 1.546 40 0 0 0 77.374748
1.05 1.73 1.553 39 0 0 0 77.389595
1.091 1.675 1.564 37 0 0 0 77.404434
0.84500003 1.8710001 1.518 52 0 0 0 77.419273
0.88700002 1.837 1.529 42 0 0 0 77.311035
0.92500001 1.793 1.536 39 0 0 0 77.325874
0.97100002 1.748 1.545 40 0 0 0 77.340721
0.70499998 1.89 1.495 40 0 0 0 77.35556
0.74900001 1.865 1.502 48 0 0 0 77.370399
0.792 1.837 1.511 39 0 0 0 77.385239
0.84399998 1.811 1.524 38 0 0 0 77.400078
0.56699997 1.898 1.472 43 0 0 0 77.414917
0.61400002 1.892 1.483 43 0 0 0 77.429764
0.65899998 1.874 1.49 44 0 0 0 77.444603
0.71200001 1.8609999 1.5 52 0 0 0 77.459442
0.43399999 1.908 1.457 49 0 0 0 77.474289
0.47600001 1.896 1.454 38 0 0 0 77.489128
0.52399999 1.901 1.467 42 0 0 0 77.503967
0.57499999 1.9 1.476 42 0 0 0 77.518806
0.30000001 1.887 1.426 38 0 0 0 77.533646
0.34200001 1.9 1.432 38 0 0 0 77.548485
0.389 1.924 1.45 43 0 0 0 77.563332
0.43700001 1.932 1.454 40 0 0 0 77.578178
0.17200001 1.8710001 1.406 42 0 0 0 77.593018
0.20999999 1.896 1.4119999 41 0 0 0 77.607857
0.25 1.911 1.413 32 0 0 0 77.622696
0.29699999 1.955 1.434 42 0 0 0 77.637535
0.046999998 1.842 1.382 44 0 0 0 77.652374
0.081 1.8839999 1.392 43 0 0 0 77.667213
0.115 1.9119999 1.3940001 37 0 0 0 77.682053
0.154 1.946 1.399 35 0 0 0 77.696899
-0.071000002 1.8099999 1.363 45 0 0 0 77.711746
-0.045000002 1.86 1.3710001 43 0 0 0 77.726585
-0.017000001 1.897 1.372 37 0 0 0 77.741425
0.014 1.948 1.3789999 37 0 0 0 77.756264
-0.18700001 1.78 1.349 44 0 0 0 77.771103
-0.168 1.827 1.349 44 0 0 0 77.728714
-0.148 1.883 1.3559999 36 0 0 0 77.743553
-0.125 1.936 1.358 39 0 0 0 77.758392
-0.29899999 1.74 1.335 55 0 0 0 77.773232
-0.28799999 1.793 1.332 44 0 0 0 77.788078
-0.27599999 1.849 1.3329999 38 0 0 0 77.802917
-0.264 1.913 1.336 42 0 0 0 77.817757
-0.403 1.6849999 1.313 38 0 0 0 77.832603
-0.40400001 1.751 1.3150001 62 0 0 0 77.847443
-0.39899999 1.799 1.306 46 0 0 0 77.862282
-0.39700001 1.867 1.306 40 0 0 0 77.877121
-0.50300002 1.628 1.295 44 0 0 0 77.891968
-0.514 1.698 1.296 44 0 0 0 77.906807
-0.52200001 1.761 1.293 44 0 0 0 77.921646
-0.53100002 1.83 1.29 43 0 0 0 77.936485
-0.60000002 1.574 1.2819999 43 0 0 0 77.951324
-0.62 1.642 1.28 44 0 0 0 77.966171
-0.639 1.7079999 1.277 52 0 0 0 77.98101
-0.65600002 1.77 1.265 47 0 0 0 77.99585
-0.69099998 1.513 1.2690001 44 0 0 0 78.010689
-0.71899998 1.573 1.2589999 46 0 0 0 78.025536
-0.74900001 1.641 1.256 41 0 0 0 78.040375
-0.77999997 1.712 1.249 53 0 0 0 78.055214
-0.77899998 1.451 1.2589999 50 0 0 0 78.070053
-0.81800002 1.5140001 1.25 46 0 0 0 78.084892
-0.85600001 1.575 1.2410001 45 0 0 0 78.099739
-0.89999998 1.646 1.234 46 0 0 0 78.114578
-0.85900003 1.3789999 1.244 54 0 0 0 78.129425
-0.91000003 1.443 1.237 49 0 0 0 78.144264
-0.95300001 1.495 1.221 45 0 0 0 78.159103
-1.0089999 1.564 1.214 48 0 0 0 78.173943
-0.93699998 1.3099999 1.235 47 0 0 0 78.188782
-0.99400002 1.364 1.221 47 0 0 0 78.717041
-1.0470001 1.414 1.206 48 0 0 0 78.73188
-1.115 1.479 1.198 47 0 0 0 78.746719
-1.008 1.235 1.223 50 0 0 0 78.761559
-1.0700001 1.28 1.206 52 0 0 0 78.776398
-1.138 1.331 1.1950001 45 0 0 0 78.791245
-1.214 1.388 1.184 49 0 0 0 78.806091
-1.077 1.161 1.217 50 0 0 0 78.82093
-1.151 1.2029999 1.201 50 0 0 0 78.83577
-1.227 1.247 1.189 44 0 0 0 78.850609
-1.3099999 1.294 1.174 50 0 0 0 78.865448
-1.143 1.085 1.212 57 0 0 0 78.880287
-1.226 1.12 1.196 42 0 0 0 78.895126
-1.311 1.158 1.184 44 0 0 0 78.909966
-1.401 1.196 1.1670001 52 0 0 0 78.924812
-1.199 1.001 1.202 50 0 0 0 78.939659
-1.29 1.03 1.187 50 0 0 0 78.954498
-1.38 1.058 1.1720001 46 0 0 0 78.969337
-1.477 1.086 1.155 42 0 0 0 78.984177
-1.255 0.91900003 1.197 43 0 0 0 78.999016
-1.355 0.94099998 1.184 43 0 0 0 79.013855
-1.45 0.95899999 1.168 30 0 0 0 79.028702
-1.546 0.97299999 1.145 34 0 0 0 79.043541
-1.3049999 0.83399999 1.191 38 0 0 0 79.058388
-1.405 0.84299999 1.175 31 0 0 0 79.073227
-1.506 0.852 1.159 26 0 0 0 79.088066
-1.607 0.85500002 1.136 26 0 0 0 79.102905
-1.349 0.74599999 1.1849999 32 0 0 0 79.117744
-1.456 0.74599999 1.171 28 0 0 0 79.132584
-1.554 0.741 1.15 25 0 0 0 79.147423
-1.656 0.73299998 1.126 28 0 0 0 79.16227
-1.393 0.65899998 1.183 28 0 0 0 79.177109
-1.495 0.64499998 1.163 32 0 0 0 79.004417
-1.594 0.62900001 1.142 31 0 0 0 79.019257
-1.7029999 0.611 1.1210001 34 0 0 0 79.034096
-1.429 0.56800002 1.179 31 0 0 0 79.048943
-1.531 0.542 1.158 35 0 0 0 79.063782
-1.635 0.51700002 1.14 37 0 0 0 79.078621
-1.742 0.48699999 1.118 40 0 0 0 79.093468
-1.454 0.47400001 1.171 36 0 0 0 79.108307
-1.562 0.43900001 1.155 44 0 0 0 79.123146
-1.656 0.40099999 1.131 40 0 0 0 79.137985
-1.7589999 0.35800001 1.108 10 0 0 0 79.152824
-1.48 0.38 1.1670001 43 0 0 0 79.167664
-1.5829999 0.333 1.149 48 0 0 0 79.18251
-1.676 0.28400001 1.126 34 0 0 0 79.19735
-1.7869999 0.23199999 1.1109999 16 0 0 0 79.212189
-1.497 0.28400001 1.1619999 52 0 0 0 79.227036
-1.6059999 0.228 1.15 54 0 0 0 79.241875
-1.699 0.169 1.13 43 0 0 0 79.256714
-1.521 0.189 1.165 60 0 0 0 79.2864
-1.613 0.12 1.145 45 0 0 0 79.301239
-1.704 0.050999999 1.127 3 0 0 0 79.316078
-1.536 0.092 1.165 53 0 0 0 79.345757
-1.62 0.013 1.145 46 0 0 0 79.360603
-1.5420001 -0.0060000001 1.163 57 0 0 0 79.405121
-1.625 -0.093999997 1.148 44 0 0 0 79.419968
-1.714 -0.183 1.138 26 0 0 0 79.434807
-1.545 -0.105 1.164 57 0 0 0 79.464485
-1.6289999 -0.204 1.155 50 0 0 0 79.016945
-1.7029999 -0.301 1.142 47 0 0 0 79.031784
-1.78 -0.40700001 1.1289999 51 0 0 0 79.046623
-1.549 -0.207 1.17 51 0 0 0 79.06147
-1.619 -0.31200001 1.158 52 0 0 0 79.076309
-1.688 -0.419 1.148 49 0 0 0 79.091148
-1.756 -0.53299999 1.138 53 0 0 0 79.105995
-1.538 -0.30700001 1.169 55 0 0 0 79.120834
-1.6059999 -0.42199999 1.163 51 0 0 0 79.135674
-1.664 -0.53600001 1.154 47 0 0 0 79.150513
-1.723 -0.65799999 1.147 53 0 0 0 79.165352
-1.53 -0.41 1.175 54 0 0 0 79.180191
-1.58 -0.52999997 1.165 49 0 0 0 79.195038
-1.631 -0.64999998 1.16 52 0 0 0 79.209877
-1.677 -0.778 1.153 61 0 0 0 79.224716
-1.5140001 -0.514 1.178 56 0 0 0 79.239563
-1.5549999 -0.63999999 1.173 52 0 0 0 79.254402
-1.597 -0.76599997 1.171 51 0 0 0 79.269241
-1.626 -0.89600003 1.1619999 56 0 0 0 79.284081
-1.49 -0.61699998 1.182 53 0 0 0 79.298927
-1.521 -0.74699998 1.179 61 0 0 0 79.313766
-1.551 -0.87699997 1.178 55 0 0 0 79.328606
-1.569 -1.011 1.174 56 0 0 0 79.343445
-1.466 -0.72299999 1.191 54 0 0 0 79.358292
-1.485 -0.85600001 1.189 56 0 0 0 79.373131
-1.4960001 -0.986 1.186 56 0 0 0 79.38797
-1.503 -1.122 1.184 59 0 0 0 79.402809
-1.434 -0.829 1.199 52 0 0 0 79.417648
-1.439 -0.963 1.199 51 0 0 0 79.432495
-1.4400001 -1.095 1.199 50 0 0 0 79.447334
-1.431 -1.228 1.196 56 0 0 0 79.462173
-1.385 -0.92799997 1.198 59 0 0 0 79.477013
-1.386 -1.068 1.2079999 55 0 0 0 79.720062
-1.377 -1.201 1.212 50 0 0 0 79.734909
-1.357 -1.335 1.214 52 0 0 0 79.749748
-1.344 -1.036 1.212 51 0 0 0 79.764595
-1.33 -1.174 1.221 55 0 0 0 79.779434
-1.3049999 -1.302 1.224 51 0 0 0 79.794273
-1.273 -1.433 1.229 54 0 0 0 79.809113
-1.294 -1.143 1.224 50 0 0 0 79.823952
-1.268 -1.279 1.2359999 51 0 0 0 79.838799
-1.23 -1.403 1.24 51 0 0 0 79.853638
-1.187 -1.533 1.25 51 0 0 0 79.868477
-1.234 -1.247 1.234 51 0 0 0 79.883324
-1.193 -1.376 1.2460001 59 0 0 0 79.898163
-1.145 -1.497 1.2539999 51 0 0 0 79.913002
-1.089 -1.619 1.265 55 0 0 0 79.927841
-1.1720001 -1.3559999 1.251 57 0 0 0 79.94268
-1.115 -1.474 1.26 57 0 0 0 79.95752
-1.056 -1.59 1.272 49 0 0 0 79.972366
-0.986 -1.701 1.2819999 50 0 0 0 79.987206
-1.095 -1.455 1.261 51 0 0 0 80.002045
-1.03 -1.5700001 1.276 50 0 0 0 80.016891
-0.95899999 -1.676 1.288 49 0 0 0 80.031731
-0.87699997 -1.773 1.298 44 0 0 0 80.04657
-1.015 -1.558 1.277 51 0 0 0 80.061409
-0.93699998 -1.6619999 1.2920001 51 0 0 0 80.076256
-0.85500002 -1.755 1.304 44 0 0 0 80.091095
-0.76499999 -1.842 1.316 41 0 0 0 80.105934
-0.92400002 -1.655 1.2920001 49 0 0 0 80.120773
-0.83700001 -1.748 1.308 46 0 0 0 80.135612
-0.74699998 -1.832 1.323 39 0 0 0 80.150459
-0.653 -1.918 1.344 63 0 0 0 80.165298
-0.82700002 -1.753 1.309 41 0 0 0 80.180138
-0.73199999 -1.836 1.329 41 0 0 0 80.061165
-0.63599998 -1.913 1.349 60 0 0 0 80.076019
-0.53200001 -1.975 1.365 44 0 0 0 80.090858
-0.72000003 -1.845 1.327 38 0 0 0 80.105698
-0.61799997 -1.915 1.348 45 0 0 0 80.120537
-0.51599997 -1.976 1.368 42 0 0 0 80.135376
-0.40599999 -2.0220001 1.385 44 0 0 0 80.150215
-0.60799998 -1.943 1.351 48 0 0 0 80.165054
-0.50099999 -2.0020001 1.378 44 0 0 0 80.179901
-0.38999999 -2.0350001 1.3890001 42 0 0 0 80.19474
-0.27700001 -2.0599999 1.403 45 0 0 0 80.209587
-0.484 -2.03 1.374 44 0 0 0 80.224426
-0.37099999 -2.066 1.395 43 0 0 0 80.239265
-0.259 -2.085 1.41 42 0 0 0 80.254105
-0.146 -2.0940001 1.425 42 0 0 0 80.268944
-0.34999999 -2.1059999 1.393 39 0 0 0 80.283783
-0.236 -2.1240001 1.415 45 0 0 0 80.298622
-0.123 -2.1300001 1.432 41 0 0 0 80.313469
-0.011 -2.1270001 1.45 41 0 0 0 80.328316
-0.208 -2.1789999 1.416 38 0 0 0 80.343155
-0.093999997 -2.181 1.4400001 41 0 0 0 80.357994
0.016000001 -2.171 1.457 41 0 0 0 80.372833
0.124 -2.152 1.478 43 0 0 0 80.387672
-0.056000002 -2.2490001 1.442 38 0 0 0 80.402512
0.054000001 -2.24 1.471 44 0 0 0 80.417358
0.16 -2.197 1.479 38 0 0 0 80.432198
0.26199999 -2.1530001 1.493 40 0 0 0 80.447037
0.103 -2.3169999 1.474 37 0 0 0 80.461884
0.20900001 -2.27 1.4910001 36 0 0 0 80.476723
0.308 -2.2130001 1.5 38 0 0 0 80.491562
0.40200001 -2.1530001 1.515 38 0 0 0 80.506401
0.27200001 -2.359 1.497 32 0 0 0 80.52124
0.36899999 -2.2939999 1.513 37 0 0 0 81.110275
0.45899999 -2.227 1.527 40 0 0 0 81.125114
0.54400003 -2.154 1.5420001 43 0 0 0 81.139954
0.44999999 -2.3959999 1.523 41 0 0 0 81.1548
0.537 -2.3239999 1.546 33 0 0 0 81.16964
0.616 -2.2360001 1.556 40 0 0 0 81.184479
0.68699998 -2.145 1.569 44 0 0 0 81.199318
0.63700002 -2.4360001 1.5599999 32 0 0 0 81.214157
0.71100003 -2.3380001 1.577 45 0 0 0 81.228996
0.77399999 -2.2290001 1.582 40 0 0 0 81.243843
0.82700002 -2.1159999 1.587 44 0 0 0 81.25869
0.83600003 -2.467 1.601 34 0 0 0 81.273529
0.88800001 -2.339 1.608 44 0 0 0 81.288368
0.93199998 -2.2090001 1.6059999 37 0 0 0 81.303207
0.96700001 -2.0799999 1.607 40 0 0 0 81.318047
1.0369999 -2.4679999 1.632 33 0 0 0 81.332886
1.069 -2.325 1.636 38 0 0 0 81.347725
1.092 -2.1789999 1.63 35 0 0 0 81.362572
1.108 -2.0409999 1.631 38 0 0 0 81.377411
1.245 -2.4590001 1.6670001 35 0 0 0 81.392258
1.256 -2.303 1.669 36 0 0 0 81.407097
1.2539999 -2.142 1.658 35 0 0 0 81.421936
1.247 -1.9910001 1.652 39 0 0 0 81.436775
1.459 -2.434 1.7029999 36 0 0 0 81.451614
1.439 -2.2579999 1.696 38 0 0 0 81.466454
1.416 -2.0929999 1.6849999 39 0 0 0 81.481293
1.388 -1.938 1.678 37 0 0 0 81.496147
1.666 -2.378 1.73 36 0 0 0 81.510986
1.619 -2.1949999 1.719 35 0 0 0 81.525826
1.5700001 -2.0209999 1.7029999 34 0 0 0 81.540665
1.518 -1.863 1.692 35 0 0 0 81.555504
1.881 -2.313 1.762 37 0 0 0 81.570343
1.8049999 -2.125 1.749 36 0 0 0 81.328423
1.728 -1.949 1.729 33 0 0 0 81.343262
1.649 -1.7869999 1.7130001 37 0 0 0 81.358101
2.0880001 -2.224 1.791 41 0 0 0 81.372948
1.989 -2.0420001 1.78 37 0 0 0 81.387787
1.8839999 -1.862 1.753 31 0 0 0 81.402626
1.779 -1.701 1.733 34 0 0 0 81.417473
2.293 -2.1159999 1.819 36 0 0 0 81.432312
2.1589999 -1.932 1.799 38 0 0 0 81.447151
2.0350001 -1.7640001 1.777 35 0 0 0 81.46199
1.916 -1.618 1.7640001 49 0 0 0 81.47683
2.494 -1.992 1.849 42 0 0 0 81.491669
2.3329999 -1.816 1.8279999 39 0 0 0 81.506516
2.175 -1.65 1.795 37 0 0 0 81.521355
2.072 -1.54 1.812 18 0 0 0 81.536194
2.6960001 -1.854 1.883 34 0 0 0 81.551041
2.4860001 -1.675 1.844 42 0 0 0 81.56588
2.3499999 -1.551 1.845 32 0 0 0 81.580719
2.177 -1.416 1.818 22 0 0 0 81.595558
2.868 -1.684 1.903 33 0 0 0 81.610397
2.642 -1.528 1.868 43 0 0 0 81.625237
2.4460001 -1.393 1.837 38 0 0 0 81.640083
2.2609999 -1.278 1.813 43 0 0 0 81.65493
3.0420001 -1.5039999 1.931 37 0 0 0 81.669769
2.783 -1.363 1.887 42 0 0 0 81.684608
2.559 -1.242 1.848 35 0 0 0 81.699448
2.3610001 -1.146 1.825 35 0 0 0 81.714287
3.1849999 -1.302 1.948 35 0 0 0 81.729126
2.911 -1.186 1.905 40 0 0 0 81.743965
2.6689999 -1.086 1.865 34 0 0 0 81.758804
2.4449999 -1.0039999 1.831 38 0 0 0 81.773651
3.3269999 -1.089 1.971 33 0 0 0 81.788498
3.0220001 -0.99400002 1.918 45 0 0 0 81.693588
2.7720001 -0.91900003 1.88 37 0 0 0 81.708435
2.533 -0.85699999 1.842 36 0 0 0 81.723282
3.4430001 -0.86000001 1.989 33 0 0 0 81.738121
3.1099999 -0.792 1.925 40 0 0 0 81.75296
2.8429999 -0.73799998 1.881 35 0 0 0 81.767799
2.6040001 -0.70200002 1.848 35 0 0 0 81.782639
3.5179999 -0.61799997 1.994 35 0 0 0 81.797478
3.181 -0.57999998 1.931 39 0 0 0 81.812317
2.9230001 -0.55500001 1.895 43 0 0 0 81.827164
2.671 -0.54100001 1.8559999 36 0 0 0 81.842003
3.5639999 -0.36700001 1.992 36 0 0 0 81.85685
3.2309999 -0.361 1.931 36 0 0 0 81.871689
2.971 -0.36199999 1.896 39 0 0 0 81.886528
2.734 -0.375 1.868 36 0 0 0 81.901367
3.596 -0.113 1.994 34 0 0 0 81.916206
3.2720001 -0.139 1.936 33 0 0 0 81.931046
3.016 -0.16500001 1.901 36 0 0 0 81.945885
2.773 -0.2 1.867 36 0 0 0 81.960739
3.6059999 0.142 1.993 34 0 0 0 81.975578
3.29 0.086000003 1.936 31 0 0 0 81.990417
3.0369999 0.035 1.901 36 0 0 0 82.005257
2.796 -0.022 1.863 34 0 0 0 82.020096
3.575 0.39500001 1.9809999 34 0 0 0 82.034935
3.289 0.31299999 1.9349999 33 0 0 0 82.049774
3.046 0.23999999 1.899 36 0 0 0 82.064613
2.8269999 0.16 1.8710001 34 0 0 0 82.079453
3.5409999 0.64899999 1.977 35 0 0 0 82.094307
3.2550001 0.53899997 1.923 33 0 0 0 82.109146
3.029 0.44499999 1.89 37 0 0 0 82.123985
2.8410001 0.347 1.874 37 0 0 0 82.138824
3.4619999 0.88999999 1.96 36 0 0 0 82.153664
3.204 0.75999999 1.91 34 0 0 0 81.875702
3.003 0.64899999 1.8839999 37 0 0 0 81.890541
2.8329999 0.53600001 1.87 37 0 0 0 81.90538
3.369 1.125 1.944 39 0 0 0 81.920227
3.1470001 0.98000002 1.903 33 0 0 0 81.935074
2.96 0.852 1.875 35 0 0 0 81.949913
2.812 0.72600001 1.865 36 0 0 0 81.964752
3.244 1.342 1.919 33 0 0 0 81.979591
3.059 1.189 1.886 32 0 0 0 81.994431
2.9059999 1.053 1.868 35 0 0 0 82.00927
2.763 0.912 1.85 34 0 0 0 82.024109
3.0940001 1.544 1.887 35 0 0 0 82.038956
2.948 1.387 1.864 38 0 0 0 82.053795
2.822 1.2460001 1.85 33 0 0 0 82.068642
2.707 1.099 1.837 33 0 0 0 82.083481
2.927 1.724 1.852 32 0 0 0 82.09832
2.819 1.572 1.8380001 39 0 0 0 82.113159
2.711 1.423 1.822 35 0 0 0 82.127998
2.6229999 1.274 1.814 30 0 0 0 82.142838
2.743 1.886 1.813 32 0 0 0 82.157677
2.6800001 1.747 1.814 38 0 0 0 82.172531
2.5910001 1.595 1.796 32 0 0 0 82.18737
2.543 1.455 1.801 33 0 0 0 82.202209
2.5599999 2.036 1.7819999 32 0 0 0 82.217049
2.516 1.899 1.78 30 0 0 0 82.231888
2.46 1.756 1.771 31 0 0 0 82.246727
2.4330001 1.6210001 1.777 32 0 0 0 82.261566
2.365 2.165 1.7460001 31 0 0 0 82.276405
2.3410001 2.0350001 1.745 36 0 0 0 82.291245
2.3180001 1.9069999 1.744 32 0 0 0 82.306099
2.323 1.7869999 1.76 34 0 0 0 82.320938
2.1760001 2.2880001 1.72 34 0 0 0 82.335777
2.175 2.171 1.721 38 0 0 0 82.828377
2.181 2.0599999 1.729 32 0 0 0 82.843216
2.191 1.938 1.735 33 0 0 0 82.858055
1.973 2.3829999 1.686 30 0 0 0 82.872894
1.985 2.2739999 1.684 33 0 0 0 82.887741
2.01 2.1789999 1.694 29 0 0 0 82.90258
2.046 2.0780001 1.707 27 0 0 0 82.917427
1.763 2.4549999 1.648 33 0 0 0 82.932266
1.798 2.3699999 1.653 35 0 0 0 82.947105
1.8380001 2.29 1.664 31 0 0 0 82.961945
1.885 2.201 1.675 32 0 0 0 82.976784
1.558 2.516 1.615 34 0 0 0 82.991623
1.608 2.4530001 1.623 36 0 0 0 83.006462
1.658 2.3859999 1.633 31 0 0 0 83.021309
1.7180001 2.3150001 1.645 32 0 0 0 83.036156
1.3559999 2.5669999 1.586 35 0 0 0 83.050995
1.4119999 2.516 1.591 36 0 0 0 83.065834
1.476 2.4749999 1.607 30 0 0 0 83.080673
1.549 2.4260001 1.6210001 33 0 0 0 83.095512
1.151 2.592 1.55 34 0 0 0 83.110352
1.217 2.566 1.5599999 33 0 0 0 83.125198
1.2819999 2.5339999 1.5700001 31 0 0 0 83.140038
1.37 2.52 1.594 34 0 0 0 83.154877
0.954 2.6099999 1.521 33 0 0 0 83.169724
1.0190001 2.5940001 1.525 33 0 0 0 83.184563
1.091 2.5880001 1.54 29 0 0 0 83.199402
1.177 2.586 1.558 33 0 0 0 83.214241
0.759 2.612 1.4910001 32 0 0 0 83.22908
0.82599998 2.6159999 1.4960001 33 0 0 0 83.243919
0.89899999 2.6289999 1.511 28 0 0 0 83.258766
0.98199999 2.6400001 1.525 31 0 0 0 83.273605
0.56599998 2.586 1.4529999 30 0 0 0 83.288445
0.63300002 2.618 1.464 31 0 0 0 83.046982
0.70200002 2.6440001 1.476 27 0 0 0 83.061821
0.787 2.6889999 1.497 31 0 0 0 83.076668
0.384 2.5680001 1.427 30 0 0 0 83.091507
0.44499999 2.6099999 1.434 31 0 0 0 83.106346
0.509 2.648 1.443 29 0 0 0 83.121185
0.58600003 2.7060001 1.46 31 0 0 0 83.136024
0.207 2.5350001 1.4 29 0 0 0 83.150864
0.26199999 2.598 1.41 31 0 0 0 83.16571
0.31900001 2.651 1.418 28 0 0 0 83.18055
0.38699999 2.721 1.431 30 0 0 0 83.195389
0.037 2.4860001 1.37 37 0 0 0 83.210236
0.082000002 2.5550001 1.376 31 0 0 0 83.225075
0.131 2.6259999 1.385 26 0 0 0 83.239914
0.189 2.7190001 1.402 30 0 0 0 83.254753
-0.125 2.4360001 1.346 38 0 0 0 83.2696
-0.090000004 2.5090001 1.347 32 0 0 0 83.284439
-0.052000001 2.595 1.357 27 0 0 0 83.299278
-0.0070000002 2.6800001 1.362 29 0 0 0 83.314117
-0.28 2.3770001 1.322 36 0 0 0 83.328957
-0.25799999 2.4690001 1.3279999 28 0 0 0 83.343803
-0.23100001 2.5510001 1.329 27 0 0 0 83.358643
-0.199 2.6470001 1.332 28 0 0 0 83.373482
-0.428 2.3110001 1.3 34 0 0 0 83.388321
-0.417 2.398 1.298 27 0 0 0 83.403168
-0.40400001 2.4960001 1.303 26 0 0 0 83.418007
-0.38800001 2.6040001 1.306 28 0 0 0 83.432846
-0.56999999 2.2390001 1.28 31 0 0 0 83.447685
-0.56999999 2.329 1.275 39 0 0 0 83.462524
-0.56900001 2.4230001 1.274 27 0 0 0 83.477371
-0.56800002 2.5320001 1.273 27 0 0 0 83.49221
-0.70200002 2.1570001 1.257 36 0 0 0 83.507057
-0.71600002 2.25 1.252 31 0 0 0 83.65329
-0.72899997 2.348 1.25 35 0 0 0 83.668129
-0.74299997 2.4579999 1.2460001 27 0 0 0 83.682968
-0.82700002 2.0699999 1.237 39 0 0 0 83.697807
-0.85600001 2.168 1.233 33 0 0 0 83.712654
-0.88300002 2.267 1.228 39 0 0 0 83.727493
-0.91299999 2.3770001 1.222 27 0 0 0 83.742332
-0.94700003 1.984 1.221 41 0 0 0 83.757179
-0.99000001 2.0810001 1.215 38 0 0 0 83.772018
-1.026 2.1689999 1.204 33 0 0 0 83.786858
-1.071 2.277 1.196 36 0 0 0 83.801697
-1.0599999 1.893 1.205 44 0 0 0 83.816536
-1.109 1.974 1.191 40 0 0 0 83.831375
-1.1619999 2.0650001 1.182 36 0 0 0 83.846222
-1.22 2.1659999 1.171 29 0 0 0 83.861061
-1.169 1.801 1.193 43 0 0 0 83.8759
-1.23 1.878 1.178 42 0 0 0 83.890747
-1.2920001 1.96 1.164 37 0 0 0 83.905586
-1.364 2.0539999 1.151 36 0 0 0 83.920425
-1.266 1.699 1.177 54 0 0 0 83.935265
-1.344 1.778 1.166 45 0 0 0 83.950111
-1.418 1.852 1.151 42 0 0 0 83.964951
