# .PCD v0.7 - Point Cloud Data file format
VERSION 0.7
FIELDS x y z intensity normal_x normal_y normal_z curvature
SIZE 4 4 4 4 4 4 4 4
TYPE F F F F F F F F
COUNT 1 1 1 1 1 1 1 1
WIDTH 944
HEIGHT 1
VIEWPOINT 0 0 0 1 0 0 0
POINTS 944
DATA ascii
-32.490932 2.9476085 8.6977186 9 0 0 0 3.833344
-31.822552 6.081109 12.554393 6 0 0 0 3.833344
-4.0495491 1.2072017 -1.2946954 373 0 0 0 3.833344
-8.2752171 1.5953203 -0.57625812 111 0 0 0 3.833344
-6.9889855 0.64316463 -0.91401768 173 0 0 0 3.833344
-5.7717361 2.3516641 -0.88674551 154 0 0 0 3.833344
-4.1014557 0.78103405 -1.3363847 59 0 0 0 3.833344
-4.4178381 1.8100983 -1.1599545 268 0 0 0 3.833344
-6.8863115 2.0413456 -0.75122625 139 0 0 0 3.833344
-13.594278 2.6216261 2.4279075 139 0 0 0 3.833344
-8.3651514 0.77799499 -0.68315345 89 0 0 0 3.833344
-10.36175 1.9997946 -0.21737604 40 0 0 0 3.833344
-6.0047154 0.54670537 -1.0849924 202 0 0 0 3.833344
-11.899211 4.8315039 1.3017341 90 0 0 0 3.833344
-33.284801 3.049042 7.1532969 14 0 0 0 3.833344
-5.0297241 2.0550418 -1.0441358 198 0 0 0 3.833344
-3.6584222 1.0928444 -1.3762791 262 0 0 0 3.833344
-10.358914 3.0700393 -0.091724925 27 0 0 0 3.833344
-10.529069 4.2713876 0.59449989 121 0 0 0 3.833344
-4.544879 1.3520809 -1.2045201 310 0 0 0 3.833344
-10.384089 0.97040719 -0.34340444 44 0 0 0 3.833344
-13.486651 2.5959671 3.1102989 10 0 0 0 3.833344
-10.679822 3.1630697 0.44747525 135 0 0 0 3.833344
-12.563886 1.1749593 0.82171071 79 0 0 0 3.833344
-3.9583864 1.6296206 -1.2639356 352 0 0 0 3.833344
-8.2507305 2.4439578 -0.48543617 95 0 0 0 3.833344
-6.941361 1.3366932 -0.82717234 132 0 0 0 3.833344
-5.2475681 0.47075662 -1.2146158 238 0 0 0 3.833344
-5.8950443 1.7499501 -0.94445223 196 0 0 0 3.833344
-5.2060595 0.99934167 -1.1447976 250 0 0 0 3.833344
-12.372737 2.3904209 0.9661752 92 0 0 0 3.833344
-6.7771258 2.7550089 -0.68226784 124 0 0 0 3.833344
-5.9928098 1.1505744 -1.0132177 219 0 0 0 3.833344
-4.5908427 0.87773943 -1.2476647 274 0 0 0 3.833344
-13.927871 1.2980419 1.5947113 22 0 0 0 3.833344
-32.69165 2.8449736 12.354882 8 0 0 0 3.833344
-10.841801 2.0964425 0.30922675 127 0 0 0 3.833344
-32.34462 6.2160411 9.1384163 9 0 0 0 3.833344
-32.35952 2.7420013 14.119806 8 0 0 0 3.833344
-12.156026 3.604713 1.1230404 72 0 0 0 3.833344
-10.35373 4.2003293 0.038125228 37 0 0 0 3.833344
-5.1533523 1.5309398 -1.0930737 230 0 0 0 3.833344
-8.1825142 3.3204136 -0.39742187 75 0 0 0 3.833344
-32.935291 6.2639861 14.952567 8 0 0 0 3.833344
-10.963608 1.0247892 0.17612651 170 0 0 0 3.833344
-3.563796 1.4749473 -1.3472949 329 0 0 0 3.833344
-5.0170197 2.085865 -1.0441358 221 0 0 0 3.923456
-5.7480583 2.3832521 -0.88527429 163 0 0 0 3.923456
-6.7573347 2.7954011 -0.68197358 109 0 0 0 3.923456
-4.4057531 1.8367991 -1.1597102 286 0 0 0 3.923456
-5.9537416 1.1809897 -1.0076008 205 0 0 0 3.923456
-12.53757 1.2501402 0.82052761 105 0 0 0 3.923456
-5.1883435 1.0289856 -1.1421757 211 0 0 0 3.923456
-5.8775811 1.7840823 -0.94334513 164 0 0 0 3.923456
-32.64748 3.0430763 12.345036 5 0 0 0 3.923456
-12.145121 3.6827013 1.1240675 66 0 0 0 3.923456
-5.2300577 0.50154209 -1.2111346 262 0 0 0 3.923456
-13.9058 1.3820971 1.593158 25 0 0 0 3.923456
-8.2269812 2.4919345 -0.48488986 85 0 0 0 3.923456
-3.9509602 1.654984 -1.2648121 317 0 0 0 3.923456
-6.9174533 1.3761578 -0.82522523 122 0 0 0 3.923456
-11.919014 4.9249315 1.307041 58 0 0 0 3.923456
-3.6615081 1.118279 -1.3801169 316 0 0 0 3.923456
-32.095188 3.0537443 10.32962 12 0 0 0 3.923456
-12.345122 2.4637549 0.96521634 87 0 0 0 3.923456
-10.676473 3.2334626 0.44810411 121 0 0 0 3.923456
-13.470469 2.6786706 3.1102989 10 0 0 0 3.923456
-5.1391802 1.5611106 -1.092041 221 0 0 0 3.923456
-28.159748 11.65846 4.5652843 9 0 0 0 3.923456
-10.343136 1.030623 -0.34212801 47 0 0 0 3.923456
-10.948158 1.0911456 0.17601183 189 0 0 0 3.923456
-4.5401983 1.381067 -1.2055378 336 0 0 0 3.923456
-10.510972 4.3393397 0.59494263 121 0 0 0 3.923456
-13.589533 2.7073009 2.4299541 15 0 0 0 3.923456
-4.106833 0.80820543 -1.3398385 93 0 0 0 3.923456
-6.8584356 2.0789502 -0.74947602 147 0 0 0 3.923456
-13.674781 2.7242928 1.7498081 23 0 0 0 3.923456
-32.328384 2.9392564 14.113834 8 0 0 0 3.923456
-10.826773 2.1625352 0.30917719 115 0 0 0 3.923456
-10.324571 3.1289043 -0.091535039 20 0 0 0 3.923456
-6.9780049 0.68535417 -0.91307491 153 0 0 0 3.923456
-8.2437544 1.641777 -0.57465833 103 0 0 0 3.923456
-10.297256 4.2511973 0.038119469 26 0 0 0 3.923456
-8.3324604 0.82654083 -0.68075693 109 0 0 0 3.923456
-4.5853705 0.90589178 -1.2476647 298 0 0 0 3.923456
-10.333597 2.0602059 -0.21699071 41 0 0 0 3.923456
-4.0128827 1.2231419 -1.2850301 285 0 0 0 3.923456
-5.9934211 0.58277297 -1.0835236 187 0 0 0 3.923456
-8.1425962 3.3625612 -0.39638871 90 0 0 0 3.923456
-3.542537 1.4916896 -1.3425411 274 0 0 0 3.923456
-32.278881 3.1281512 8.6461029 7 0 0 0 3.923456
-12.335633 2.5406644 0.9656589 56 0 0 0 4.0322561
-10.281595 2.115509 -0.21602738 38 0 0 0 4.0322561
-3.5350475 1.5141368 -1.3432201 279 0 0 0 4.0322561
-8.1981869 2.5382366 -0.48404008 90 0 0 0 4.0322561
-31.986765 3.2415798 10.30101 21 0 0 0 4.0322561
-10.936286 1.1577735 0.17594813 169 0 0 0 4.0322561
-5.9867992 0.61923158 -1.0829728 185 0 0 0 4.0322561
-6.895268 1.415779 -0.82352149 150 0 0 0 4.0322561
-10.500727 4.4107084 0.59582824 137 0 0 0 4.0322561
-4.0180454 1.2517067 -1.2892587 292 0 0 0 4.0322561
-5.8580356 1.8174814 -0.94192165 169 0 0 0 4.0322561
-10.698437 3.3119092 0.4497318 127 0 0 0 4.0322561
-10.325686 1.0929066 -0.34172684 61 0 0 0 4.0322561
-4.5196323 1.4051701 -1.2022302 310 0 0 0 4.0322561
-5.1173563 1.5888461 -1.0893558 233 0 0 0 4.0322561
-10.282252 3.1850977 -0.091250204 26 0 0 0 4.0322561
-32.313393 3.1379194 14.115427 8 0 0 0 4.0322561
-8.2786837 0.8725118 -0.67656296 97 0 0 0 4.0322561
-4.0776072 0.82846612 -1.3316748 138 0 0 0 4.0322561
-6.8284588 2.1157017 -0.74750704 129 0 0 0 4.0322561
-32.177364 3.3177159 8.6242752 12 0 0 0 4.0322561
-12.524701 1.3265185 0.82021624 99 0 0 0 4.0322561
-5.9357648 1.2153224 -1.0057285 207 0 0 0 4.0322561
-8.1089172 3.4070494 -0.39569992 86 0 0 0 4.0322561
-4.9914789 2.1112709 -1.0413926 186 0 0 0 4.0322561
-4.5768929 0.93343133 -1.246866 241 0 0 0 4.0322561
-5.7369733 2.420012 -0.88586277 155 0 0 0 4.0322561
-6.7281284 2.8317986 -0.68069822 123 0 0 0 4.0322561
-12.116586 3.755384 1.123554 54 0 0 0 4.0322561
-13.554327 2.7868617 2.4267137 133 0 0 0 4.0322561
-3.6527882 1.1401668 -1.3794192 328 0 0 0 4.0322561
-6.9638138 0.72712278 -0.91172814 141 0 0 0 4.0322561
-5.1733284 1.0590377 -1.1402093 260 0 0 0 4.0322561
-32.646824 3.2451947 12.352069 13 0 0 0 4.0322561
-10.254378 4.3073354 0.038116325 34 0 0 0 4.0322561
-10.823091 2.2309456 0.309425 134 0 0 0 4.0322561
-5.2143035 0.53232956 -1.2081174 234 0 0 0 4.0322561
-8.2149649 1.6885107 -0.57327676 97 0 0 0 4.0322561
-4.3899345 1.8619084 -1.1584888 283 0 0 0 4.0322561
-13.641281 2.8047488 1.7477304 16 0 0 0 4.0322561
-13.899034 1.4676049 1.59338 15 0 0 0 4.0322561
-32.558098 3.3857622 7.0061498 8 0 0 0 4.0322561
-3.9275284 1.6735848 -1.2604291 314 0 0 0 4.0322561
-11.894075 5.0002851 1.3076308 72 0 0 0 4.0322561
-5.2109389 0.56431395 -1.2081174 251 0 0 0 4.1192961
-32.494907 3.5808594 6.9971876 10 0 0 0 4.1192961
-3.6430445 1.1617051 -1.3783724 322 0 0 0 4.1192961
-4.4934115 1.427318 -1.1973959 284 0 0 0 4.1192961
-13.411763 2.838517 3.1046095 5 0 0 0 4.1192961
-6.8660598 1.4537395 -0.82096589 140 0 0 0 4.1192961
-13.836434 1.546882 1.5873888 30 0 0 0 4.1192961
-13.787034 1.5291395 2.2759902 14 0 0 0 4.1192961
-8.0795918 3.4532115 -0.39525715 86 0 0 0 4.1192961
-5.704741 2.4477687 -0.88306749 165 0 0 0 4.1192961
-8.2593117 0.92173868 -0.67536473 114 0 0 0 4.1192961
-4.0102897 1.2763375 -1.2892587 284 0 0 0 4.1192961
-8.1829853 1.7343322 -0.57167697 88 0 0 0 4.1192961
-10.205684 4.3607516 0.038112137 37 0 0 0 4.1192961
-8.1567612 2.5803673 -0.48240116 96 0 0 0 4.1192961
-30.114885 9.5519066 5.8981133 11 0 0 0 4.1192961
-12.082866 3.8263516 1.1226125 89 0 0 0 4.1192961
-32.085308 3.5073097 8.6052723 10 0 0 0 4.1192961
-10.828754 2.3014717 0.30992064 124 0 0 0 4.1192961
-5.9098778 1.2478485 -1.0024946 205 0 0 0 4.1192961
-12.511367 1.4027861 0.81990492 96 0 0 0 4.1192961
-6.8039761 2.1539626 -0.74619442 155 0 0 0 4.1192961
-4.5757952 0.9624905 -1.2481971 301 0 0 0 4.1192961
-6.9464188 0.7684145 -0.90997732 171 0 0 0 4.1192961
-5.9701853 0.65455288 -1.0805858 175 0 0 0 4.1192961
-32.622574 3.4450569 12.350662 14 0 0 0 4.1192961
-6.7106261 2.8730283 -0.68069822 155 0 0 0 4.1192961
-4.0817389 0.85542083 -1.3348147 224 0 0 0 4.1192961
-13.546612 2.8720214 2.4284191 38 0 0 0 4.1192961
-11.877812 5.0794277 1.3092031 64 0 0 0 4.1192961
-3.9066513 1.6930989 -1.2569226 341 0 0 0 4.1192961
-4.9649143 2.1360555 -1.0384533 224 0 0 0 4.1192961
-10.242995 2.1731579 -0.21540122 52 0 0 0 4.1192961
-10.713168 3.3886378 0.4511005 127 0 0 0 4.1192961
-5.1457286 1.0863208 -1.1354027 255 0 0 0 4.1192961
-4.3757553 1.8876595 -1.1577559 283 0 0 0 4.1192961
-10.96276 1.2286544 0.17638132 155 0 0 0 4.1192961
-10.297932 1.1538984 -0.34096098 54 0 0 0 4.1192961
-5.0972509 1.6169639 -1.0870839 195 0 0 0 4.1192961
-5.8298297 1.8480245 -0.93907481 159 0 0 0 4.1192961
-10.249168 3.243906 -0.091084056 32 0 0 0 4.1192961
-12.319812 2.6163065 0.9656589 61 0 0 0 4.1192961
-3.5308669 1.5380471 -1.3452575 307 0 0 0 4.1192961
-10.523989 4.496623 0.59853411 103 0 0 0 4.1192961
-5.8296542 1.887408 -0.94097275 174 0 0 0 4.2283521
-10.839819 2.3734348 0.31056494 133 0 0 0 4.2283521
-3.517061 1.5577832 -1.3435597 324 0 0 0 4.2283521
-32.238712 3.5305188 14.100698 9 0 0 0 4.2283521
-5.947505 0.68901098 -1.0770973 208 0 0 0 4.2283521
-4.7268348 0.53246498 -1.3445612 7 0 0 0 4.2283521
-4.5613256 0.98870867 -1.2458011 276 0 0 0 4.2283521
-32.555237 3.6400576 12.33343 11 0 0 0 4.2283521
-8.048173 3.4983468 -0.39471596 91 0 0 0 4.2283521
-34.153095 7.4621787 6.0825272 14 0 0 0 4.2283521
-10.967923 1.2974292 0.17654695 145 0 0 0 4.2283521
-13.80497 1.6291828 1.5849478 35 0 0 0 4.2283521
-12.050629 3.89766 1.1218421 72 0 0 0 4.2283521
-32.508266 3.7843659 7.004899 17 0 0 0 4.2283521
-6.6718798 2.9050238 -0.67844182 151 0 0 0 4.2283521
-4.9427271 2.1625555 -1.0364939 231 0 0 0 4.2283521
-3.6331742 1.183167 -1.3773258 364 0 0 0 4.2283521
-4.4845691 1.4548621 -1.1973959 301 0 0 0 4.2283521
-10.50811 4.5662827 0.59917372 123 0 0 0 4.2283521
-10.247986 1.212 -0.33939281 55 0 0 0 4.2283521
-6.8531318 1.4949945 -0.82047909 175 0 0 0 4.2283521
-5.1341987 1.1168356 -1.1343102 213 0 0 0 4.2283521
-10.707389 3.4592223 0.4516924 115 0 0 0 4.2283521
-3.9014421 1.7193466 -1.2586758 306 0 0 0 4.2283521
-5.1996479 0.59538573 -1.2062607 264 0 0 0 4.2283521
-4.3640904 1.9144732 -1.1577559 259 0 0 0 4.2283521
-10.207188 3.2996612 -0.090811089 36 0 0 0 4.2283521
-6.7877941 2.1947534 -0.74586624 137 0 0 0 4.2283521
-5.6769185 2.4771962 -0.88100785 159 0 0 0 4.2283521
-8.2347021 0.97017539 -0.67373848 103 0 0 0 4.2283521
-5.8915186 1.2817806 -1.0006223 223 0 0 0 4.2283521
-32.060303 3.7037821 8.6045017 9 0 0 0 4.2283521
-30.025778 9.7268133 5.8922706 4 0 0 0 4.2283521
-6.9110651 0.8074401 -0.90580231 154 0 0 0 4.2283521
-13.606805 2.9721489 1.7478526 28 0 0 0 4.2283521
-10.195286 2.2284908 -0.2145583 52 0 0 0 4.2283521
-10.157637 4.4141312 0.038108122 39 0 0 0 4.2283521
-4.0773411 0.88065058 -1.3351287 265 0 0 0 4.2283521
-3.9996624 1.300037 -1.2883526 298 0 0 0 4.2283521
-8.1614714 1.7821672 -0.57087713 91 0 0 0 4.2283521
-10.602271 5.208426 12.372736 7 0 0 0 4.2283521
-12.282094 2.6871588 0.96403617 84 0 0 0 4.2283521
-11.857374 5.1569724 1.3103825 80 0 0 0 4.2283521
-5.0742011 1.643991 -1.0841923 253 0 0 0 4.2283521
-8.1094303 2.6202452 -0.48039806 100 0 0 0 4.2283521
-12.49856 1.4790576 0.81965584 77 0 0 0 4.2283521
-5.0649476 1.6754018 -1.0843987 252 0 0 0 4.3169279
-4.0033736 1.3284532 -1.292279 340 0 0 0 4.3169279
-8.1318951 1.8280523 -0.5694955 99 0 0 0 4.3169279
-10.876738 2.4515581 0.31187835 163 0 0 0 4.3169279
-4.5504694 1.0156265 -1.2444699 283 0 0 0 4.3169279
-32.173615 3.7233033 14.081985 9 0 0 0 4.3169279
-32.549023 3.8417215 12.339761 11 0 0 0 4.3169279
-13.539186 3.0445311 2.4335358 11 0 0 0 4.3169279
-10.146866 3.3490713 -0.090312637 40 0 0 0 4.3169279
-7.9945765 3.5335462 -0.39299402 105 0 0 0 4.3169279
-12.24008 2.7567699 0.96211839 110 0 0 0 4.3169279
-10.963725 1.3651984 0.17659791 120 0 0 0 4.3169279
-4.619586 0.54901695 -1.3140234 33 0 0 0 4.3169279
-5.9382873 0.72489232 -1.0761793 194 0 0 0 4.3169279
-8.2028875 1.017483 -0.67151314 118 0 0 0 4.3169279
-5.179482 0.62528414 -1.2023152 258 0 0 0 4.3169279
-13.784865 1.7003931 2.2788651 13 0 0 0 4.3169279
-32.44949 3.9794714 6.997396 13 0 0 0 4.3169279
-4.9347425 2.19523 -1.0376695 230 0 0 0 4.3169279
-10.505478 4.6419673 0.60055125 121 0 0 0 4.3169279
-10.193749 1.2690369 -0.33767876 62 0 0 0 4.3169279
-4.482903 1.484782 -1.1994314 330 0 0 0 4.3169279
-10.6983 3.5289247 0.45217329 127 0 0 0 4.3169279
-3.9004235 1.7475451 -1.2618902 307 0 0 0 4.3169279
-11.849175 5.240088 1.3129377 78 0 0 0 4.3169279
-5.6588988 2.5107808 -0.88056648 178 0 0 0 4.3169279
-3.5040042 1.5777932 -1.3422015 302 0 0 0 4.3169279
-10.97074 5.3703804 11.506222 11 0 0 0 4.3169279
-6.6393661 2.9394689 -0.67687213 146 0 0 0 4.3169279
-12.478355 1.554359 0.81897092 115 0 0 0 4.3169279
-5.8796968 1.3170437 -0.99994141 194 0 0 0 4.3169279
-31.986128 3.8942337 8.5908918 13 0 0 0 4.3169279
-6.8804121 0.8466689 -0.90230066 125 0 0 0 4.3169279
-29.638891 6.6664824 3.7737017 7 0 0 0 4.3169279
-4.0644474 0.90400052 -1.3326167 327 0 0 0 4.3169279
-10.14631 2.2831008 -0.21369131 44 0 0 0 4.3169279
-10.10383 4.464663 0.038103063 34 0 0 0 4.3169279
-13.762169 1.7098049 1.5812865 37 0 0 0 4.3169279
-4.3522611 1.9412147 -1.1577559 241 0 0 0 4.3169279
-6.8496399 1.5383224 -0.82120925 135 0 0 0 4.3169279
-5.1253452 1.1478903 -1.1338733 285 0 0 0 4.3169279
-3.6205096 1.2036655 -1.3752323 304 0 0 0 4.3169279
-8.0628653 2.6599524 -0.47845566 92 0 0 0 4.3169279
-5.810463 1.920665 -0.93970746 191 0 0 0 4.3169279
-6.7704234 2.2351155 -0.74542868 145 0 0 0 4.3169279
-10.476071 5.2265182 12.2629 13 0 0 0 4.3169279
-12.021755 3.9699662 1.1214142 64 0 0 0 4.3169279
-10.111657 2.3405774 -0.21318555 65 0 0 0 4.424192
-5.7835979 1.9512342 -0.93717694 221 0 0 0 4.424192
-5.8695846 1.352653 -0.99960095 231 0 0 0 4.424192
-4.9247551 2.2270813 -1.0384533 224 0 0 0 4.424192
-31.953005 4.0893183 8.5885801 12 0 0 0 4.424192
-32.406029 4.1761255 6.9934359 8 0 0 0 4.424192
-6.8207312 1.5758497 -0.81877536 161 0 0 0 4.424192
-4.0338373 0.92319506 -1.3241389 256 0 0 0 4.424192
-4.3367343 1.9662844 -1.1567787 303 0 0 0 4.424192
-10.047963 4.5138817 0.03809765 31 0 0 0 4.424192
-3.496824 1.6004353 -1.3432201 323 0 0 0 4.424192
-8.1648769 1.0636618 -0.66877419 100 0 0 0 4.424192
-13.74255 1.793056 1.5802881 35 0 0 0 4.424192
-6.8524866 0.88593495 -0.89920306 141 0 0 0 4.424192
-8.0952616 1.8720677 -0.5676049 106 0 0 0 4.424192
-12.213219 2.8295698 0.96138078 99 0 0 0 4.424192
-8.018012 2.6998239 -0.47663465 90 0 0 0 4.424192
-10.501401 4.7173824 0.6018796 94 0 0 0 4.424192
-6.6157589 2.9777043 -0.67628354 138 0 0 0 4.424192
-10.767262 5.3530087 11.327456 7 0 0 0 4.424192
-3.6077304 1.2240531 -1.373139 331 0 0 0 4.424192
-13.777109 1.7853248 2.2793441 14 0 0 0 4.424192
-5.1514263 0.65397149 -1.1965131 228 0 0 0 4.424192
-5.6415825 2.5446439 -0.88027227 163 0 0 0 4.424192
-12.466604 1.6306359 0.81884634 93 0 0 0 4.424192
-3.9897289 1.3511595 -1.2904668 281 0 0 0 4.424192
-11.834047 5.3204427 1.314805 81 0 0 0 4.424192
-11.990561 4.0414286 1.120815 82 0 0 0 4.424192
-10.114429 1.322206 -0.33505297 53 0 0 0 4.424192
-3.8904979 1.7718403 -1.2621824 311 0 0 0 4.424192
-10.680234 3.5957768 0.45232126 115 0 0 0 4.424192
-11.955981 5.6951146 9.0675974 11 0 0 0 4.424192
-4.4627128 1.5085474 -1.1963782 299 0 0 0 4.424192
-10.398163 5.2676039 12.209428 14 0 0 0 4.424192
-10.889708 1.4238647 0.17575702 178 0 0 0 4.424192
-6.7471614 2.2734439 -0.74433482 153 0 0 0 4.424192
-7.9472299 3.5710828 -0.39161646 99 0 0 0 4.424192
-4.5942245 0.57459217 -1.3075795 75 0 0 0 4.424192
-32.487679 4.0367441 12.325693 15 0 0 0 4.424192
-5.1115494 1.1777818 -1.1323439 258 0 0 0 4.424192
-5.0369568 1.7005062 -1.0804744 197 0 0 0 4.424192
-5.9376273 0.76181835 -1.0769137 194 0 0 0 4.424192
-4.5413337 1.0428805 -1.2436712 308 0 0 0 4.424192
-13.519291 3.1273265 2.4333651 16 0 0 0 4.424192
-10.108121 3.405205 -0.090087146 52 0 0 0 4.424192
-10.857594 2.5173469 0.31177923 128 0 0 0 4.424192
-10.653543 5.3782926 11.242524 10 0 0 0 4.513536
-5.0171762 1.7281963 -1.078409 238 0 0 0 4.513536
-6.5865011 3.0132797 -0.67510629 151 0 0 0 4.513536
-4.3104911 1.9863758 -1.1528701 268 0 0 0 4.513536
-5.1415319 0.68479264 -1.1951206 219 0 0 0 4.513536
-5.6204662 2.5767422 -0.87938952 163 0 0 0 4.513536
-6.7058234 2.3054342 -0.7411626 159 0 0 0 4.513536
-10.788461 2.571167 0.31041625 109 0 0 0 4.513536
-7.9188075 3.6168771 -0.39127207 110 0 0 0 4.513536
-3.9804623 1.3753035 -1.2901648 294 0 0 0 4.513536
-11.80299 5.3937812 1.3150016 84 0 0 0 4.513536
-3.6054661 1.2480041 -1.3752323 305 0 0 0 4.513536
-9.9818659 4.5580182 0.038090322 43 0 0 0 4.513536
-12.034531 5.7611423 8.1682701 19 0 0 0 4.513536
-10.052992 3.4554663 -0.089659899 66 0 0 0 4.513536
-32.371075 4.3737068 6.99156 8 0 0 0 4.513536
-4.9029756 2.2535772 -1.0366898 241 0 0 0 4.513536
-10.334902 5.3155122 12.173297 12 0 0 0 4.513536
-5.9250479 0.79718268 -1.0754448 211 0 0 0 4.513536
-12.479106 1.710223 0.82027853 74 0 0 0 4.513536
-10.083355 1.381114 -0.33421418 73 0 0 0 4.513536
-3.8595824 1.7864586 -1.2554616 357 0 0 0 4.513536
-4.5829992 0.60176438 -1.3053383 113 0 0 0 4.513536
-10.495884 4.7925067 0.60315877 86 0 0 0 4.513536
-11.84349 5.7309861 9.0089464 15 0 0 0 4.513536
-4.4350858 1.5296009 -1.1912895 258 0 0 0 4.513536
-10.963169 5.4457078 10.390079 8 0 0 0 4.513536
-11.989093 4.123023 1.1229548 83 0 0 0 4.513536
-10.891663 1.4921528 0.17589717 158 0 0 0 4.513536
-10.656079 3.6605926 0.45224729 114 0 0 0 4.513536
-4.0447307 0.95184928 -1.3297908 328 0 0 0 4.513536
-30.091509 10.346248 4.3404522 7 0 0 0 4.513536
-5.1108727 1.2106998 -1.1338733 274 0 0 0 4.513536
-10.08738 2.4002619 -0.21294472 77 0 0 0 4.513536
-31.779737 4.2089734 10.271182 19 0 0 0 4.513536
-5.7612453 1.983152 -0.9354372 177 0 0 0 4.513536
-3.4801121 1.6186951 -1.3405037 388 0 0 0 4.513536
-12.207269 2.9072292 0.96226591 70 0 0 0 4.513536
-6.8051395 1.6162939 -0.81804514 143 0 0 0 4.513536
-13.487997 3.207401 1.7400308 15 0 0 0 4.513536
-8.1305571 1.1099535 -0.66637766 101 0 0 0 4.513536
-32.434452 4.2323713 12.315143 8 0 0 0 4.513536
-6.8371034 0.92662781 -0.8978563 137 0 0 0 4.513536
-13.496972 3.2095363 2.4328535 21 0 0 0 4.513536
-13.734242 1.8777497 1.5806209 31 0 0 0 4.513536
-31.941679 4.2872319 8.592432 10 0 0 0 4.513536
-5.8381629 1.3831853 -0.99551594 196 0 0 0 4.513536
-4.5273452 1.0689518 -1.2415414 298 0 0 0 4.513536
-8.0593662 1.9159334 -0.56578702 102 0 0 0 4.513536
-7.9880786 2.744432 -0.47578484 117 0 0 0 4.513536
-12.228916 2.9917977 0.96529007 113 0 0 0 4.6208
-13.47511 3.2918239 2.4325125 20 0 0 0 4.6208
-11.285518 5.5469327 8.6113558 22 0 0 0 4.6208
-13.742435 1.9525869 2.2774277 36 0 0 0 4.6208
-10.480779 4.8635397 0.60394597 124 0 0 0 4.6208
-7.9682622 2.7924044 -0.47560275 105 0 0 0 4.6208
-11.921413 5.7972021 8.1156483 21 0 0 0 4.6208
-29.926466 10.495276 4.325963 3 0 0 0 4.6208
-5.0995555 1.2411127 -1.1329994 245 0 0 0 4.6208
-3.466711 1.6384144 -1.3391454 411 0 0 0 4.6208
-10.065788 1.4416797 -0.33388594 74 0 0 0 4.6208
-10.014615 3.5111325 -0.089446276 61 0 0 0 4.6208
-5.8966856 0.83021796 -1.0710382 152 0 0 0 4.6208
-32.306828 4.5670428 6.9836397 18 0 0 0 4.6208
-10.754032 2.6327965 0.3099454 111 0 0 0 4.6208
-12.485171 1.7891732 0.82133704 87 0 0 0 4.6208
-4.8792791 2.2790616 -1.0345343 215 0 0 0 4.6208
-4.5207009 1.0967109 -1.2415414 304 0 0 0 4.6208
-31.794828 4.4096541 10.284574 9 0 0 0 4.6208
-4.0415826 0.97731978 -1.3307328 331 0 0 0 4.6208
-6.572401 3.0557323 -0.67559677 146 0 0 0 4.6208
-4.9990921 1.7563558 -1.0767566 216 0 0 0 4.6208
-4.2911935 2.0095034 -1.1509157 270 0 0 0 4.6208
-5.8065882 1.413383 -0.99143094 200 0 0 0 4.6208
-12.207695 5.886229 7.3769965 22 0 0 0 4.6208
-31.933912 4.4858327 8.5975685 10 0 0 0 4.6208
-10.580133 5.4229722 11.200059 15 0 0 0 4.6208
-6.6615334 2.3360169 -0.7376622 150 0 0 0 4.6208
-6.8214793 0.96716529 -0.89650953 153 0 0 0 4.6208
-5.1545725 0.7187593 -1.1992981 233 0 0 0 4.6208
-11.779601 5.4707093 1.3160826 73 0 0 0 4.6208
-10.27635 5.3654003 12.142948 15 0 0 0 4.6208
-4.5697117 0.62855715 -1.3025366 174 0 0 0 4.6208
-13.368757 3.2658319 1.7274426 17 0 0 0 4.6208
-3.5924377 1.2682334 -1.373139 367 0 0 0 4.6208
-11.155178 5.5509129 9.5084839 13 0 0 0 4.6208
-12.023742 4.2176089 1.1284326 89 0 0 0 4.6208
-32.3717 4.4263554 12.301428 6 0 0 0 4.6208
-6.7777381 1.6537806 -0.81585461 151 0 0 0 4.6208
-3.8329637 1.8027955 -1.2502019 338 0 0 0 4.6208
-10.647565 3.7308633 0.45280218 139 0 0 0 4.6208
-10.050128 2.4566491 -0.21239081 66 0 0 0 4.6208
-10.848452 5.4720092 10.313175 13 0 0 0 4.6208
-10.912985 1.5633616 0.17629214 137 0 0 0 4.6208
-9.9283075 4.6074028 0.038085435 44 0 0 0 4.6208
-8.0416451 1.9639279 -0.56535071 91 0 0 0 4.6208
-7.8991842 3.6666582 -0.39141968 84 0 0 0 4.6208
-13.310259 1.9029285 1.5341334 44 0 0 0 4.6208
-5.7499003 2.0187919 -0.93559533 177 0 0 0 4.6208
-5.6063437 2.6120145 -0.87968379 163 0 0 0 4.6208
-8.0940065 1.1555816 -0.66380996 86 0 0 0 4.6208
-4.4192305 1.5545408 -1.1895086 262 0 0 0 4.6208
-3.9719486 1.3997014 -1.2901648 345 0 0 0 4.6208
-31.956894 4.2956777 14.019483 8 0 0 0 4.6208
-3.5837064 1.2899352 -1.3727901 351 0 0 0 4.7096319
-12.064246 4.3151231 1.1345096 102 0 0 0 4.7096319
-4.5619688 0.65603453 -1.3014159 205 0 0 0 4.7096319
-11.029988 5.5733585 9.430953 11 0 0 0 4.7096319
-4.836844 2.2955246 -1.0282642 251 0 0 0 4.7096319
-7.8783445 3.715909 -0.39151806 104 0 0 0 4.7096319
-10.509163 5.4682984 11.160333 32 0 0 0 4.7096319
-31.777542 4.6061649 10.287922 8 0 0 0 4.7096319
-10.758035 2.7038522 0.31046581 166 0 0 0 4.7096319
-10.769834 5.5155311 10.270522 14 0 0 0 4.7096319
-12.100291 5.9262509 7.3340797 19 0 0 0 4.7096319
-6.8183565 1.0094399 -0.89691353 147 0 0 0 4.7096319
-10.015472 2.5134001 -0.21190915 54 0 0 0 4.7096319
-4.9863787 1.7863371 -1.0763435 232 0 0 0 4.7096319
-8.0265408 2.0125053 -0.56513256 102 0 0 0 4.7096319
-10.470617 4.9371219 0.60502833 124 0 0 0 4.7096319
-5.8866181 0.86566526 -1.0701202 180 0 0 0 4.7096319
-10.21391 5.4128304 12.108263 7 0 0 0 4.7096319
-12.302209 5.9744687 6.5720391 23 0 0 0 4.7096319
-3.8183765 1.8246342 -1.2490331 318 0 0 0 4.7096319
-13.385048 3.3569782 1.7320868 11 0 0 0 4.7096319
-12.437438 1.8602729 0.81903315 105 0 0 0 4.7096319
-6.640522 2.374506 -0.73689646 118 0 0 0 4.7096319
-4.0235319 0.99912143 -1.3266509 332 0 0 0 4.7096319
-10.04094 1.5010448 -0.33330244 66 0 0 0 4.7096319
-29.907227 10.695052 4.3325367 3 0 0 0 4.7096319
-12.9553 1.9332659 1.4954123 43 0 0 0 4.7096319
-10.657411 3.8078897 0.45409691 128 0 0 0 4.7096319
-3.4540477 1.6584363 -1.3381268 365 0 0 0 4.7096319
-6.5310264 3.0853875 -0.67314422 135 0 0 0 4.7096319
-5.7920709 1.4475501 -0.99040967 168 0 0 0 4.7096319
-11.774616 5.5564666 1.3192275 94 0 0 0 4.7096319
-11.714163 5.7856331 7.9989419 19 0 0 0 4.7096319
-12.226771 3.0709083 0.96654403 95 0 0 0 4.7096319
-3.6837614 0.91187763 -1.4226972 9 0 0 0 4.7096319
-5.5785856 2.640871 -0.87777126 149 0 0 0 4.7096319
-5.1539149 0.75093764 -1.2002264 212 0 0 0 4.7096319
-11.149287 5.5652165 8.5335293 18 0 0 0 4.7096319
-4.4041462 1.57967 -1.187982 267 0 0 0 4.7096319
-9.9778166 3.5671308 -0.089256391 55 0 0 0 4.7096319
-8.0572023 1.2008032 -0.66124225 85 0 0 0 4.7096319
-3.9489293 1.4188935 -1.2853322 299 0 0 0 4.7096319
-32.35173 4.776053 6.9994802 6 0 0 0 4.7096319
-7.9528584 2.8419156 -0.47572416 127 0 0 0 4.7096319
-10.901209 1.6299965 0.17626666 145 0 0 0 4.7096319
-31.957422 4.6892743 8.6114349 6 0 0 0 4.7096319
-6.7578354 1.6929231 -0.81463766 152 0 0 0 4.7096319
-9.8817577 4.6597114 0.038081944 46 0 0 0 4.7096319
-5.0653372 1.2657486 -1.1268818 245 0 0 0 4.7096319
-4.2656426 2.0295577 -1.1472514 289 0 0 0 4.7096319
-4.5157571 1.1248953 -1.2420739 271 0 0 0 4.7096319
-31.906317 4.4883552 14.009132 6 0 0 0 4.7096319
-5.7085838 2.0437238 -0.93069243 234 0 0 0 4.7096319
-5.6792388 2.072623 -0.9278456 198 0 0 0 4.817152
-8.0359001 1.2480711 -0.66004395 77 0 0 0 4.817152
-6.4967155 3.1180913 -0.67147642 164 0 0 0 4.817152
-32.046509 4.9034142 8.6432781 11 0 0 0 4.817152
-13.716464 2.1209295 2.2772679 28 0 0 0 4.817152
-9.9930334 1.5566126 -0.33188012 63 0 0 0 4.817152
-13.381499 3.4434979 1.7342867 21 0 0 0 4.817152
-7.9315195 2.8892941 -0.47548136 102 0 0 0 4.817152
-32.060425 4.8482451 10.388667 12 0 0 0 4.817152
-12.181986 6.0087705 6.5275664 32 0 0 0 4.817152
-11.059674 5.6055431 8.4912319 16 0 0 0 4.817152
-12.188755 5.9724102 5.7041092 28 0 0 0 4.817152
-4.9863544 1.820924 -1.078822 247 0 0 0 4.817152
-4.540772 0.68143409 -1.296373 238 0 0 0 4.817152
-3.5704446 1.3099654 -1.3706967 324 0 0 0 4.817152
-10.876183 1.69454 0.17607553 155 0 0 0 4.817152
-5.7878523 1.4842873 -0.99126071 175 0 0 0 4.817152
-12.865619 2.000634 1.4866474 37 0 0 0 4.817152
-10.703281 5.5646262 10.239502 21 0 0 0 4.817152
-9.9843721 2.570816 -0.21152382 71 0 0 0 4.817152
-12.404096 1.9331644 0.81766325 91 0 0 0 4.817152
-10.468055 5.0146422 0.60655349 135 0 0 0 4.817152
-4.3916454 1.6056681 -1.1872187 279 0 0 0 4.817152
-6.7338629 1.7308944 -0.81293392 154 0 0 0 4.817152
-5.1357484 0.78049064 -1.1969773 227 0 0 0 4.817152
-4.8111806 2.3196321 -1.0257168 218 0 0 0 4.817152
-4.0053663 1.0207385 -1.322569 269 0 0 0 4.817152
-10.458013 5.5234985 11.14184 22 0 0 0 4.817152
-11.866917 5.9025874 7.2148666 15 0 0 0 4.817152
-6.775804 1.0456445 -0.89193046 141 0 0 0 4.817152
-5.0499139 1.2948642 -1.125134 255 0 0 0 4.817152
-3.9249296 1.4375285 -1.2801975 297 0 0 0 4.817152
-32.32085 4.9743204 6.9992719 9 0 0 0 4.817152
-9.9397697 3.622468 -0.089054637 65 0 0 0 4.817152
-32.225136 4.8098564 12.267315 10 0 0 0 4.817152
-12.651998 6.1635933 5.1023607 17 0 0 0 4.817152
-5.5399847 2.6643481 -0.87409323 190 0 0 0 4.817152
-12.228944 3.1513498 0.96816671 76 0 0 0 4.817152
-4.4994316 1.1501923 -1.2394116 245 0 0 0 4.817152
-11.807612 5.6608548 1.3265983 97 0 0 0 4.817152
-11.550242 5.7931566 7.9114127 23 0 0 0 4.817152
-9.8421564 4.7150764 0.038079847 39 0 0 0 4.817152
-5.8753667 0.90087068 -1.0690185 176 0 0 0 4.817152
-31.85458 4.6805735 13.998781 7 0 0 0 4.817152
-6.6211576 2.4135056 -0.73634952 146 0 0 0 4.817152
-3.8096912 1.8492793 -1.2499098 370 0 0 0 4.817152
-10.88512 5.5843163 9.336462 19 0 0 0 4.817152
-3.6437511 0.92572391 -1.4089864 43 0 0 0 4.817152
-10.741241 2.7698112 0.31046581 139 0 0 0 4.817152
-13.442288 3.4591472 2.4340475 10 0 0 0 4.817152
-7.8517923 3.7624547 -0.39132127 76 0 0 0 4.817152
-10.653564 3.8803904 0.45487374 128 0 0 0 4.817152
-4.2487421 2.053587 -1.1460298 324 0 0 0 4.817152
-7.9734755 2.0512743 -0.56207848 103 0 0 0 4.817152
-12.030053 4.3863368 1.1338248 98 0 0 0 4.817152
-10.139706 5.4534807 12.059848 6 0 0 0 4.817152
-3.4412689 1.6783645 -1.3371081 338 0 0 0 4.817152
-11.80308 5.7480035 1.3299397 74 0 0 0 4.9075198
-32.070534 5.0512509 10.401754 10 0 0 0 4.9075198
-4.4801693 1.1745971 -1.2359506 236 0 0 0 4.9075198
-10.918579 5.6185498 8.4094582 17 0 0 0 4.9075198
-10.637986 3.9488153 0.45520669 155 0 0 0 4.9075198
-5.5315337 2.702193 -0.87541735 157 0 0 0 4.9075198
-31.823446 4.8756633 13.997985 7 0 0 0 4.9075198
-12.894465 6.2930365 2.1662161 10 0 0 0 4.9075198
-13.213295 3.4867806 1.7155876 25 0 0 0 4.9075198
-5.8551693 0.93457019 -1.0662644 136 0 0 0 4.9075198
-3.7956979 1.8713542 -1.2490331 346 0 0 0 4.9075198
-9.9374809 2.6238596 -0.21075316 69 0 0 0 4.9075198
-4.5241776 0.707344 -1.2927308 266 0 0 0 4.9075198
-12.677769 6.2450967 4.3383269 31 0 0 0 4.9075198
-5.7710123 1.5177661 -0.98989904 181 0 0 0 4.9075198
-10.714419 5.5801201 9.2195597 23 0 0 0 4.9075198
-4.0137234 1.0491424 -1.3275928 344 0 0 0 4.9075198
-6.5922461 2.4488974 -0.73470873 152 0 0 0 4.9075198
-10.384101 5.5662389 11.099375 12 0 0 0 4.9075198
-10.636534 5.6131129 10.208481 34 0 0 0 4.9075198
-5.6664147 2.1074312 -0.9278456 195 0 0 0 4.9075198
-6.741869 1.0827845 -0.88815951 147 0 0 0 4.9075198
-13.690523 2.2030098 2.2751918 6 0 0 0 4.9075198
-5.0465922 1.3270676 -1.1262264 214 0 0 0 4.9075198
-6.7058401 1.7676228 -0.81074339 160 0 0 0 4.9075198
-5.1068473 0.80816829 -1.191175 197 0 0 0 4.9075198
-3.9115691 1.4599192 -1.2786874 302 0 0 0 4.9075198
-12.812879 2.0730178 1.4820986 60 0 0 0 4.9075198
-32.141369 4.9991441 12.246918 3 0 0 0 4.9075198
-4.9640822 1.8473932 -1.0763435 225 0 0 0 4.9075198
-7.8141861 3.8035743 -0.3905341 78 0 0 0 4.9075198
-10.45685 5.0883865 0.60763586 122 0 0 0 4.9075198
-4.3808041 1.6322471 -1.1869642 256 0 0 0 4.9075198
-11.593491 5.8556943 7.0708575 29 0 0 0 4.9075198
-10.747239 2.8418024 0.31106058 116 0 0 0 4.9075198
-29.118614 7.6856203 5.244257 4 0 0 0 4.9075198
-4.7995 2.3504012 -1.0263046 236 0 0 0 4.9075198
-12.016922 4.4652734 1.1351087 72 0 0 0 4.9075198
-7.9042835 2.9344342 -0.47487435 123 0 0 0 4.9075198
-7.9414525 2.0950685 -0.56062418 110 0 0 0 4.9075198
-12.372297 2.006037 0.81641793 94 0 0 0 4.9075198
-32.12653 5.1176057 8.6730661 14 0 0 0 4.9075198
-4.2203865 2.0719395 -1.1416326 245 0 0 0 4.9075198
-11.987601 6.0046821 6.4433713 24 0 0 0 4.9075198
-3.5491705 1.3269305 -1.3654633 350 0 0 0 4.9075198
-8.0162888 1.2954417 -0.65901685 111 0 0 0 4.9075198
-9.9497566 1.6124506 -0.33064017 62 0 0 0 4.9075198
-3.4317493 1.6998647 -1.3374476 396 0 0 0 4.9075198
-12.208413 3.2260709 0.96809298 85 0 0 0 4.9075198
-12.082491 6.0125842 5.6716933 30 0 0 0 4.9075198
-9.7851601 4.7618237 0.038074438 60 0 0 0 4.9075198
-12.829241 6.29459 3.6243293 15 0 0 0 4.9075198
-12.484076 6.1769028 5.0501189 35 0 0 0 4.9075198
-6.4738817 3.1561532 -0.67108399 107 0 0 0 4.9075198
-10.884334 1.7642899 0.17631762 172 0 0 0 4.9075198
-9.9079809 3.6799088 -0.088935956 69 0 0 0 4.9075198
-11.280172 5.7446976 7.7509418 29 0 0 0 4.9075198
-12.355819 2.08125 0.81616884 122 0 0 0 5.0127358
-7.8646555 2.9747601 -0.47347826 91 0 0 0 5.0127358
-11.150676 5.7652273 7.6863365 34 0 0 0 5.0127358
-3.7798662 1.8924723 -1.2475721 320 0 0 0 5.0127358
-11.989297 4.5389237 1.1351087 69 0 0 0 5.0127358
-5.7416115 1.5477571 -0.98632461 197 0 0 0 5.0127358
-28.530109 10.798972 4.1624227 7 0 0 0 5.0127358
-4.2214851 2.104707 -1.1455413 292 0 0 0 5.0127358
-3.4170508 1.7187809 -1.3357499 387 0 0 0 5.0127358
-11.816657 5.8445683 1.335345 51 0 0 0 5.0127358
-29.070908 7.8641443 5.244257 8 0 0 0 5.0127358
-5.6524534 2.1418102 -0.92768747 217 0 0 0 5.0127358
-13.319074 3.6022658 1.7318424 22 0 0 0 5.0127358
-28.334641 10.741975 5.6583872 11 0 0 0 5.0127358
-12.77052 6.3298912 2.1520927 6 0 0 0 5.0127358
-6.7272801 1.1228218 -0.88708204 172 0 0 0 5.0127358
-4.0053768 1.0732583 -1.3269649 353 0 0 0 5.0127358
-4.4579849 1.1980577 -1.2316909 253 0 0 0 5.0127358
-5.092196 0.83790118 -1.1888542 210 0 0 0 5.0127358
-32.494698 5.4101157 7.0505438 12 0 0 0 5.0127358
-5.0298753 1.35572 -1.1242601 217 0 0 0 5.0127358
-10.622904 4.0175486 0.4555766 155 0 0 0 5.0127358
-12.143291 6.1014371 4.9279962 46 0 0 0 5.0127358
-10.262685 5.5825377 11.006224 18 0 0 0 5.0127358
-11.404799 5.8485599 6.9778714 30 0 0 0 5.0127358
-7.9207463 2.1416731 -0.56004244 131 0 0 0 5.0127358
-4.928864 1.8688046 -1.0709733 249 0 0 0 5.0127358
-9.2203426 5.1063848 11.042419 11 0 0 0 5.0127358
-4.7849879 2.379806 -1.0263046 225 0 0 0 5.0127358
-10.528004 5.565495 9.088726 20 0 0 0 5.0127358
-9.7521715 4.8200035 0.038073741 47 0 0 0 5.0127358
-12.733081 6.3446612 3.6082284 51 0 0 0 5.0127358
-3.9034288 1.4842311 -1.2789894 340 0 0 0 5.0127358
-6.5752363 2.4885972 -0.73448998 175 0 0 0 5.0127358
-9.8693161 3.7346196 -0.088734202 68 0 0 0 5.0127358
-32.079594 5.1913266 12.235312 5 0 0 0 5.0127358
-12.1778 3.2980509 0.96728164 98 0 0 0 5.0127358
-4.5273309 0.73633021 -1.2949722 282 0 0 0 5.0127358
-12.752876 2.1436749 1.476773 57 0 0 0 5.0127358
-11.928432 6.027564 5.6168947 40 0 0 0 5.0127358
-6.4427972 3.1900828 -0.66980869 161 0 0 0 5.0127358
-12.539109 6.2727294 4.3041978 48 0 0 0 5.0127358
-10.875275 1.8313744 0.1763431 133 0 0 0 5.0127358
-10.44603 5.1626234 0.60876739 129 0 0 0 5.0127358
-32.080296 5.2547174 10.415147 12 0 0 0 5.0127358
-12.827182 6.3719311 2.8875616 17 0 0 0 5.0127358
-5.8425374 0.96934837 -1.0649792 158 0 0 0 5.0127358
-10.595163 5.6746716 10.202019 28 0 0 0 5.0127358
-10.738283 2.9100471 0.31128359 131 0 0 0 5.0127358
-9.8989992 2.6787765 -0.21019924 68 0 0 0 5.0127358
-4.3652811 1.6570388 -1.1854376 259 0 0 0 5.0127358
-6.6872025 1.8066633 -0.80976981 142 0 0 0 5.0127358
-7.7898054 3.8510075 -0.3904849 65 0 0 0 5.0127358
-10.80044 5.6418824 8.3451672 10 0 0 0 5.0127358
-11.725383 5.9637027 6.3224754 39 0 0 0 5.0127358
-7.991487 1.3417915 -0.65756184 97 0 0 0 5.0127358
-5.5130763 2.7352049 -0.87512308 183 0 0 0 5.0127358
-9.8992739 1.6666522 -0.32914492 65 0 0 0 5.0127358
-32.269009 5.3435502 8.7200594 6 0 0 0 5.0127358
-3.5234437 1.342018 -1.3584852 412 0 0 0 5.0127358
-9.1605043 5.1469631 11.008457 15 0 0 0 5.10464
-6.4097614 3.2228568 -0.66833711 127 0 0 0 5.10464
-11.881855 6.0617604 4.8374214 41 0 0 0 5.10464
-5.086 0.86896592 -1.1886221 205 0 0 0 5.10464
-10.206544 5.6334419 10.982937 10 0 0 0 5.10464
-6.7192879 1.1639088 -0.88694739 157 0 0 0 5.10464
-4.9026995 1.8933762 -1.0676686 258 0 0 0 5.10464
-7.7517443 3.8915689 -0.38969773 72 0 0 0 5.10464
-10.853984 1.8963449 0.17621569 167 0 0 0 5.10464
-4.4366112 1.2215464 -1.2276975 275 0 0 0 5.10464
-32.33086 5.5578341 8.745739 8 0 0 0 5.10464
-11.786962 6.047194 5.5678844 38 0 0 0 5.10464
-13.651759 2.368988 2.2734349 58 0 0 0 5.10464
-4.21455 2.1336305 -1.1472514 253 0 0 0 5.10464
-32.559193 5.6263967 7.0718031 14 0 0 0 5.10464
-10.438262 5.2387099 0.61009574 138 0 0 0 5.10464
-5.6253862 2.1711228 -0.92531508 204 0 0 0 5.10464
-6.5598431 2.5288951 -0.73448998 166 0 0 0 5.10464
-7.8360081 3.0190148 -0.47281054 98 0 0 0 5.10464
-9.8144903 3.7828832 -0.088330686 54 0 0 0 5.10464
-9.7054281 4.8712344 0.038070425 52 0 0 0 5.10464
-32.144173 5.4679251 10.446497 6 0 0 0 5.10464
-10.586832 5.6133389 8.2069969 12 0 0 0 5.10464
-29.024956 8.0431614 5.2447686 11 0 0 0 5.10464
-11.794804 5.9241061 1.3369175 32 0 0 0 5.10464
-11.087878 5.8192682 7.6675801 40 0 0 0 5.10464
-12.492777 2.1787775 1.4488139 59 0 0 0 5.10464
-7.9615111 1.3870282 -0.65567881 94 0 0 0 5.10464
-3.8978045 1.5095301 -1.2801975 356 0 0 0 5.10464
-12.305064 6.2504101 4.2373972 29 0 0 0 5.10464
-6.6635561 1.8442169 -0.80818778 173 0 0 0 5.10464
-12.359529 2.1599507 0.81722736 113 0 0 0 5.10464
-12.164062 3.3745773 0.96779794 101 0 0 0 5.10464
-4.5208349 0.76377398 -1.2944119 274 0 0 0 5.10464
-3.7613595 1.9121691 -1.2452345 323 0 0 0 5.10464
-3.4047639 1.7388613 -1.3350707 370 0 0 0 5.10464
-5.7225089 1.5803325 -0.98462254 179 0 0 0 5.10464
-11.28214 5.873405 6.9249411 36 0 0 0 5.10464
-28.46146 10.973113 4.1621547 4 0 0 0 5.10464
-11.961222 4.6124034 1.1351087 107 0 0 0 5.10464
-13.322544 3.6910799 1.7351421 22 0 0 0 5.10464
-5.4855862 2.7636476 -0.87335765 176 0 0 0 5.10464
-12.81892 6.4521313 2.1666574 19 0 0 0 5.10464
-11.513824 5.9453773 6.2283492 31 0 0 0 5.10464
-13.152278 3.6389358 3.0906048 5 0 0 0 5.10464
-9.8721275 1.7244316 -0.32852495 71 0 0 0 5.10464
-4.3442059 1.6796106 -1.1823844 274 0 0 0 5.10464
-10.632558 4.0959411 0.45694533 144 0 0 0 5.10464
-10.537343 5.7271948 10.180046 15 0 0 0 5.10464
-7.8968835 2.1873033 -0.55924255 113 0 0 0 5.10464
-31.804657 5.2730265 14.017095 8 0 0 0 5.10464
-3.9904766 1.0955496 -1.3241389 317 0 0 0 5.10464
-9.8361359 2.7266405 -0.20904325 72 0 0 0 5.10464
-4.7650414 2.4064732 -1.025129 221 0 0 0 5.10464
-5.8180757 1.0019966 -1.0614905 160 0 0 0 5.10464
-10.314124 5.5337601 8.9336643 18 0 0 0 5.10464
-12.69852 6.4054923 2.86761 39 0 0 0 5.10464
-5.006413 1.3823975 -1.1207643 215 0 0 0 5.10464
-12.544187 6.3469696 3.5660243 55 0 0 0 5.10464
-10.757792 2.9863141 0.31225005 135 0 0 0 5.10464
-6.5229201 2.5607476 -0.73197407 140 0 0 0 5.2093439
-9.7585144 3.8302498 -0.087915309 67 0 0 0 5.2093439
-13.639881 2.453234 2.2739141 48 0 0 0 5.2093439
-7.8660436 2.2308156 -0.55793369 91 0 0 0 5.2093439
-32.443626 5.7824111 8.7855425 9 0 0 0 5.2093439
-9.0854979 5.1784501 10.956429 11 0 0 0 5.2093439
-5.8011746 1.0357689 -1.0594709 156 0 0 0 5.2093439
-9.3426008 5.2321124 10.089789 15 0 0 0 5.2093439
-12.089628 6.2346592 4.176723 39 0 0 0 5.2093439
-6.3801126 3.2571535 -0.66725796 120 0 0 0 5.2093439
-12.311749 6.324615 3.5113788 67 0 0 0 5.2093439
-10.435085 5.6152368 8.1161995 19 0 0 0 5.2093439
-12.441033 2.2484853 1.444487 65 0 0 0 5.2093439
-32.135345 5.6695266 10.454715 9 0 0 0 5.2093439
-11.57778 6.0299692 5.4868441 49 0 0 0 5.2093439
-7.9224586 1.4303503 -0.65302551 97 0 0 0 5.2093439
-11.937332 4.6875296 1.1355367 80 0 0 0 5.2093439
-12.176702 3.4586916 0.97037953 66 0 0 0 5.2093439
-11.417999 5.9849453 6.1963983 33 0 0 0 5.2093439
-3.5049663 1.384467 -1.3577875 342 0 0 0 5.2093439
-9.8436613 1.7817624 -0.32786852 96 0 0 0 5.2093439
-3.3915241 1.7584238 -1.3340521 351 0 0 0 5.2093439
-12.37354 2.2407353 0.81897092 111 0 0 0 5.2093439
-28.224476 11.098228 5.6631341 6 0 0 0 5.2093439
-4.750186 2.4356656 -1.025129 243 0 0 0 5.2093439
-4.8991852 1.9266437 -1.0695275 249 0 0 0 5.2093439
-11.213243 5.9252839 6.9049129 34 0 0 0 5.2093439
-11.66565 6.0420251 4.7648263 42 0 0 0 5.2093439
-13.558993 2.4264233 2.9658539 11 0 0 0 5.2093439
-4.3293185 1.7044646 -1.1811122 301 0 0 0 5.2093439
-5.6000109 2.200906 -0.92325902 192 0 0 0 5.2093439
-9.6593161 4.9225268 0.038067281 49 0 0 0 5.2093439
-11.041414 5.8815784 7.6602859 51 0 0 0 5.2093439
-7.8015389 3.0608439 -0.47177863 97 0 0 0 5.2093439
-4.1884365 2.1528122 -1.1435869 287 0 0 0 5.2093439
-7.7054682 3.9277301 -0.38846776 80 0 0 0 5.2093439
-10.84903 1.9641573 0.17630488 165 0 0 0 5.2093439
-3.9717987 1.1166694 -1.320057 301 0 0 0 5.2093439
-28.975058 8.2211037 5.2447686 11 0 0 0 5.2093439
-10.625832 4.1684008 0.45768517 114 0 0 0 5.2093439
-11.805225 6.0203133 1.3421261 75 0 0 0 5.2093439
-5.0757842 0.89930439 -1.1874616 219 0 0 0 5.2093439
-6.6964169 1.2023046 -0.88479251 119 0 0 0 5.2093439
-4.9893856 1.4106985 -1.1187979 223 0 0 0 5.2093439
-5.4667635 2.7963548 -0.87306345 195 0 0 0 5.2093439
-5.7060671 1.613537 -0.98343104 189 0 0 0 5.2093439
-9.7445583 5.305716 8.4696894 18 0 0 0 5.2093439
-28.392673 11.147181 4.1620202 8 0 0 0 5.2093439
-3.8866949 1.5327193 -1.2795935 315 0 0 0 5.2093439
-13.148479 3.7248893 3.0949812 5 0 0 0 5.2093439
-3.7538073 1.9374013 -1.2466955 343 0 0 0 5.2093439
-13.296781 3.7719431 1.7347755 18 0 0 0 5.2093439
-12.663692 6.4717331 2.1473849 47 0 0 0 5.2093439
-4.4206834 1.2463893 -1.2253014 273 0 0 0 5.2093439
-4.4981012 0.78833401 -1.2890887 254 0 0 0 5.2093439
-6.640656 1.8818194 -0.80672741 146 0 0 0 5.2093439
-10.745035 3.0539069 0.31239873 157 0 0 0 5.2093439
-12.537631 6.421185 2.8404212 51 0 0 0 5.2093439
-9.79037 2.7787497 -0.20832075 86 0 0 0 5.2093439
-10.412151 5.3058314 0.61044014 137 0 0 0 5.2093439
-5.6960592 1.6485183 -0.98343104 171 0 0 0 5.3015041
-9.7472153 2.8312376 -0.20767049 56 0 0 0 5.3015041
-10.854464 2.0340102 0.17653421 150 0 0 0 5.3015041
-3.7401717 0.66353869 -1.4896259 6 0 0 0 5.3015041
-11.460135 6.0251179 4.6963015 53 0 0 0 5.3015041
-3.3748407 1.7761407 -1.3316752 397 0 0 0 5.3015041
-12.196427 3.5453157 0.97355127 59 0 0 0 5.3015041
-32.125252 5.8712258 10.462933 5 0 0 0 5.3015041
-7.7742682 3.1053247 -0.47123235 101 0 0 0 5.3015041
-4.4894018 0.81522948 -1.287968 258 0 0 0 5.3015041
-12.284998 3.5664115 1.6080377 30 0 0 0 5.3015041
-32.445549 5.9883938 8.7958145 11 0 0 0 5.3015041
-10.75489 3.1281593 0.31314218 164 0 0 0 5.3015041
-5.4486241 2.8293903 -0.87291628 180 0 0 0 5.3015041
-6.6616387 1.2382836 -0.88102156 150 0 0 0 5.3015041
-13.313767 3.8651872 2.4311481 7 0 0 0 5.3015041
-28.150372 11.26901 5.6620388 10 0 0 0 5.3015041
-3.9548368 1.1381272 -1.3166031 295 0 0 0 5.3015041
-5.7695813 1.0666809 -1.054697 187 0 0 0 5.3015041
-4.8818207 1.9544877 -1.0682882 230 0 0 0 5.3015041
-4.1216698 0.74062884 -1.4085566 30 0 0 0 5.3015041
-10.393596 5.3769574 0.61122733 113 0 0 0 5.3015041
-9.246953 5.2533784 10.021297 15 0 0 0 5.3015041
-13.539042 2.5086815 2.9648118 8 0 0 0 5.3015041
-11.329293 6.0273728 6.1683331 62 0 0 0 5.3015041
-9.5590191 5.348937 9.2998438 27 0 0 0 5.3015041
-3.5007534 1.4076936 -1.3595319 382 0 0 0 5.3015041
-9.7863817 1.8334608 -0.32615444 67 0 0 0 5.3015041
-12.304803 6.3976192 2.7969971 53 0 0 0 5.3015041
-10.58799 4.2287045 0.45720428 159 0 0 0 5.3015041
-12.611287 6.5288696 1.435883 58 0 0 0 5.3015041
-5.0615616 0.92884493 -1.1853728 215 0 0 0 5.3015041
-6.5052385 2.5999858 -0.73175526 151 0 0 0 5.3015041
-4.9740748 1.4393858 -1.1172686 224 0 0 0 5.3015041
-11.154206 5.9819365 6.8910842 60 0 0 0 5.3015041
-6.6146855 1.9183804 -0.80490196 146 0 0 0 5.3015041
-28.324661 11.321552 4.1621547 6 0 0 0 5.3015041
-4.4194345 1.2753634 -1.227165 249 0 0 0 5.3015041
-9.6456394 5.3288827 8.4121475 39 0 0 0 5.3015041
-3.7511721 1.9652706 -1.2499098 363 0 0 0 5.3015041
-3.8719084 1.5544096 -1.2777812 390 0 0 0 5.3015041
-4.7368917 2.4656703 -1.0255209 268 0 0 0 5.3015041
-12.441973 6.4550753 2.1169314 51 0 0 0 5.3015041
-12.037065 6.2772427 3.4445355 43 0 0 0 5.3015041
-12.392909 2.3228779 0.82108802 84 0 0 0 5.3015041
-11.768911 6.1610842 4.0795856 71 0 0 0 5.3015041
-4.167407 2.1744411 -1.1413883 265 0 0 0 5.3015041
-7.8900304 1.4745301 -0.65097129 115 0 0 0 5.3015041
-12.395744 2.3189218 1.4409366 74 0 0 0 5.3015041
-7.6599288 3.9639292 -0.38728699 92 0 0 0 5.3015041
-11.936101 4.77178 1.1381044 101 0 0 0 5.3015041
-5.5708146 2.2289934 -0.92057031 201 0 0 0 5.3015041
-7.8368831 2.2745881 -0.55677021 100 0 0 0 5.3015041
-31.931625 5.7724285 12.217377 10 0 0 0 5.3015041
-9.0074587 5.2074833 10.900789 13 0 0 0 5.3015041
-9.6958284 3.874476 -0.087416857 74 0 0 0 5.3015041
-10.329391 5.6404018 8.0609322 22 0 0 0 5.3015041
-13.628453 2.5376046 2.2745528 45 0 0 0 5.3015041
-10.967567 5.9289351 7.6342354 27 0 0 0 5.3015041
-4.3187785 1.7309966 -1.1811122 273 0 0 0 5.3015041
-11.318686 5.9836931 5.3818779 33 0 0 0 5.3015041
-9.6093864 4.9716005 0.038063444 49 0 0 0 5.3015041
-6.355588 3.2939527 -0.66676742 140 0 0 0 5.3015041
-9.4749041 5.3785048 9.250082 25 0 0 0 5.405952
-12.248047 3.6419792 0.97923082 50 0 0 0 5.405952
-11.077138 6.02843 6.8662882 33 0 0 0 5.405952
-11.836301 6.2652841 3.3984282 70 0 0 0 5.405952
-11.292891 6.0972028 6.1687651 91 0 0 0 5.405952
-3.3622189 1.7959304 -1.330996 415 0 0 0 5.405952
-3.8561196 1.5756159 -1.275667 357 0 0 0 5.405952
-11.177685 5.9972372 5.3324819 37 0 0 0 5.405952
-10.382519 5.4522319 0.61245728 122 0 0 0 5.405952
-4.0130434 0.7464487 -1.3718343 87 0 0 0 5.405952
-12.149167 6.3981719 2.074414 55 0 0 0 5.405952
-12.313309 3.6567042 1.6145152 47 0 0 0 5.405952
-4.3976603 1.2983583 -1.2231716 288 0 0 0 5.405952
-11.922286 4.8513107 1.1395595 96 0 0 0 5.405952
-5.5488019 2.2597833 -0.9191469 227 0 0 0 5.405952
-6.5742445 1.9504563 -0.80125111 166 0 0 0 5.405952
-12.33445 2.3858626 1.435611 80 0 0 0 5.405952
-4.8416448 1.9729663 -1.0618854 248 0 0 0 5.405952
-4.4805422 0.84204793 -1.2868475 260 0 0 0 5.405952
-4.1497002 2.1977055 -1.1401669 265 0 0 0 5.405952
-31.896526 5.968421 12.217728 10 0 0 0 5.405952
-3.4868453 1.4270195 -1.3574386 324 0 0 0 5.405952
-10.163092 5.6308885 7.9582915 32 0 0 0 5.405952
-7.8007894 2.3160989 -0.55509776 96 0 0 0 5.405952
-11.984263 6.32478 2.7336214 67 0 0 0 5.405952
-9.7308016 1.8849045 -0.32451335 72 0 0 0 5.405952
-9.7076197 2.8844399 -0.20711659 73 0 0 0 5.405952
-10.877838 5.9669924 7.5972438 21 0 0 0 5.405952
-32.915462 6.0818892 14.55255 5 0 0 0 5.405952
-12.685091 2.4584076 0.84057784 33 0 0 0 5.405952
-10.600727 4.3093929 0.45875797 135 0 0 0 5.405952
-11.276026 6.016984 4.6362576 65 0 0 0 5.405952
-3.9432256 1.1610298 -1.3150332 289 0 0 0 5.405952
-13.518592 2.5907865 2.9637697 16 0 0 0 5.405952
-9.1431894 5.2689438 9.9439001 14 0 0 0 5.405952
-5.7523084 1.1000239 -1.0526774 200 0 0 0 5.405952
-12.4635 6.5496807 1.4238932 56 0 0 0 5.405952
-9.5344248 5.0072379 0.038054716 62 0 0 0 5.405952
-9.657052 3.9278696 -0.087226965 72 0 0 0 5.405952
-7.8612714 1.5191242 -0.64925951 118 0 0 0 5.405952
-6.3423052 3.3365905 -0.66755229 119 0 0 0 5.405952
-32.419586 6.1895399 8.7988958 8 0 0 0 5.405952
-4.3089719 1.7578286 -1.1813667 241 0 0 0 5.405952
-8.9270201 5.2343574 10.842258 18 0 0 0 5.405952
-5.6716652 1.6792382 -0.98087794 176 0 0 0 5.405952
-6.6500235 1.2783848 -0.88048285 143 0 0 0 5.405952
-13.598086 2.6183753 2.2721572 88 0 0 0 5.405952
-7.6504979 4.018744 -0.38812336 87 0 0 0 5.405952
-6.4827175 2.6372316 -0.73098958 178 0 0 0 5.405952
-5.0357018 0.95605844 -1.180499 227 0 0 0 5.405952
-4.9595356 1.4682155 -1.1159576 241 0 0 0 5.405952
-4.7112651 2.4891999 -1.0231695 266 0 0 0 5.405952
-7.7522936 3.1518409 -0.47105023 102 0 0 0 5.405952
-11.696248 6.2147899 4.0676255 62 0 0 0 5.405952
-28.258331 11.49663 4.1626911 5 0 0 0 5.405952
-5.4075274 2.8503318 -0.86894411 180 0 0 0 5.405952
-10.846687 2.1015265 0.17659791 137 0 0 0 5.405952
-9.5801306 5.3696966 8.3836794 35 0 0 0 5.405952
-3.7153876 1.9757012 -1.2417279 293 0 0 0 5.405952
-10.792026 3.2109177 0.31460425 99 0 0 0 5.405952
-3.9842718 0.76639354 -1.3633095 158 0 0 0 5.4976001
-7.7208176 3.1943898 -0.47026113 108 0 0 0 5.4976001
-12.292293 2.4560394 1.4325045 83 0 0 0 5.4976001
-4.2936382 1.7823822 -1.1800945 272 0 0 0 5.4976001
-3.3478262 1.8147374 -1.3296378 377 0 0 0 5.4976001
-12.511237 2.5044103 0.83049047 52 0 0 0 5.4976001
-4.6872573 2.5134332 -1.0212101 211 0 0 0 5.4976001
-7.7692542 2.3587019 -0.55378884 108 0 0 0 5.4976001
-9.6955366 1.9398612 -0.32363808 84 0 0 0 5.4976001
-9.4920473 5.059535 0.038052447 52 0 0 0 5.4976001
-4.134428 2.2222095 -1.1396782 258 0 0 0 5.4976001
-11.755766 6.3153167 3.3864746 84 0 0 0 5.4976001
-3.4832151 1.4505472 -1.3595319 335 0 0 0 5.4976001
-13.506278 2.6744473 2.9646034 15 0 0 0 5.4976001
-11.098244 6.0099549 4.5785885 48 0 0 0 5.4976001
-10.836545 6.031136 7.5941176 9 0 0 0 5.4976001
-3.9432995 1.1873957 -1.3175451 352 0 0 0 5.4976001
-10.756818 3.2724187 0.31420776 141 0 0 0 5.4976001
-13.281361 4.0331454 2.4340475 6 0 0 0 5.4976001
-9.5559969 5.4334869 8.3915529 42 0 0 0 5.4976001
-5.3707423 2.8732061 -0.86570746 193 0 0 0 5.4976001
-4.9485655 1.4980531 -1.1155207 217 0 0 0 5.4976001
-5.0230603 0.98562253 -1.1788744 227 0 0 0 5.4976001
-13.600159 2.7054272 2.2751918 6 0 0 0 5.4976001
-9.6198339 3.981698 -0.087060817 74 0 0 0 5.4976001
-10.596249 4.383522 0.45964578 135 0 0 0 5.4976001
-11.747124 5.0774598 12.925367 5 0 0 0 5.4976001
-9.0748215 5.3040066 9.9048586 18 0 0 0 5.4976001
-11.916229 4.9342813 1.1417848 69 0 0 0 5.4976001
-5.7358084 1.1333864 -1.0508413 155 0 0 0 5.4976001
-12.129757 6.4696932 1.3910685 66 0 0 0 5.4976001
-4.8195047 1.9985168 -1.0596133 229 0 0 0 5.4976001
-7.8185859 1.5606835 -0.64634943 117 0 0 0 5.4976001
-6.321713 3.3754435 -0.66755229 119 0 0 0 5.4976001
-7.6159978 4.0604467 -0.38758218 88 0 0 0 5.4976001
-32.435989 6.3992028 8.8137903 5 0 0 0 5.4976001
-5.6461654 1.7094351 -0.9781546 190 0 0 0 5.4976001
-6.6342802 1.3176156 -0.87940544 156 0 0 0 5.4976001
-8.8317356 5.251616 10.765662 20 0 0 0 5.4976001
-4.4686956 0.86823654 -1.2848862 309 0 0 0 5.4976001
-12.179672 3.7031336 0.97569031 73 0 0 0 5.4976001
-9.9015398 5.5657706 7.7806444 28 0 0 0 5.4976001
-5.5275335 2.290765 -0.91788167 216 0 0 0 5.4976001
-10.963203 5.9691586 5.2479687 49 0 0 0 5.4976001
-10.968366 6.0567937 6.8219409 15 0 0 0 5.4976001
-9.3649902 5.3924031 9.1751156 19 0 0 0 5.4976001
-3.8446186 1.5985155 -1.2750629 319 0 0 0 5.4976001
-9.6715651 2.9384265 -0.206659 70 0 0 0 5.4976001
-11.883842 6.3653378 2.7197335 82 0 0 0 5.4976001
-10.835549 2.1684341 0.17662339 125 0 0 0 5.4976001
-6.5479069 1.9864333 -0.79942566 145 0 0 0 5.4976001
-4.3988376 1.3281063 -1.2258339 275 0 0 0 5.4976001
