# .PCD v0.7 - Point Cloud Data file format
VERSION 0.7
FIELDS x y z intensity normal_x normal_y normal_z curvature
SIZE 4 4 4 4 4 4 4 4
TYPE F F F F F F F F
COUNT 1 1 1 1 1 1 1 1
WIDTH 1116
HEIGHT 1
VIEWPOINT 0 0 0 1 0 0 0
POINTS 1116
DATA ascii
-0.89300001 -1.071 1.277 51 0 0 0 51.920868
-0.92699999 -1.16 1.278 52 0 0 0 51.935707
-0.95499998 -1.251 1.272 54 0 0 0 51.950554
-0.80299997 -1.05 1.2920001 50 0 0 0 51.965393
-0.824 -1.133 1.288 49 0 0 0 51.980232
-0.85000002 -1.228 1.293 56 0 0 0 51.995071
-0.86400002 -1.319 1.288 51 0 0 0 52.009911
-0.74199998 -1.109 1.304 49 0 0 0 52.024757
-0.75300002 -1.194 1.303 49 0 0 0 52.039597
-0.764 -1.285 1.304 47 0 0 0 52.054436
-0.76999998 -1.383 1.306 57 0 0 0 52.069279
-0.67699999 -1.163 1.314 48 0 0 0 52.084122
-0.67900002 -1.253 1.319 48 0 0 0 52.098961
-0.68000001 -1.347 1.325 52 0 0 0 52.1138
-0.67199999 -1.442 1.3279999 50 0 0 0 52.128639
-0.611 -1.219 1.33 48 0 0 0 52.143482
-0.60399997 -1.3150001 1.3430001 56 0 0 0 52.158325
-0.58899999 -1.4 1.344 48 0 0 0 52.173164
-0.56999999 -1.493 1.349 45 0 0 0 52.188007
-0.54100001 -1.276 1.349 52 0 0 0 52.202847
-0.52100003 -1.364 1.36 49 0 0 0 52.21769
-0.49399999 -1.443 1.359 49 0 0 0 52.232529
-0.463 -1.5369999 1.37 42 0 0 0 52.866035
-0.46700001 -1.326 1.3660001 52 0 0 0 52.880875
-0.433 -1.406 1.374 47 0 0 0 52.895718
-0.39700001 -1.487 1.382 44 0 0 0 52.910561
-0.35299999 -1.5700001 1.39 47 0 0 0 52.9254
-0.38800001 -1.373 1.383 50 0 0 0 52.940239
-0.34400001 -1.448 1.3940001 43 0 0 0 52.955078
-0.29699999 -1.525 1.405 41 0 0 0 52.969921
-0.244 -1.613 1.427 50 0 0 0 52.984764
-0.30399999 -1.4119999 1.397 50 0 0 0 52.999603
-0.249 -1.48 1.409 48 0 0 0 53.014442
-0.19400001 -1.5549999 1.428 45 0 0 0 53.029289
-0.13 -1.6440001 1.461 58 0 0 0 53.044128
-0.21699999 -1.4529999 1.416 46 0 0 0 53.058968
-0.154 -1.515 1.433 45 0 0 0 53.073807
-0.088 -1.58 1.4529999 90 0 0 0 53.08865
-0.013 -1.646 1.477 51 0 0 0 53.103493
-0.127 -1.488 1.4349999 47 0 0 0 53.118332
-0.055 -1.5420001 1.456 46 0 0 0 53.133171
0.018999999 -1.6109999 1.4910001 61 0 0 0 53.148018
0.103 -1.651 1.5039999 30 0 0 0 53.162857
-0.032000002 -1.511 1.447 42 0 0 0 53.177696
0.046 -1.5650001 1.48 53 0 0 0 53.192535
0.13 -1.623 1.518 34 0 0 0 53.207375
0.215 -1.613 1.499 46 0 0 0 53.222221
0.064999998 -1.551 1.482 55 0 0 0 53.237061
0.154 -1.604 1.527 32 0 0 0 53.2519
0.236 -1.5880001 1.508 53 0 0 0 53.266743
0.32800001 -1.595 1.52 47 0 0 0 53.281586
0.17 -1.595 1.525 32 0 0 0 53.296425
0.25600001 -1.576 1.515 39 0 0 0 53.311264
0.34299999 -1.569 1.52 46 0 0 0 53.326103
0.43700001 -1.5650001 1.5369999 48 0 0 0 53.107742
0.27000001 -1.568 1.508 42 0 0 0 53.122585
0.36199999 -1.566 1.529 46 0 0 0 53.137424
0.44999999 -1.549 1.538 43 0 0 0 53.152267
0.54500002 -1.529 1.556 43 0 0 0 53.167107
0.37599999 -1.569 1.523 45 0 0 0 53.18195
0.46900001 -1.5549999 1.5470001 46 0 0 0 53.196793
0.55800003 -1.527 1.5599999 45 0 0 0 53.211632
0.64700001 -1.484 1.572 44 0 0 0 53.226471
0.48500001 -1.568 1.5420001 43 0 0 0 53.24131
0.57499999 -1.534 1.563 42 0 0 0 53.256153
0.662 -1.492 1.579 45 0 0 0 53.270996
0.75099999 -1.441 1.599 43 0 0 0 53.285835
0.597 -1.562 1.5650001 43 0 0 0 53.300674
0.685 -1.5140001 1.5880001 45 0 0 0 53.315521
0.76700002 -1.4579999 1.605 41 0 0 0 53.33036
0.84200001 -1.378 1.61 45 0 0 0 53.3452
0.71200001 -1.55 1.59 41 0 0 0 53.360039
0.792 -1.483 1.609 44 0 0 0 53.374882
0.86400002 -1.405 1.617 41 0 0 0 53.389725
0.93099999 -1.313 1.625 41 0 0 0 53.404564
0.82700002 -1.527 1.612 40 0 0 0 53.419403
0.89700001 -1.442 1.627 46 0 0 0 53.43425
0.95899999 -1.349 1.633 41 0 0 0 53.449089
1.011 -1.238 1.633 41 0 0 0 53.463928
0.93599999 -1.487 1.625 37 0 0 0 53.478767
0.99699998 -1.3890001 1.64 43 0 0 0 53.493607
1.048 -1.284 1.646 40 0 0 0 53.508453
1.089 -1.165 1.649 40 0 0 0 53.523293
1.054 -1.452 1.652 49 0 0 0 53.538132
1.097 -1.3329999 1.6569999 43 0 0 0 53.552975
1.13 -1.212 1.655 40 0 0 0 53.567818
1.1619999 -1.086 1.665 45 0 0 0 53.460548
1.165 -1.4 1.67 43 0 0 0 53.475388
1.192 -1.268 1.6720001 41 0 0 0 53.490231
1.2130001 -1.14 1.6720001 36 0 0 0 53.505074
1.221 -0.99900001 1.67 39 0 0 0 53.519913
1.276 -1.34 1.691 43 0 0 0 53.534752
1.2869999 -1.2 1.692 36 0 0 0 53.549591
1.289 -1.0599999 1.686 41 0 0 0 53.564438
1.279 -0.912 1.6799999 40 0 0 0 53.579277
1.381 -1.2690001 1.707 40 0 0 0 53.594116
1.381 -1.126 1.714 46 0 0 0 53.608959
1.3559999 -0.97299999 1.6950001 38 0 0 0 53.623798
1.327 -0.82099998 1.687 42 0 0 0 53.638641
1.482 -1.189 1.724 45 0 0 0 53.653481
1.462 -1.039 1.726 49 0 0 0 53.66832
1.416 -0.88200003 1.7029999 36 0 0 0 53.683163
1.369 -0.72799999 1.692 43 0 0 0 53.698006
1.575 -1.098 1.7359999 44 0 0 0 53.712845
1.529 -0.94099998 1.729 45 0 0 0 53.727688
1.467 -0.78600001 1.707 37 0 0 0 53.742527
1.4069999 -0.63499999 1.7 46 0 0 0 53.757366
1.6670001 -1.003 1.7539999 46 0 0 0 53.772209
1.595 -0.84200001 1.737 45 0 0 0 53.787048
1.525 -0.69300002 1.725 54 0 0 0 53.801891
1.431 -0.53799999 1.698 46 0 0 0 53.81673
1.7410001 -0.89200002 1.758 41 0 0 0 53.831573
1.655 -0.73799998 1.7460001 45 0 0 0 53.846416
1.564 -0.59100002 1.728 53 0 0 0 53.861256
1.456 -0.44400001 1.704 48 0 0 0 53.876095
1.813 -0.77899998 1.7690001 42 0 0 0 53.890938
1.707 -0.62900001 1.7539999 46 0 0 0 53.905777
1.596 -0.48800001 1.732 56 0 0 0 53.92062
1.4680001 -0.34799999 1.701 50 0 0 0 53.793114
1.8789999 -0.66000003 1.781 44 0 0 0 53.807953
1.753 -0.51700002 1.762 46 0 0 0 53.822792
1.6210001 -0.38299999 1.734 54 0 0 0 53.837635
1.48 -0.25299999 1.7029999 50 0 0 0 53.852474
1.936 -0.53500003 1.793 50 0 0 0 53.867317
1.785 -0.40000001 1.7640001 48 0 0 0 53.88216
1.64 -0.27700001 1.735 54 0 0 0 53.896999
1.483 -0.15899999 1.701 53 0 0 0 53.911839
1.971 -0.40099999 1.7920001 46 0 0 0 53.926682
1.809 -0.28 1.766 50 0 0 0 53.941521
1.648 -0.17 1.733 54 0 0 0 53.956364
1.482 -0.066 1.701 50 0 0 0 53.971203
1.995 -0.26499999 1.791 48 0 0 0 53.986046
1.821 -0.15899999 1.763 48 0 0 0 54.000889
1.649 -0.063000001 1.729 60 0 0 0 54.015728
1.474 0.024 1.696 51 0 0 0 54.030567
2.0109999 -0.127 1.79 48 0 0 0 54.045406
1.825 -0.037 1.761 55 0 0 0 54.060249
1.637 0.041999999 1.719 44 0 0 0 54.075092
1.459 0.114 1.689 47 0 0 0 54.089931
2.0109999 0.011 1.786 51 0 0 0 54.104771
1.816 0.082999997 1.7539999 58 0 0 0 54.119617
1.623 0.146 1.7130001 47 0 0 0 54.134457
1.4400001 0.20200001 1.682 46 0 0 0 54.149296
1.997 0.149 1.777 50 0 0 0 54.164135
1.8 0.20299999 1.749 53 0 0 0 54.178974
1.598 0.248 1.701 48 0 0 0 54.193821
1.4170001 0.28799999 1.675 47 0 0 0 54.20866
1.978 0.287 1.774 46 0 0 0 54.223499
1.776 0.322 1.742 51 0 0 0 54.238342
1.575 0.34900001 1.698 48 0 0 0 54.253185
1.391 0.37200001 1.669 51 0 0 0 54.817192
1.9349999 0.41999999 1.758 46 0 0 0 54.832031
1.7410001 0.43700001 1.733 53 0 0 0 54.846874
1.541 0.447 1.688 47 0 0 0 54.861717
1.363 0.45500001 1.664 48 0 0 0 54.876556
1.888 0.54900002 1.747 49 0 0 0 54.891399
1.701 0.551 1.727 49 0 0 0 54.906239
1.497 0.54000002 1.675 49 0 0 0 54.921082
1.327 0.53399998 1.655 49 0 0 0 54.935921
1.83 0.67400002 1.735 52 0 0 0 54.95076
1.647 0.65799999 1.714 52 0 0 0 54.965603
1.457 0.634 1.671 46 0 0 0 54.980446
1.2920001 0.61299998 1.651 47 0 0 0 54.995285
1.76 0.792 1.72 56 0 0 0 55.010128
1.575 0.755 1.688 44 0 0 0 55.024967
1.4 0.71899998 1.653 45 0 0 0 55.039806
1.245 0.68599999 1.636 47 0 0 0 55.054649
1.682 0.90200001 1.705 51 0 0 0 55.069489
1.503 0.84899998 1.669 44 0 0 0 55.084332
1.344 0.80299997 1.642 45 0 0 0 55.099171
1.196 0.75599998 1.624 47 0 0 0 55.114014
1.589 1.002 1.682 42 0 0 0 55.128857
1.4299999 0.93900001 1.655 46 0 0 0 55.143696
1.284 0.88300002 1.632 47 0 0 0 55.158535
1.147 0.82599998 1.615 49 0 0 0 55.173374
1.489 1.091 1.658 44 0 0 0 55.188217
1.348 1.022 1.637 45 0 0 0 55.20306
1.216 0.95700002 1.618 47 0 0 0 55.217899
1.09 0.88999999 1.6 44 0 0 0 55.232738
1.391 1.178 1.643 45 0 0 0 55.247585
1.263 1.098 1.62 48 0 0 0 55.262424
1.145 1.026 1.604 46 0 0 0 55.277264
1.029 0.94999999 1.5829999 40 0 0 0 55.139645
1.284 1.251 1.622 51 0 0 0 55.154488
1.174 1.169 1.6059999 45 0 0 0 55.169327
1.0650001 1.086 1.5829999 43 0 0 0 55.18417
0.96799999 1.0089999 1.5700001 39 0 0 0 55.199009
1.169 1.311 1.596 45 0 0 0 55.213848
1.074 1.223 1.579 47 0 0 0 55.228691
0.98699999 1.145 1.568 40 0 0 0 55.24353
0.90399998 1.0650001 1.558 42 0 0 0 55.258373
1.054 1.364 1.573 40 0 0 0 55.273216
0.97899997 1.279 1.564 47 0 0 0 55.288055
0.90100002 1.193 1.5470001 43 0 0 0 55.302895
0.83499998 1.1160001 1.543 45 0 0 0 55.317738
0.93599999 1.404 1.548 42 0 0 0 55.332577
0.875 1.319 1.538 42 0 0 0 55.34742
0.81800002 1.2410001 1.533 38 0 0 0 55.362259
0.764 1.163 1.529 44 0 0 0 55.377102
0.81900001 1.437 1.525 47 0 0 0 55.391945
0.773 1.3559999 1.518 43 0 0 0 55.406784
0.73000002 1.281 1.516 44 0 0 0 55.421623
0.68699998 1.202 1.508 48 0 0 0 55.436462
0.70099998 1.459 1.501 46 0 0 0 55.451305
0.67000002 1.3839999 1.497 41 0 0 0 55.466148
0.63999999 1.314 1.497 39 0 0 0 55.480988
0.61400002 1.247 1.501 51 0 0 0 55.495827
0.58600003 1.476 1.4809999 42 0 0 0 55.510674
0.56900001 1.41 1.482 43 0 0 0 55.525513
0.54799998 1.341 1.479 43 0 0 0 55.540352
0.53399998 1.28 1.485 44 0 0 0 55.555191
0.47299999 1.485 1.464 44 0 0 0 55.57003
0.46799999 1.429 1.469 44 0 0 0 55.584877
0.456 1.3609999 1.46 50 0 0 0 55.599716
0.45300001 1.312 1.472 45 0 0 0 55.38483
0.361 1.483 1.443 39 0 0 0 55.399677
0.36199999 1.423 1.436 42 0 0 0 55.414516
0.36500001 1.383 1.449 39 0 0 0 55.429356
0.36899999 1.332 1.452 42 0 0 0 55.444199
0.25 1.465 1.415 52 0 0 0 55.459042
0.26300001 1.432 1.426 42 0 0 0 55.473881
0.27000001 1.385 1.425 42 0 0 0 55.48872
0.28299999 1.35 1.436 42 0 0 0 55.503559
0.145 1.456 1.403 44 0 0 0 55.518402
0.163 1.425 1.4069999 45 0 0 0 55.533245
0.178 1.393 1.4119999 40 0 0 0 55.548084
0.19599999 1.36 1.416 45 0 0 0 55.562927
0.043000001 1.438 1.39 45 0 0 0 55.577766
0.066 1.416 1.3940001 40 0 0 0 55.592609
0.086000003 1.3890001 1.395 43 0 0 0 55.607449
0.108 1.368 1.4 43 0 0 0 55.622288
-0.054000001 1.408 1.372 48 0 0 0 55.637131
-0.028000001 1.396 1.376 41 0 0 0 55.651974
-0.0049999999 1.387 1.3839999 46 0 0 0 55.666813
0.02 1.373 1.388 47 0 0 0 55.681656
-0.148 1.367 1.35 44 0 0 0 55.696495
-0.12 1.373 1.36 43 0 0 0 55.711334
-0.094999999 1.367 1.363 47 0 0 0 55.726177
-0.067000002 1.367 1.37 45 0 0 0 55.741016
-0.237 1.33 1.337 46 0 0 0 55.755859
-0.20900001 1.34 1.342 40 0 0 0 55.770699
-0.183 1.347 1.348 46 0 0 0 55.785542
-0.156 1.359 1.355 47 0 0 0 55.800385
-0.32100001 1.283 1.321 44 0 0 0 55.815224
-0.29499999 1.304 1.326 41 0 0 0 55.830063
-0.26899999 1.318 1.3279999 47 0 0 0 55.844906
-0.243 1.3380001 1.335 49 0 0 0 55.820465
-0.40099999 1.2359999 1.308 47 0 0 0 55.835304
-0.377 1.265 1.312 46 0 0 0 55.850143
-0.354 1.29 1.317 43 0 0 0 55.864983
-0.329 1.313 1.317 47 0 0 0 55.879826
-0.47600001 1.186 1.298 47 0 0 0 55.894669
-0.45500001 1.22 1.298 47 0 0 0 55.909508
-0.43399999 1.25 1.299 47 0 0 0 55.924347
-0.414 1.2869999 1.303 48 0 0 0 55.939194
-0.54699999 1.132 1.288 55 0 0 0 55.954033
-0.52999997 1.174 1.2869999 52 0 0 0 55.968872
-0.514 1.2130001 1.289 46 0 0 0 55.983711
-0.49700001 1.252 1.2869999 46 0 0 0 55.99855
-0.61699998 1.084 1.289 72 0 0 0 56.013397
-0.59899998 1.1210001 1.274 57 0 0 0 56.028236
-0.58999997 1.1670001 1.276 50 0 0 0 56.043076
-0.57800001 1.214 1.274 50 0 0 0 56.057919
-0.671 1.012 1.266 52 0 0 0 56.072762
-0.66600001 1.066 1.263 52 0 0 0 56.087601
-0.662 1.118 1.2640001 52 0 0 0 56.10244
-0.65700001 1.17 1.261 52 0 0 0 56.117279
-0.72799999 0.95300001 1.262 52 0 0 0 56.132126
-0.72899997 1.01 1.256 54 0 0 0 56.146965
-0.73100001 1.063 1.252 53 0 0 0 56.161804
-0.73299998 1.1210001 1.249 52 0 0 0 56.176647
-0.77600002 0.88499999 1.249 51 0 0 0 56.191486
-0.78799999 0.94999999 1.248 54 0 0 0 56.206329
-0.79400003 1.0039999 1.24 48 0 0 0 56.221169
-0.80800003 1.069 1.2410001 53 0 0 0 56.236008
-0.82300001 0.82099998 1.244 51 0 0 0 56.250851
-0.83999997 0.88499999 1.238 50 0 0 0 56.265694
-0.85500002 0.94300002 1.23 49 0 0 0 56.280533
-0.87300003 1.005 1.225 51 0 0 0 56.770199
-0.86299998 0.75400001 1.237 57 0 0 0 56.785042
-0.88999999 0.81999999 1.2309999 54 0 0 0 56.799881
-0.91399997 0.88 1.224 52 0 0 0 56.814724
-0.93699998 0.94 1.2130001 53 0 0 0 56.829563
-0.903 0.68800002 1.2359999 52 0 0 0 56.844402
-0.935 0.75300002 1.226 57 0 0 0 56.859249
-0.96700001 0.81300002 1.217 50 0 0 0 56.874088
-0.99699998 0.87199998 1.204 53 0 0 0 56.888927
-0.93900001 0.62199998 1.2359999 54 0 0 0 56.903767
-0.977 0.685 1.222 51 0 0 0 56.91861
-1.0190001 0.745 1.215 52 0 0 0 56.933453
-1.057 0.80299997 1.201 51 0 0 0 56.948292
-0.96700001 0.55299997 1.232 53 0 0 0 56.963131
-1.011 0.61199999 1.214 53 0 0 0 56.977978
-1.064 0.67199999 1.211 46 0 0 0 56.992817
-1.1109999 0.72799999 1.1950001 48 0 0 0 57.007656
-0.991 0.484 1.23 54 0 0 0 57.022495
-1.046 0.54100001 1.215 52 0 0 0 57.037334
-1.103 0.59600002 1.206 41 0 0 0 57.052181
-1.159 0.64999998 1.191 47 0 0 0 57.06702
-1.013 0.41499999 1.229 53 0 0 0 57.08186
-1.074 0.46799999 1.212 54 0 0 0 57.096703
-1.137 0.51800001 1.202 45 0 0 0 57.111546
-1.196 0.565 1.181 47 0 0 0 57.126385
-1.025 0.345 1.223 53 0 0 0 57.141224
-1.096 0.39300001 1.209 53 0 0 0 57.156063
-1.164 0.43700001 1.196 45 0 0 0 57.17091
-1.233 0.48100001 1.1799999 44 0 0 0 57.185749
-1.038 0.27599999 1.223 56 0 0 0 57.200588
-1.113 0.31799999 1.206 59 0 0 0 57.215431
-1.186 0.35600001 1.192 50 0 0 0 57.23027
-1.258 0.391 1.1720001 48 0 0 0 57.110374
-1.049 0.208 1.225 60 0 0 0 57.125217
-1.1289999 0.243 1.2079999 62 0 0 0 57.14006
-1.209 0.27399999 1.194 54 0 0 0 57.1549
-1.2819999 0.30199999 1.17 48 0 0 0 57.169739
-1.054 0.139 1.225 58 0 0 0 57.184586
-1.138 0.167 1.207 64 0 0 0 57.199425
-1.22 0.19 1.191 54 0 0 0 57.214264
-1.302 0.211 1.171 57 0 0 0 57.229103
-1.0599999 0.071999997 1.2309999 60 0 0 0 57.243942
-1.145 0.090999998 1.209 67 0 0 0 57.258789
-1.23 0.107 1.193 60 0 0 0 57.273628
-1.313 0.119 1.171 57 0 0 0 57.288467
-1.059 0.0040000002 1.233 56 0 0 0 57.30331
-1.145 0.015 1.21 68 0 0 0 57.318153
-1.2309999 0.022 1.192 59 0 0 0 57.332993
-1.316 0.026000001 1.17 57 0 0 0 57.347832
-1.054 -0.061999999 1.235 59 0 0 0 57.362671
-1.142 -0.059999999 1.2130001 66 0 0 0 57.377518
-1.229 -0.061000001 1.1950001 56 0 0 0 57.392357
-1.316 -0.066 1.173 62 0 0 0 57.407196
-1.046 -0.12800001 1.237 59 0 0 0 57.422039
-1.137 -0.13500001 1.2180001 64 0 0 0 57.436878
-1.223 -0.145 1.199 60 0 0 0 57.451721
-1.312 -0.15899999 1.179 60 0 0 0 57.46656
-1.034 -0.193 1.24 58 0 0 0 57.4814
-1.123 -0.20900001 1.22 64 0 0 0 57.496243
-1.2130001 -0.229 1.205 58 0 0 0 57.511086
-1.296 -0.25099999 1.181 60 0 0 0 57.525925
-1.02 -0.25799999 1.243 57 0 0 0 57.540768
-1.1059999 -0.28200001 1.222 62 0 0 0 57.555607
-1.192 -0.31099999 1.2079999 57 0 0 0 57.57045
-1.277 -0.34299999 1.189 57 0 0 0 57.115948
-1.003 -0.322 1.248 63 0 0 0 57.130787
-1.091 -0.35699999 1.234 66 0 0 0 57.14563
-1.174 -0.39300001 1.2180001 56 0 0 0 57.160473
-1.251 -0.433 1.196 59 0 0 0 57.175312
-0.98199999 -0.384 1.25 61 0 0 0 57.190151
-1.067 -0.428 1.239 65 0 0 0 57.20499
-1.147 -0.47400001 1.227 53 0 0 0 57.219833
-1.221 -0.52200001 1.205 60 0 0 0 57.234676
-0.958 -0.44499999 1.255 65 0 0 0 57.249516
-1.039 -0.498 1.245 63 0 0 0 57.264355
-1.1160001 -0.55299997 1.2359999 59 0 0 0 57.279202
-1.183 -0.60900003 1.215 58 0 0 0 57.294041
-0.935 -0.50800002 1.2640001 57 0 0 0 57.30888
-1.007 -0.56699997 1.253 58 0 0 0 57.323719
-1.0779999 -0.62900001 1.244 60 0 0 0 57.338558
-1.141 -0.69400001 1.228 56 0 0 0 57.353405
-0.90600002 -0.56800002 1.271 55 0 0 0 57.368244
-0.972 -0.634 1.262 59 0 0 0 57.383083
-1.033 -0.70099998 1.251 61 0 0 0 57.397926
-1.089 -0.77200001 1.2359999 63 0 0 0 57.412769
-0.875 -0.62800002 1.28 55 0 0 0 57.427608
-0.93400002 -0.70099998 1.273 59 0 0 0 57.442448
-0.98199999 -0.76999998 1.257 61 0 0 0 57.457287
-1.034 -0.85000002 1.249 62 0 0 0 57.472134
-0.838 -0.68400002 1.283 51 0 0 0 57.486973
-0.88800001 -0.76200002 1.279 58 0 0 0 57.501812
-0.92900002 -0.83700001 1.267 55 0 0 0 57.516655
-0.96899998 -0.91799998 1.256 52 0 0 0 57.531494
-0.79799998 -0.73900002 1.289 56 0 0 0 57.546337
-0.84100002 -0.82300001 1.289 55 0 0 0 57.561176
-0.87099999 -0.89899999 1.275 55 0 0 0 57.576015
-0.90499997 -0.98799998 1.273 52 0 0 0 57.771599
-0.759 -0.796 1.301 52 0 0 0 57.786442
-0.78899997 -0.88 1.298 55 0 0 0 57.801281
-0.81300002 -0.96200001 1.291 53 0 0 0 57.81612
-0.833 -1.049 1.285 52 0 0 0 57.830963
-0.71399999 -0.84899998 1.309 50 0 0 0 57.845802
-0.73400003 -0.93599999 1.309 55 0 0 0 57.860645
-0.74599999 -1.016 1.3 50 0 0 0 57.875488
-0.75800002 -1.1059999 1.299 46 0 0 0 57.890327
-0.66600001 -0.90200001 1.319 51 0 0 0 57.905167
-0.67299998 -0.98400003 1.3150001 54 0 0 0 57.92001
-0.68000001 -1.0700001 1.316 49 0 0 0 57.934849
-0.68099999 -1.1619999 1.319 55 0 0 0 57.949692
-0.616 -0.95300001 1.33 47 0 0 0 57.964531
-0.61400002 -1.0369999 1.332 52 0 0 0 57.97937
-0.61000001 -1.1210001 1.3329999 45 0 0 0 57.994217
-0.59899998 -1.2079999 1.335 52 0 0 0 58.009056
-0.56099999 -1.001 1.34 47 0 0 0 58.023895
-0.55000001 -1.084 1.346 49 0 0 0 58.038734
-0.53399998 -1.1619999 1.345 47 0 0 0 58.053577
-0.51499999 -1.251 1.355 50 0 0 0 58.06842
-0.50400001 -1.049 1.353 47 0 0 0 58.08326
-0.48300001 -1.128 1.3609999 45 0 0 0 58.098099
-0.458 -1.207 1.367 47 0 0 0 58.112946
-0.42699999 -1.284 1.372 56 0 0 0 58.127785
-0.44299999 -1.094 1.3660001 43 0 0 0 58.142624
-0.41299999 -1.17 1.378 44 0 0 0 58.157463
-0.37799999 -1.24 1.382 45 0 0 0 58.172302
-0.336 -1.312 1.39 50 0 0 0 58.187149
-0.37900001 -1.136 1.38 46 0 0 0 58.201988
-0.33899999 -1.205 1.392 44 0 0 0 58.216827
-0.29499999 -1.268 1.398 63 0 0 0 58.23167
-0.245 -1.331 1.4069999 47 0 0 0 58.723782
-0.31 -1.175 1.392 45 0 0 0 58.738621
-0.26100001 -1.234 1.404 46 0 0 0 58.75346
-0.211 -1.293 1.416 48 0 0 0 58.768303
-0.152 -1.344 1.424 44 0 0 0 58.783146
-0.23800001 -1.209 1.404 38 0 0 0 58.797985
-0.182 -1.261 1.42 58 0 0 0 58.812824
-0.125 -1.311 1.434 52 0 0 0 58.827663
-0.059999999 -1.352 1.444 45 0 0 0 58.842506
-0.164 -1.244 1.4220001 45 0 0 0 58.857349
-0.101 -1.286 1.439 45 0 0 0 58.872189
-0.037 -1.3200001 1.448 44 0 0 0 58.887032
0.032000002 -1.355 1.465 48 0 0 0 58.901871
-0.085000001 -1.274 1.437 45 0 0 0 58.916714
-0.017000001 -1.301 1.452 43 0 0 0 58.931553
0.050000001 -1.33 1.469 43 0 0 0 58.946392
0.124 -1.346 1.4809999 43 0 0 0 58.961235
-0.003 -1.299 1.454 46 0 0 0 58.976074
0.068000004 -1.316 1.471 45 0 0 0 58.990917
0.139 -1.3279999 1.484 40 0 0 0 59.00576
0.214 -1.332 1.498 41 0 0 0 59.020599
0.081 -1.322 1.473 47 0 0 0 59.035439
0.156 -1.33 1.495 41 0 0 0 59.050282
0.228 -1.321 1.501 40 0 0 0 59.065121
0.303 -1.309 1.512 45 0 0 0 59.079964
0.17 -1.335 1.487 45 0 0 0 59.094803
0.244 -1.325 1.505 48 0 0 0 59.109646
0.31400001 -1.304 1.511 42 0 0 0 59.124489
0.38699999 -1.276 1.521 45 0 0 0 59.139328
0.25999999 -1.342 1.502 44 0 0 0 59.154167
0.33199999 -1.3150001 1.515 46 0 0 0 59.169006
0.40099999 -1.285 1.527 48 0 0 0 59.183849
0.47 -1.244 1.5369999 45 0 0 0 59.096642
0.35100001 -1.3380001 1.5089999 51 0 0 0 59.111481
0.41999999 -1.301 1.528 47 0 0 0 59.12632
0.48500001 -1.257 1.538 47 0 0 0 59.141159
0.55000001 -1.206 1.553 46 0 0 0 59.155998
0.447 -1.339 1.5319999 46 0 0 0 59.170845
0.51099998 -1.2869999 1.5470001 43 0 0 0 59.185684
0.56999999 -1.23 1.557 43 0 0 0 59.200523
0.625 -1.161 1.5650001 52 0 0 0 59.215366
0.54400003 -1.332 1.551 41 0 0 0 59.230209
0.60299999 -1.2690001 1.569 48 0 0 0 59.245049
0.64999998 -1.192 1.569 40 0 0 0 59.259888
0.69499999 -1.109 1.574 49 0 0 0 59.274727
0.64200002 -1.3150001 1.567 44 0 0 0 59.289574
0.69099998 -1.238 1.5829999 44 0 0 0 59.304413
0.73199999 -1.155 1.5880001 44 0 0 0 59.319252
0.76200002 -1.057 1.587 53 0 0 0 59.334095
0.745 -1.3 1.595 46 0 0 0 59.348934
0.77999997 -1.204 1.6 47 0 0 0 59.363777
0.80900002 -1.11 1.604 44 0 0 0 59.378616
0.82300001 -0.99800003 1.5930001 52 0 0 0 59.393456
0.84100002 -1.263 1.605 45 0 0 0 59.408298
0.86199999 -1.1569999 1.609 46 0 0 0 59.423141
0.87699997 -1.053 1.609 41 0 0 0 59.437981
0.87900001 -0.93599999 1.601 51 0 0 0 59.452824
0.935 -1.22 1.617 44 0 0 0 59.467663
0.94800001 -1.112 1.627 48 0 0 0 59.482506
0.94199997 -0.99199998 1.614 42 0 0 0 59.497345
0.93099999 -0.87099999 1.607 50 0 0 0 59.512184
1.03 -1.1720001 1.632 49 0 0 0 59.527027
1.024 -1.053 1.6339999 44 0 0 0 59.541866
1.005 -0.93000001 1.622 44 0 0 0 59.556709
0.97799999 -0.80500001 1.613 50 0 0 0 59.099976
1.125 -1.118 1.649 45 0 0 0 59.114819
1.099 -0.991 1.645 49 0 0 0 59.129662
1.0650001 -0.86400002 1.631 45 0 0 0 59.144501
1.02 -0.736 1.618 51 0 0 0 59.159344
1.216 -1.056 1.6670001 46 0 0 0 59.174183
1.1720001 -0.92400002 1.6569999 47 0 0 0 59.189026
1.122 -0.796 1.642 44 0 0 0 59.203865
1.059 -0.667 1.625 50 0 0 0 59.218704
1.302 -0.98400003 1.6799999 42 0 0 0 59.233547
1.243 -0.85299999 1.673 46 0 0 0 59.248386
1.173 -0.72399998 1.651 43 0 0 0 59.263229
1.0930001 -0.597 1.63 49 0 0 0 59.278072
1.3839999 -0.90600002 1.6950001 47 0 0 0 59.292912
1.3049999 -0.77499998 1.682 49 0 0 0 59.307751
1.224 -0.65100002 1.665 45 0 0 0 59.322594
1.124 -0.52499998 1.636 53 0 0 0 59.337433
1.4579999 -0.81800002 1.705 42 0 0 0 59.352276
1.359 -0.69 1.687 54 0 0 0 59.367115
1.262 -0.57099998 1.6670001 47 0 0 0 59.381954
1.149 -0.45300001 1.64 53 0 0 0 59.396801
1.528 -0.72600001 1.719 58 0 0 0 59.41164
1.41 -0.602 1.6950001 53 0 0 0 59.426479
1.299 -0.49000001 1.674 51 0 0 0 59.441319
1.171 -0.38 1.6440001 53 0 0 0 59.456161
1.59 -0.62599999 1.729 52 0 0 0 59.471004
1.455 -0.50999999 1.702 53 0 0 0 59.485844
1.329 -0.40700001 1.679 48 0 0 0 59.500683
1.186 -0.30599999 1.6440001 49 0 0 0 59.51553
1.6390001 -0.51899999 1.734 55 0 0 0 59.530369
1.4910001 -0.41499999 1.706 48 0 0 0 59.545208
1.354 -0.32100001 1.683 51 0 0 0 59.560047
1.2 -0.23199999 1.647 49 0 0 0 59.735897
1.6849999 -0.40900001 1.744 51 0 0 0 59.750736
1.522 -0.31600001 1.712 53 0 0 0 59.765579
1.373 -0.235 1.686 54 0 0 0 59.780418
1.209 -0.15800001 1.647 50 0 0 0 59.795261
1.715 -0.29300001 1.745 50 0 0 0 59.810104
1.54 -0.215 1.71 57 0 0 0 59.824944
1.382 -0.146 1.682 54 0 0 0 59.839783
1.215 -0.083999999 1.648 51 0 0 0 59.854626
1.737 -0.175 1.747 52 0 0 0 59.869465
1.556 -0.113 1.7130001 52 0 0 0 59.884308
1.3890001 -0.057999998 1.682 51 0 0 0 59.899147
1.2180001 -0.011 1.65 53 0 0 0 59.913986
1.745 -0.055 1.744 54 0 0 0 59.928833
1.559 -0.0089999996 1.709 55 0 0 0 59.943672
1.391 0.029999999 1.682 54 0 0 0 59.958511
1.217 0.061999999 1.65 53 0 0 0 59.973351
1.747 0.064999998 1.744 56 0 0 0 59.988194
1.553 0.093999997 1.704 56 0 0 0 60.003036
1.382 0.118 1.676 52 0 0 0 60.017876
1.21 0.13500001 1.647 54 0 0 0 60.032715
1.73 0.185 1.734 55 0 0 0 60.047562
1.538 0.19599999 1.6950001 55 0 0 0 60.062401
1.364 0.205 1.664 55 0 0 0 60.07724
1.201 0.208 1.646 54 0 0 0 60.092079
1.705 0.30199999 1.725 57 0 0 0 60.106918
1.5140001 0.296 1.6849999 57 0 0 0 60.121765
1.349 0.29100001 1.661 56 0 0 0 60.136604
1.189 0.28099999 1.6440001 54 0 0 0 60.151443
1.671 0.417 1.716 57 0 0 0 60.166286
1.484 0.39500001 1.676 53 0 0 0 60.181129
1.327 0.377 1.656 56 0 0 0 60.195969
1.17 0.35299999 1.6390001 53 0 0 0 60.840649
1.626 0.528 1.704 59 0 0 0 60.855488
1.45 0.49200001 1.669 52 0 0 0 60.870327
1.295 0.45899999 1.646 49 0 0 0 60.885166
1.147 0.42300001 1.631 52 0 0 0 60.900009
1.566 0.63200003 1.6849999 45 0 0 0 60.914852
1.411 0.58600003 1.664 52 0 0 0 60.929691
1.2640001 0.54100001 1.641 47 0 0 0 60.94453
1.12 0.49200001 1.622 47 0 0 0 60.959377
1.5039999 0.73199999 1.671 44 0 0 0 60.974216
1.3609999 0.67500001 1.653 53 0 0 0 60.989056
1.223 0.61900002 1.631 46 0 0 0 61.003895
1.087 0.55900002 1.61 45 0 0 0 61.018738
1.434 0.82499999 1.655 48 0 0 0 61.033581
1.306 0.75999999 1.642 50 0 0 0 61.04842
1.1799999 0.69599998 1.624 52 0 0 0 61.063259
1.0549999 0.62699997 1.604 47 0 0 0 61.078102
1.36 0.91299999 1.643 52 0 0 0 61.092945
1.243 0.83999997 1.6289999 53 0 0 0 61.107784
1.1289999 0.76800001 1.612 43 0 0 0 61.122623
1.0140001 0.69 1.59 47 0 0 0 61.137463
1.275 0.991 1.624 54 0 0 0 61.152309
1.173 0.912 1.613 44 0 0 0 61.167149
1.0700001 0.833 1.594 40 0 0 0 61.181988
0.97299999 0.75400001 1.581 46 0 0 0 61.196831
1.187 1.062 1.6059999 51 0 0 0 61.211674
1.095 0.97600001 1.591 43 0 0 0 61.226513
1.01 0.89700001 1.581 42 0 0 0 61.241352
0.92900002 0.81699997 1.574 45 0 0 0 61.256191
1.095 1.124 1.589 45 0 0 0 61.271034
1.0190001 1.039 1.577 41 0 0 0 61.285877
0.94800001 0.958 1.569 42 0 0 0 61.300716
0.87900001 0.87599999 1.563 46 0 0 0 61.0811
0.99800003 1.177 1.568 45 0 0 0 61.09594
0.93900001 1.094 1.562 42 0 0 0 61.110783
0.875 1.008 1.5470001 44 0 0 0 61.125626
0.824 0.93099999 1.549 44 0 0 0 61.140465
0.898 1.221 1.5470001 41 0 0 0 61.155304
0.85299999 1.141 1.543 42 0 0 0 61.170143
0.80800003 1.062 1.538 43 0 0 0 61.184986
0.76800001 0.98500001 1.539 41 0 0 0 61.199829
0.79699999 1.257 1.527 47 0 0 0 61.214668
0.764 1.179 1.522 42 0 0 0 61.229511
0.73199999 1.1059999 1.52 42 0 0 0 61.24435
0.70499998 1.033 1.523 46 0 0 0 61.259193
0.69599998 1.285 1.507 45 0 0 0 61.274033
0.676 1.214 1.505 40 0 0 0 61.288872
0.65600002 1.146 1.506 43 0 0 0 61.303715
0.64099997 1.081 1.512 41 0 0 0 61.318558
0.597 1.309 1.4910001 48 0 0 0 61.333397
0.58899999 1.248 1.494 45 0 0 0 61.34824
0.579 1.186 1.4960001 39 0 0 0 61.363079
0.57200003 1.124 1.499 42 0 0 0 61.377918
0.498 1.324 1.475 49 0 0 0 61.392761
0.498 1.2690001 1.476 44 0 0 0 61.4076
0.49599999 1.211 1.475 39 0 0 0 61.422443
0.5 1.16 1.484 44 0 0 0 61.437283
0.398 1.327 1.4529999 42 0 0 0 61.452126
0.40799999 1.285 1.461 39 0 0 0 61.466969
0.414 1.237 1.4630001 48 0 0 0 61.481808
0.42500001 1.194 1.47 42 0 0 0 61.496647
0.30000001 1.323 1.433 46 0 0 0 61.51149
0.315 1.2869999 1.4349999 40 0 0 0 61.526329
0.331 1.256 1.448 44 0 0 0 61.541172
0.34599999 1.217 1.45 47 0 0 0 61.421646
0.207 1.318 1.418 43 0 0 0 61.436493
0.227 1.293 1.423 44 0 0 0 61.451332
0.245 1.266 1.429 45 0 0 0 61.466171
0.266 1.238 1.433 45 0 0 0 61.481014
0.115 1.307 1.404 40 0 0 0 61.495857
0.138 1.286 1.403 42 0 0 0 61.510696
0.16 1.268 1.408 39 0 0 0 61.525536
0.184 1.255 1.418 46 0 0 0 61.540375
0.026000001 1.289 1.3890001 49 0 0 0 61.555222
0.050999999 1.2819999 1.393 39 0 0 0 61.570061
0.075000003 1.271 1.396 44 0 0 0 61.5849
0.101 1.266 1.402 43 0 0 0 61.599743
-0.059 1.2640001 1.374 39 0 0 0 61.614586
-0.033 1.267 1.378 42 0 0 0 61.629425
-0.0080000004 1.268 1.383 39 0 0 0 61.644264
0.017000001 1.2690001 1.3839999 41 0 0 0 61.659103
-0.141 1.234 1.359 41 0 0 0 61.673946
-0.116 1.248 1.364 46 0 0 0 61.688789
-0.092 1.257 1.367 42 0 0 0 61.703629
-0.067000002 1.27 1.3710001 39 0 0 0 61.718472
-0.219 1.202 1.348 48 0 0 0 61.733311
-0.19599999 1.222 1.347 44 0 0 0 61.748154
-0.175 1.242 1.352 41 0 0 0 61.762993
-0.153 1.267 1.359 44 0 0 0 61.777832
-0.294 1.166 1.337 49 0 0 0 61.792675
-0.273 1.188 1.33 47 0 0 0 61.807514
-0.25600001 1.2180001 1.336 45 0 0 0 61.822357
-0.237 1.252 1.342 43 0 0 0 61.8372
-0.366 1.13 1.331 73 0 0 0 61.852039
-0.34900001 1.158 1.3200001 55 0 0 0 61.866879
-0.33500001 1.191 1.321 46 0 0 0 61.881721
-0.31999999 1.229 1.322 49 0 0 0 61.425449
-0.43700001 1.096 1.3329999 39 0 0 0 61.440289
-0.42399999 1.13 1.3200001 71 0 0 0 61.455128
-0.412 1.161 1.3099999 53 0 0 0 61.469967
-0.40400001 1.206 1.311 53 0 0 0 61.48481
-0.50400001 1.0549999 1.331 39 0 0 0 61.499653
-0.498 1.099 1.321 52 0 0 0 61.514492
-0.48899999 1.13 1.303 68 0 0 0 61.529331
-0.48500001 1.175 1.296 54 0 0 0 61.544174
-0.56 0.99800003 1.313 52 0 0 0 61.559017
-0.56900001 1.061 1.321 36 0 0 0 61.573856
-0.56400001 1.095 1.298 69 0 0 0 61.588696
-0.56400001 1.1390001 1.284 52 0 0 0 61.603535
-0.61500001 0.94599998 1.3049999 73 0 0 0 61.618382
-0.62300003 0.99699998 1.2920001 72 0 0 0 61.633221
-0.634 1.05 1.288 56 0 0 0 61.64806
-0.64499998 1.104 1.28 150 0 0 0 61.662903
-0.65700001 0.88 1.28 55 0 0 0 61.677746
-0.67500001 0.93599999 1.27 58 0 0 0 61.692585
-0.69300002 0.991 1.265 55 0 0 0 61.707424
-0.71399999 1.049 1.2589999 57 0 0 0 61.722263
-0.70300001 0.82499999 1.273 53 0 0 0 61.737106
-0.72899997 0.88099998 1.261 57 0 0 0 61.751949
-0.75599998 0.93800002 1.257 53 0 0 0 61.766788
-0.78399998 0.99599999 1.247 56 0 0 0 61.781631
-0.74299997 0.76499999 1.262 58 0 0 0 61.796471
-0.778 0.82300001 1.252 58 0 0 0 61.811314
-0.81599998 0.88200003 1.249 60 0 0 0 61.826153
-0.84799999 0.93599999 1.234 54 0 0 0 61.840992
-0.78500003 0.71100003 1.263 59 0 0 0 61.855835
-0.82700002 0.76599997 1.248 54 0 0 0 61.870674
-0.86699998 0.81900001 1.237 58 0 0 0 61.885517
-0.912 0.87599999 1.227 55 0 0 0 62.764984
-0.81900001 0.65100002 1.256 61 0 0 0 62.779823
-0.86900002 0.70499998 1.2410001 60 0 0 0 62.794662
-0.92000002 0.75800002 1.233 56 0 0 0 62.809505
-0.97299999 0.81199998 1.221 58 0 0 0 62.824348
-0.85399997 0.59399998 1.258 62 0 0 0 62.839188
-0.91000003 0.64300001 1.239 60 0 0 0 62.854027
-0.963 0.68900001 1.223 54 0 0 0 62.868874
-1.028 0.74199998 1.215 54 0 0 0 62.883713
-0.884 0.53399998 1.256 59 0 0 0 62.898552
-0.94700003 0.57999998 1.238 64 0 0 0 62.913391
-1.013 0.625 1.227 49 0 0 0 62.92823
-1.077 0.66799998 1.209 49 0 0 0 62.943077
-0.90200001 0.47 1.245 67 0 0 0 62.957916
-0.97899997 0.51499999 1.235 63 0 0 0 62.972755
-1.048 0.55299997 1.22 51 0 0 0 62.987598
-1.122 0.59200001 1.204 47 0 0 0 63.002441
-0.917 0.40700001 1.235 48 0 0 0 63.017281
-1.0039999 0.44600001 1.229 63 0 0 0 63.03212
-1.0779999 0.47799999 1.2130001 48 0 0 0 63.046959
-1.1569999 0.50999999 1.196 46 0 0 0 63.061806
-0.93400002 0.345 1.232 48 0 0 0 63.076645
-1.027 0.37799999 1.227 59 0 0 0 63.091484
-1.103 0.40200001 1.207 51 0 0 0 63.106327
-1.1900001 0.42699999 1.193 49 0 0 0 63.121166
-0.94800001 0.28400001 1.23 46 0 0 0 63.136009
-1.045 0.308 1.224 61 0 0 0 63.150848
-1.128 0.32600001 1.207 54 0 0 0 63.165688
-1.217 0.34299999 1.191 50 0 0 0 63.180531
-0.95899999 0.223 1.229 48 0 0 0 63.195374
-1.058 0.23800001 1.221 57 0 0 0 63.210213
-1.146 0.248 1.205 55 0 0 0 63.225056
-1.2359999 0.25600001 1.187 52 0 0 0 63.08252
-1.063 0.167 1.214 49 0 0 0 63.112202
-1.16 0.17 1.206 59 0 0 0 63.127045
-1.252 0.168 1.187 58 0 0 0 63.141884
-0.97399998 0.101 1.23 49 0 0 0 63.156723
-1.08 0.097999997 1.226 64 0 0 0 63.17157
-1.1670001 0.090000004 1.205 62 0 0 0 63.186409
-1.262 0.079999998 1.188 61 0 0 0 63.201248
-1.0829999 0.027000001 1.227 62 0 0 0 63.230927
-1.171 0.011 1.2079999 59 0 0 0 63.245773
-1.265 -0.0080000004 1.1900001 61 0 0 0 63.260612
-0.98000002 -0.02 1.238 46 0 0 0 63.275452
-1.082 -0.043000001 1.228 66 0 0 0 63.290295
-1.17 -0.067000002 1.21 60 0 0 0 63.305138
-1.26 -0.097000003 1.191 62 0 0 0 63.319977
-0.97600001 -0.081 1.238 52 0 0 0 63.334816
-1.077 -0.113 1.232 69 0 0 0 63.349655
-1.16 -0.146 1.21 59 0 0 0 63.364498
-1.253 -0.185 1.196 58 0 0 0 63.379341
-0.972 -0.142 1.243 48 0 0 0 63.39418
-1.064 -0.182 1.23 63 0 0 0 63.409023
-1.147 -0.22400001 1.2130001 59 0 0 0 63.423862
-1.2359999 -0.273 1.2 58 0 0 0 63.438705
-0.96100003 -0.20200001 1.243 48 0 0 0 63.453545
-1.054 -0.252 1.2359999 61 0 0 0 63.468384
-1.131 -0.30199999 1.2180001 60 0 0 0 63.483227
-1.215 -0.359 1.205 57 0 0 0 63.49807
-0.949 -0.26199999 1.2460001 46 0 0 0 63.512909
-1.0369999 -0.32100001 1.24 63 0 0 0 63.527752
-1.115 -0.38 1.229 57 0 0 0 63.542591
-1.191 -0.44400001 1.215 58 0 0 0 63.085903
-0.93400002 -0.32100001 1.248 46 0 0 0 63.100742
-1.0190001 -0.38999999 1.249 63 0 0 0 63.115589
-1.0880001 -0.45500001 1.234 60 0 0 0 63.130428
-1.159 -0.52700001 1.224 56 0 0 0 63.145267
-0.921 -0.38299999 1.2589999 65 0 0 0 63.16011
-0.99400002 -0.456 1.253 59 0 0 0 63.174953
-1.059 -0.52899998 1.244 58 0 0 0 63.189793
-1.119 -0.60699999 1.2309999 60 0 0 0 63.204632
-0.90200001 -0.44299999 1.265 61 0 0 0 63.219471
-0.96600002 -0.52200001 1.26 60 0 0 0 63.234318
-1.024 -0.60100001 1.252 57 0 0 0 63.249157
-1.073 -0.68199998 1.237 61 0 0 0 63.263996
-0.88 -0.50199997 1.272 58 0 0 0 63.278839
-0.935 -0.58600003 1.267 58 0 0 0 63.293678
-0.98299998 -0.67000002 1.26 57 0 0 0 63.308521
-1.025 -0.75599998 1.248 64 0 0 0 63.32336
-0.85299999 -0.56099999 1.278 60 0 0 0 63.3382
-0.898 -0.64899999 1.274 61 0 0 0 63.353043
-0.93900001 -0.73699999 1.27 57 0 0 0 63.367886
-0.97000003 -0.82499999 1.258 53 0 0 0 63.382725
-0.824 -0.61900002 1.286 57 0 0 0 63.397568
-0.861 -0.71100003 1.285 58 0 0 0 63.412407
-0.88999999 -0.80000001 1.279 51 0 0 0 63.427246
-0.912 -0.89099997 1.27 57 0 0 0 63.442089
-0.792 -0.67699999 1.294 53 0 0 0 63.456928
-0.81699997 -0.76999998 1.293 60 0 0 0 63.471771
-0.83600003 -0.85900003 1.2869999 54 0 0 0 63.48661
-0.85100001 -0.954 1.285 58 0 0 0 63.501453
-0.755 -0.73299998 1.3 53 0 0 0 63.516296
-0.76700002 -0.82300001 1.296 58 0 0 0 63.531136
-0.77899998 -0.91500002 1.2970001 54 0 0 0 63.545975
-0.78200001 -1.0089999 1.295 58 0 0 0 63.32851
-0.71499997 -0.78799999 1.308 56 0 0 0 63.343353
-0.722 -0.88200003 1.314 54 0 0 0 63.358192
-0.71799999 -0.96700001 1.307 52 0 0 0 63.373032
-0.71200001 -1.061 1.309 54 0 0 0 63.387871
-0.671 -0.84200001 1.316 52 0 0 0 63.402718
-0.66799998 -0.935 1.324 50 0 0 0 63.417557
-0.65700001 -1.02 1.323 51 0 0 0 63.432396
-0.639 -1.107 1.323 55 0 0 0 63.447239
-0.62699997 -0.898 1.33 48 0 0 0 63.462078
-0.60900003 -0.98199999 1.332 52 0 0 0 63.476921
-0.59100002 -1.068 1.339 49 0 0 0 63.49176
-0.56599998 -1.156 1.347 48 0 0 0 63.506599
-0.57700002 -0.95099998 1.342 50 0 0 0 63.521442
-0.551 -1.031 1.348 56 0 0 0 63.536285
-0.52200001 -1.11 1.353 45 0 0 0 63.551125
-0.48699999 -1.1900001 1.36 49 0 0 0 63.565968
-0.52200001 -1.002 1.354 50 0 0 0 63.580807
-0.48800001 -1.076 1.3609999 49 0 0 0 63.59565
-0.45100001 -1.151 1.37 45 0 0 0 63.610489
-0.40599999 -1.22 1.376 47 0 0 0 63.625328
-0.46200001 -1.0470001 1.362 51 0 0 0 63.640171
-0.42199999 -1.12 1.3789999 45 0 0 0 63.65501
-0.375 -1.1799999 1.38 45 0 0 0 63.669853
-0.322 -1.24 1.387 46 0 0 0 63.684696
-0.40099999 -1.094 1.376 46 0 0 0 63.699535
-0.35100001 -1.155 1.3890001 45 0 0 0 63.714375
-0.29800001 -1.21 1.397 41 0 0 0 63.729218
-0.23999999 -1.263 1.408 57 0 0 0 63.744057
-0.333 -1.1339999 1.385 46 0 0 0 63.7589
-0.27700001 -1.186 1.401 45 0 0 0 63.773739
-0.22 -1.235 1.414 42 0 0 0 63.788582
-0.156 -1.273 1.421 52 0 0 0 63.811069
-0.26300001 -1.176 1.401 45 0 0 0 63.825912
-0.20100001 -1.212 1.411 41 0 0 0 63.840752
-0.139 -1.252 1.428 68 0 0 0 63.855591
-0.071999997 -1.2819999 1.4400001 52 0 0 0 63.870434
-0.18799999 -1.209 1.4119999 40 0 0 0 63.885273
-0.124 -1.24 1.4299999 53 0 0 0 63.900116
-0.057999998 -1.266 1.444 44 0 0 0 63.914955
0.011 -1.2819999 1.455 50 0 0 0 63.929794
-0.111 -1.245 1.431 64 0 0 0 63.944641
-0.043000001 -1.26 1.4450001 47 0 0 0 63.95948
0.024 -1.272 1.4579999 45 0 0 0 63.974319
0.093999997 -1.278 1.473 48 0 0 0 63.989159
-0.028999999 -1.274 1.446 43 0 0 0 64.003998
0.039000001 -1.275 1.46 42 0 0 0 64.018845
0.107 -1.279 1.478 47 0 0 0 64.033684
0.176 -1.268 1.489 46 0 0 0 64.048523
0.056000002 -1.3 1.465 43 0 0 0 64.06337
0.124 -1.29 1.4809999 44 0 0 0 64.078209
0.191 -1.276 1.494 46 0 0 0 64.093048
0.257 -1.25 1.502 47 0 0 0 64.107887
0.146 -1.319 1.482 40 0 0 0 64.122726
0.211 -1.296 1.498 45 0 0 0 64.137573
0.27399999 -1.2640001 1.505 45 0 0 0 64.152412
0.33500001 -1.226 1.5140001 51 0 0 0 64.167252
0.23800001 -1.3329999 1.5 43 0 0 0 64.182098
0.29899999 -1.293 1.511 48 0 0 0 64.196938
0.35600001 -1.249 1.517 42 0 0 0 64.211777
0.412 -1.201 1.53 51 0 0 0 64.226616
0.33199999 -1.3329999 1.51 47 0 0 0 64.241455
0.38800001 -1.286 1.527 47 0 0 0 64.256302
0.43700001 -1.227 1.529 48 0 0 0 64.271141
0.486 -1.17 1.544 54 0 0 0 64.868423
0.42899999 -1.334 1.528 50 0 0 0 64.883263
0.47600001 -1.2690001 1.538 47 0 0 0 64.898102
0.51999998 -1.209 1.551 47 0 0 0 64.912941
0.55599999 -1.133 1.5549999 45 0 0 0 64.927788
0.52999997 -1.33 1.549 42 0 0 0 64.942627
0.56699997 -1.2539999 1.558 47 0 0 0 64.957466
0.59799999 -1.175 1.5599999 47 0 0 0 64.972305
0.62300003 -1.09 1.563 44 0 0 0 64.987144
0.63099998 -1.316 1.566 48 0 0 0 65.001991
0.65700001 -1.2309999 1.575 46 0 0 0 65.01683
0.67299998 -1.136 1.568 55 0 0 0 65.03167
0.68800002 -1.048 1.577 40 0 0 0 65.046509
0.73500001 -1.299 1.59 45 0 0 0 65.061356
0.74599999 -1.199 1.591 46 0 0 0 65.076195
0.75 -1.099 1.586 43 0 0 0 65.091034
0.75 -1.001 1.5880001 46 0 0 0 65.105873
0.833 -1.2640001 1.601 48 0 0 0 65.120712
0.82999998 -1.1569999 1.6 50 0 0 0 65.135559
0.82099998 -1.052 1.594 45 0 0 0 65.150398
0.80500001 -0.94700003 1.5930001 47 0 0 0 65.165237
0.93300003 -1.224 1.6160001 45 0 0 0 65.180077
0.91600001 -1.113 1.617 52 0 0 0 65.194923
0.89099997 -1.003 1.607 46 0 0 0 65.209763
0.861 -0.89499998 1.6059999 48 0 0 0 65.224602
1.0319999 -1.177 1.633 52 0 0 0 65.239441
0.99800003 -1.062 1.63 46 0 0 0 65.254288
0.958 -0.94800001 1.617 43 0 0 0 65.269127
0.90899998 -0.83600003 1.608 48 0 0 0 65.283966
1.128 -1.1210001 1.648 45 0 0 0 65.298805
1.073 -1 1.636 44 0 0 0 65.313644
1.02 -0.88800001 1.626 44 0 0 0 65.328491
0.954 -0.77600002 1.613 48 0 0 0 65.193275
1.224 -1.059 1.666 49 0 0 0 65.208115
1.153 -0.93900001 1.653 49 0 0 0 65.222954
1.076 -0.82300001 1.631 48 0 0 0 65.237793
0.99699998 -0.71499997 1.619 49 0 0 0 65.252632
1.312 -0.986 1.679 45 0 0 0 65.267479
1.225 -0.86900002 1.666 49 0 0 0 65.282318
1.133 -0.75700003 1.641 47 0 0 0 65.297157
1.0369999 -0.65200001 1.623 47 0 0 0 65.311996
1.396 -0.90499997 1.693 46 0 0 0 65.326843
1.294 -0.79400003 1.679 50 0 0 0 65.341682
1.184 -0.68599999 1.649 46 0 0 0 65.356522
1.076 -0.58899999 1.6339999 48 0 0 0 65.371361
1.4680001 -0.81400001 1.7 43 0 0 0 65.386208
1.352 -0.71100003 1.6849999 56 0 0 0 65.401047
1.233 -0.61299998 1.659 48 0 0 0 65.415886
1.109 -0.523 1.638 52 0 0 0 65.430725
1.549 -0.72299999 1.722 58 0 0 0 65.445564
1.405 -0.62300003 1.691 52 0 0 0 65.460411
1.273 -0.53500003 1.663 50 0 0 0 65.47525
1.1390001 -0.454 1.642 50 0 0 0 65.490089
1.609 -0.62 1.729 55 0 0 0 65.504929
1.455 -0.53200001 1.699 54 0 0 0 65.519775
1.3150001 -0.456 1.675 52 0 0 0 65.534615
1.163 -0.38499999 1.643 52 0 0 0 65.549454
1.665 -0.51200002 1.74 51 0 0 0 65.564293
1.501 -0.43799999 1.709 50 0 0 0 65.57914
1.351 -0.37400001 1.684 50 0 0 0 65.593979
1.186 -0.31400001 1.645 52 0 0 0 65.608818
1.71 -0.398 1.7460001 51 0 0 0 65.623657
1.529 -0.338 1.7079999 52 0 0 0 65.638496
1.374 -0.287 1.684 52 0 0 0 65.653343
1.2029999 -0.242 1.646 54 0 0 0 65.196449
1.7410001 -0.28 1.749 51 0 0 0 65.211288
1.5549999 -0.235 1.71 57 0 0 0 65.226135
1.393 -0.199 1.684 51 0 0 0 65.240974
1.2180001 -0.169 1.647 56 0 0 0 65.255814
1.762 -0.15899999 1.75 56 0 0 0 65.270653
1.572 -0.131 1.711 54 0 0 0 65.2855
1.403 -0.109 1.681 54 0 0 0 65.300339
1.2309999 -0.094999999 1.648 60 0 0 0 65.315178
1.771 -0.037 1.747 53 0 0 0 65.330017
1.579 -0.026000001 1.7079999 52 0 0 0 65.344856
1.411 -0.018999999 1.6799999 57 0 0 0 65.359703
1.248 -0.018999999 1.66 52 0 0 0 65.374542
1.77 0.085000001 1.744 55 0 0 0 65.389381
1.577 0.079000004 1.7029999 54 0 0 0 65.404221
1.4119999 0.071000002 1.678 55 0 0 0 65.419067
1.249 0.056000002 1.656 49 0 0 0 65.433907
1.7539999 0.207 1.7359999 51 0 0 0 65.448746
1.573 0.185 1.7029999 53 0 0 0 65.463585
1.4069999 0.162 1.674 50 0 0 0 65.478432
1.248 0.134 1.653 49 0 0 0 65.493271
1.733 0.32800001 1.7309999 53 0 0 0 65.50811
1.55 0.28799999 1.691 54 0 0 0 65.522949
1.3890001 0.252 1.661 49 0 0 0 65.537788
1.242 0.211 1.649 51 0 0 0 65.552635
1.698 0.44499999 1.722 51 0 0 0 65.567474
1.525 0.391 1.684 52 0 0 0 65.582314
1.376 0.34299999 1.661 52 0 0 0 65.597153
1.234 0.28999999 1.646 52 0 0 0 65.612
1.655 0.55800003 1.7130001 51 0 0 0 65.626839
1.49 0.491 1.674 51 0 0 0 65.641678
1.353 0.43200001 1.656 54 0 0 0 65.656517
1.219 0.368 1.641 54 0 0 0 65.820473
1.594 0.66399997 1.694 55 0 0 0 65.83532
1.446 0.58700001 1.661 50 0 0 0 65.850159
1.326 0.52100003 1.653 48 0 0 0 65.864998
1.2 0.447 1.636 52 0 0 0 65.879837
1.526 0.76300001 1.675 41 0 0 0 65.894676
1.4 0.68000001 1.653 50 0 0 0 65.909523
1.291 0.60699999 1.645 47 0 0 0 65.924362
1.175 0.52399999 1.628 49 0 0 0 65.939201
1.451 0.85500002 1.655 45 0 0 0 65.954041
1.347 0.77100003 1.645 48 0 0 0 65.968887
1.245 0.68800002 1.632 44 0 0 0 65.983727
1.146 0.602 1.6210001 47 0 0 0 65.998566
1.375 0.94300002 1.642 49 0 0 0 66.013405
1.285 0.85399997 1.631 47 0 0 0 66.028252
1.193 0.76599997 1.6160001 40 0 0 0 66.043091
1.112 0.67799997 1.612 49 0 0 0 66.05793
1.29 1.022 1.624 48 0 0 0 66.072769
1.217 0.93300003 1.619 47 0 0 0 66.087608
1.141 0.84299999 1.607 47 0 0 0 66.102455
1.0700001 0.75099999 1.6 46 0 0 0 66.117294
1.2029999 1.095 1.609 47 0 0 0 66.132133
1.143 1.005 1.604 50 0 0 0 66.146973
1.0779999 0.912 1.589 38 0 0 0 66.161819
1.0190001 0.81900001 1.581 49 0 0 0 66.176659
1.11 1.158 1.591 51 0 0 0 66.191498
1.062 1.068 1.5829999 40 0 0 0 66.206337
1.013 0.97799999 1.574 36 0 0 0 66.221184
0.96799999 0.88800001 1.5700001 49 0 0 0 66.236023
1.01 1.2079999 1.566 38 0 0 0 66.250862
0.97500002 1.122 1.5599999 40 0 0 0 66.265701
0.94400001 1.041 1.561 36 0 0 0 66.28054
0.91399997 0.95599997 1.5599999 46 0 0 0 66.847855
0.91299999 1.258 1.552 39 0 0 0 66.862701
0.88999999 1.175 1.545 39 0 0 0 66.877541
0.86900002 1.097 1.543 36 0 0 0 66.89238
0.852 1.018 1.546 42 0 0 0 66.907227
0.81199998 1.295 1.5319999 43 0 0 0 66.922066
0.80400002 1.224 1.5319999 40 0 0 0 66.936905
0.792 1.149 1.529 44 0 0 0 66.951744
0.78600001 1.0779999 1.533 45 0 0 0 66.966583
0.70899999 1.322 1.5089999 43 0 0 0 66.98143
0.71399999 1.2640001 1.517 44 0 0 0 66.996269
0.708 1.191 1.507 47 0 0 0 67.011108
0.71600002 1.133 1.52 43 0 0 0 67.025955
0.60799998 1.342 1.489 43 0 0 0 67.040794
0.616 1.284 1.4859999 47 0 0 0 67.055634
0.62699997 1.2359999 1.497 45 0 0 0 67.070473
0.64200002 1.186 1.5089999 42 0 0 0 67.085312
0.505 1.351 1.464 57 0 0 0 67.100159
0.52600002 1.3150001 1.477 42 0 0 0 67.11499
0.542 1.274 1.485 43 0 0 0 67.129837
0.56199998 1.2309999 1.493 40 0 0 0 67.144676
0.41 1.368 1.457 45 0 0 0 67.159523
0.43200001 1.335 1.461 40 0 0 0 67.174362
0.454 1.302 1.4680001 38 0 0 0 67.189201
0.47799999 1.268 1.476 44 0 0 0 67.204041
0.31099999 1.363 1.434 43 0 0 0 67.21888
0.338 1.346 1.444 40 0 0 0 67.233727
0.36300001 1.322 1.45 37 0 0 0 67.248566
0.39199999 1.302 1.46 38 0 0 0 67.263405
0.21699999 1.36 1.42 46 0 0 0 67.278252
0.244 1.347 1.423 41 0 0 0 67.293091
0.27200001 1.337 1.434 42 0 0 0 67.30793
0.301 1.322 1.437 41 0 0 0 67.041763
0.124 1.348 1.404 45 0 0 0 67.056602
0.152 1.345 1.406 41 0 0 0 67.071442
0.18000001 1.344 1.415 45 0 0 0 67.086281
0.20999999 1.341 1.42 44 0 0 0 67.101128
0.034000002 1.33 1.387 40 0 0 0 67.115967
0.061000001 1.3380001 1.391 43 0 0 0 67.130806
0.088 1.342 1.3940001 43 0 0 0 67.145645
0.116 1.351 1.4 45 0 0 0 67.160484
-0.050999999 1.309 1.374 43 0 0 0 67.175331
-0.027000001 1.324 1.374 43 0 0 0 67.19017
-0.003 1.344 1.3839999 44 0 0 0 67.205009
0.023 1.364 1.391 47 0 0 0 67.219856
-0.134 1.28 1.358 43 0 0 0 67.234695
-0.114 1.3049999 1.359 43 0 0 0 67.249535
-0.093000002 1.327 1.3609999 43 0 0 0 67.264374
-0.071000002 1.36 1.3710001 50 0 0 0 67.279213
-0.214 1.249 1.345 44 0 0 0 67.29406
-0.199 1.284 1.347 41 0 0 0 67.308899
-0.182 1.313 1.348 45 0 0 0 67.323746
-0.16500001 1.347 1.35 46 0 0 0 67.338585
-0.28999999 1.211 1.329 47 0 0 0 67.353424
-0.27900001 1.247 1.325 45 0 0 0 67.368263
-0.26899999 1.289 1.331 43 0 0 0 67.383102
-0.25799999 1.329 1.33 48 0 0 0 67.397942
-0.36199999 1.171 1.317 50 0 0 0 67.412781
-0.359 1.2180001 1.317 45 0 0 0 67.427628
-0.354 1.257 1.312 47 0 0 0 67.442467
-0.34999999 1.3049999 1.312 46 0 0 0 67.457314
-0.43099999 1.132 1.3099999 71 0 0 0 67.472153
-0.435 1.182 1.306 50 0 0 0 67.486992
-0.43599999 1.221 1.296 47 0 0 0 67.501831
-0.44 1.275 1.296 41 0 0 0 67.412285
-0.50199997 1.1 1.3150001 66 0 0 0 67.427132
-0.50700003 1.1390001 1.293 52 0 0 0 67.441971
-0.51700002 1.188 1.288 49 0 0 0 67.45681
-0.52899998 1.2410001 1.283 44 0 0 0 67.471649
-0.57300001 1.068 1.325 35 0 0 0 67.486496
-0.583 1.1059999 1.2970001 75 0 0 0 67.501335
-0.59500003 1.145 1.277 47 0 0 0 67.516174
-0.61699998 1.2029999 1.273 48 0 0 0 67.531013
-0.62400001 1.0039999 1.299 73 0 0 0 67.545853
-0.65100002 1.057 1.288 69 0 0 0 67.560699
-0.67000002 1.098 1.267 53 0 0 0 67.575539
-0.69499999 1.147 1.251 49 0 0 0 67.590385
-0.66799998 0.93699998 1.273 52 0 0 0 67.605225
-0.70599997 0.99400002 1.265 54 0 0 0 67.620064
-0.73699999 1.041 1.251 53 0 0 0 67.634903
-0.77600002 1.098 1.243 54 0 0 0 67.649742
-0.71899998 0.884 1.266 55 0 0 0 67.664581
-0.76300001 0.93599999 1.2539999 57 0 0 0 67.67942
-0.80400002 0.98500001 1.242 53 0 0 0 67.694267
-0.852 1.041 1.234 52 0 0 0 67.709106
-0.764 0.82599998 1.256 57 0 0 0 67.723953
-0.81699997 0.87800002 1.2460001 55 0 0 0 67.738792
-0.866 0.92299998 1.232 55 0 0 0 67.753632
-0.92000002 0.97299999 1.219 48 0 0 0 67.768471
-0.80699998 0.76999998 1.252 54 0 0 0 67.78331
-0.866 0.81599998 1.237 60 0 0 0 67.798149
-0.926 0.861 1.227 55 0 0 0 67.812988
-0.98500001 0.90399998 1.2079999 57 0 0 0 67.827843
-0.84899998 0.713 1.249 52 0 0 0 67.842682
-0.912 0.75099999 1.228 56 0 0 0 67.857521
-0.98199999 0.79500002 1.221 58 0 0 0 67.87236
-1.05 0.83399999 1.204 55 0 0 0 67.809441
-0.88599998 0.65399998 1.245 61 0 0 0 67.824287
-0.958 0.68900001 1.227 57 0 0 0 67.839127
-1.03 0.72299999 1.214 51 0 0 0 67.853966
-1.1 0.75300002 1.191 50 0 0 0 67.868805
-0.91900003 0.59399998 1.242 59 0 0 0 67.883652
-1.001 0.62400001 1.227 55 0 0 0 67.898491
-1.079 0.65200001 1.2130001 49 0 0 0 67.91333
-1.156 0.676 1.191 44 0 0 0 67.928169
-0.95099998 0.53399998 1.242 60 0 0 0 67.943008
-1.033 0.55400002 1.22 52 0 0 0 67.957855
-1.12 0.57599998 1.209 45 0 0 0 67.972694
-1.199 0.59100002 1.184 46 0 0 0 67.987534
-0.972 0.46799999 1.232 61 0 0 0 68.002373
-1.064 0.48300001 1.217 59 0 0 0 68.01722
-1.151 0.49599999 1.201 45 0 0 0 68.032059
-1.237 0.50400001 1.178 41 0 0 0 68.046898
-0.99599999 0.405 1.2309999 58 0 0 0 68.061745
-1.0880001 0.41100001 1.212 55 0 0 0 68.076584
-1.179 0.41499999 1.197 44 0 0 0 68.091423
-1.265 0.414 1.171 43 0 0 0 68.106262
-1.013 0.34 1.226 59 0 0 0 68.121101
-1.113 0.33899999 1.212 56 0 0 0 68.135941
-1.204 0.333 1.1950001 46 0 0 0 68.150787
-1.294 0.324 1.171 47 0 0 0 68.165627
-1.034 0.27700001 1.229 59 0 0 0 68.180466
-1.127 0.264 1.207 58 0 0 0 68.195312
-1.224 0.25099999 1.194 50 0 0 0 68.210152
-1.313 0.23199999 1.169 49 0 0 0 68.224991
-1.046 0.211 1.226 56 0 0 0 68.23983
-1.147 0.19 1.2130001 59 0 0 0 68.254669
-1.2359999 0.167 1.192 57 0 0 0 68.269508
-1.325 0.139 1.168 61 0 0 0 68.802513
-1.057 0.146 1.226 56 0 0 0 68.817352
-1.153 0.115 1.209 65 0 0 0 68.832191
-1.242 0.082000002 1.1900001 57 0 0 0 68.847038
-1.331 0.045000002 1.168 64 0 0 0 68.861877
-1.0650001 0.079999998 1.228 55 0 0 0 68.876717
-1.165 0.039000001 1.216 66 0 0 0 68.891563
-1.253 -0.001 1.198 60 0 0 0 68.906403
-1.334 -0.048 1.1720001 65 0 0 0 68.921242
-1.074 0.013 1.233 62 0 0 0 68.936081
-1.164 -0.035999998 1.215 64 0 0 0 68.950928
-1.251 -0.086000003 1.2 57 0 0 0 68.965767
-1.329 -0.141 1.175 55 0 0 0 68.980606
-1.0700001 -0.052999999 1.229 58 0 0 0 68.995445
-1.161 -0.112 1.217 65 0 0 0 69.010284
-1.2460001 -0.171 1.205 59 0 0 0 69.025131
-1.321 -0.235 1.182 59 0 0 0 69.03997
-1.071 -0.121 1.234 61 0 0 0 69.05481
-1.154 -0.18799999 1.22 66 0 0 0 69.069649
-1.232 -0.255 1.207 58 0 0 0 69.084496
-1.303 -0.32699999 1.187 60 0 0 0 69.099335
-1.063 -0.18799999 1.233 62 0 0 0 69.114174
-1.142 -0.26300001 1.222 63 0 0 0 69.129013
-1.212 -0.338 1.209 56 0 0 0 69.143852
-1.275 -0.41600001 1.189 59 0 0 0 69.158699
-1.057 -0.257 1.239 57 0 0 0 69.173538
-1.124 -0.338 1.225 64 0 0 0 69.188385
-1.192 -0.41999999 1.217 57 0 0 0 69.203224
-1.25 -0.50599998 1.201 63 0 0 0 69.218063
-1.043 -0.324 1.24 56 0 0 0 69.232903
-1.105 -0.412 1.23 58 0 0 0 69.247742
-1.164 -0.5 1.222 55 0 0 0 69.262581
-1.2180001 -0.59399998 1.2130001 59 0 0 0 69.167046
-1.028 -0.39300001 1.244 53 0 0 0 69.181885
-1.0829999 -0.48699999 1.238 62 0 0 0 69.196739
-1.131 -0.579 1.229 61 0 0 0 69.211578
-1.175 -0.676 1.219 59 0 0 0 69.226418
-1.01 -0.46200001 1.25 52 0 0 0 69.241257
-1.057 -0.56 1.2460001 56 0 0 0 69.256096
-1.095 -0.65600002 1.238 57 0 0 0 69.270935
