# .PCD v0.7 - Point Cloud Data file format
VERSION 0.7
FIELDS x y z intensity normal_x normal_y normal_z curvature
SIZE 4 4 4 4 4 4 4 4
TYPE F F F F F F F F
COUNT 1 1 1 1 1 1 1 1
WIDTH 960
HEIGHT 1
VIEWPOINT 0 0 0 1 0 0 0
POINTS 960
DATA ascii
6.2310576 4.8036203 -1.0294367 329 0 0 0 41.953026
10.894501 4.1144366 -2.2854545 104 0 0 0 41.953026
10.713548 5.144917 10.815732 12 0 0 0 41.953026
10.186455 6.4089341 6.1255269 8 0 0 0 41.953026
11.100401 4.0310521 6.4313989 19 0 0 0 41.953026
8.9284134 4.4247026 -1.555575 144 0 0 0 41.953026
11.199204 4.2408314 -1.7409179 252 0 0 0 41.953026
11.615507 4.1746807 7.5581679 25 0 0 0 41.953026
6.0949602 4.7534914 -2.6377695 98 0 0 0 41.953026
5.916472 3.7173507 -2.6577528 119 0 0 0 41.953026
10.070368 4.9207797 6.6213055 47 0 0 0 41.953026
8.9829988 4.4556808 -1.0642928 172 0 0 0 41.953026
8.1178818 5.0702081 -1.1339682 34 0 0 0 41.953026
10.040104 6.3046293 5.3043671 8 0 0 0 41.953026
9.9698772 4.8846326 5.8241291 51 0 0 0 41.953026
8.1191769 5.0769448 -1.6132063 65 0 0 0 41.953026
7.7864523 2.9020684 -2.9547665 87 0 0 0 41.953026
4.9749279 3.1309099 -2.5707293 165 0 0 0 41.953026
10.797711 4.1037698 0.60379839 108 0 0 0 41.953026
10.721956 4.059926 1.7373645 51 0 0 0 41.953026
8.1817169 5.1080751 -0.66504431 46 0 0 0 41.953026
3.5114138 1.2447532 -2.5011911 312 0 0 0 41.953026
9.3376551 4.6194429 2.4983985 48 0 0 0 41.953026
10.853766 4.1207504 1.179968 88 0 0 0 41.953026
6.1914706 4.7817807 1.697595 322 0 0 0 41.953026
11.507674 4.3301592 3.1225169 12 0 0 0 41.953026
5.3660069 1.9696708 -2.6941395 193 0 0 0 41.953026
9.061904 4.4968085 -0.57733613 273 0 0 0 41.953026
7.4936409 4.6786237 1.5606431 216 0 0 0 41.953026
4.599081 1.6710304 -2.6123741 195 0 0 0 41.953026
10.73083 3.9691024 4.8122807 68 0 0 0 41.953026
6.2625203 4.8191156 -0.6402725 334 0 0 0 41.953026
3.2397182 2.056206 -2.4150686 120 0 0 0 41.953026
11.312076 4.2994637 -0.55854666 62 0 0 0 41.953026
7.4968715 4.6806397 1.12113 200 0 0 0 41.953026
8.1360998 5.0875235 -2.1063452 39 0 0 0 41.953026
3.694411 2.3372631 -2.4537957 264 0 0 0 41.953026
9.1325436 4.5278907 0.90949136 161 0 0 0 41.953026
6.2847543 4.8327041 -0.25212181 344 0 0 0 41.953026
5.6786928 2.798806 -2.6790607 148 0 0 0 41.953026
11.022382 4.1055889 4.2688713 49 0 0 0 41.953026
8.8088226 4.3596563 -2.5428386 189 0 0 0 41.953026
6.3856521 2.3626192 -2.8062253 156 0 0 0 41.953026
10.050405 3.7672071 -3.2354412 36 0 0 0 41.953026
9.1410046 4.5261092 1.9253824 127 0 0 0 41.953026
3.0896974 1.0775574 -2.4501276 14 0 0 0 41.953026
11.42364 4.0515637 8.301178 15 0 0 0 41.953026
11.461287 4.292098 3.7607529 29 0 0 0 41.953026
11.323016 4.3036261 0.038289286 43 0 0 0 41.953026
6.5381188 5.0766764 2.6729994 29 0 0 0 41.953026
10.143118 4.8971167 9.2328911 19 0 0 0 41.953026
11.27704 4.2793612 -1.1501257 239 0 0 0 41.953026
7.1980138 4.5151582 -2.7656784 66 0 0 0 41.953026
8.854804 4.386281 -2.0442169 183 0 0 0 41.953026
9.1320133 4.5276275 1.4124287 140 0 0 0 41.953026
8.0736618 5.0563588 -2.587862 30 0 0 0 41.953026
7.4923725 4.6741867 0.68728721 207 0 0 0 41.953026
4.0116615 1.4410608 -2.5586762 248 0 0 0 41.953026
4.1698561 2.0447395 -2.5329812 252 0 0 0 41.953026
6.1909194 4.7934799 -1.8257021 328 0 0 0 41.953026
9.1055775 4.5184875 0.41144451 172 0 0 0 41.953026
3.6932898 2.9297218 -2.4389741 227 0 0 0 41.953026
9.7758245 4.8128824 4.3937254 94 0 0 0 41.953026
6.2561741 4.8142371 0.91437465 252 0 0 0 41.953026
4.2964201 3.38399 -2.491858 178 0 0 0 41.953026
8.5432339 4.2225814 -2.97523 34 0 0 0 41.953026
10.744326 5.1227407 12.023745 13 0 0 0 41.953026
7.4978352 4.6757703 0.25453478 253 0 0 0 41.953026
10.32903 5.0069809 8.4617643 31 0 0 0 41.953026
3.2046778 2.5603383 -2.3901837 92 0 0 0 41.953026
9.6867552 4.779551 3.7449069 106 0 0 0 41.953026
9.59161 4.7409415 3.1271079 112 0 0 0 41.953026
10.862746 4.0915766 -2.8814807 95 0 0 0 41.953026
10.218775 4.9756155 7.5154147 38 0 0 0 41.953026
8.2003107 5.1176858 -0.19601423 40 0 0 0 41.953026
6.1846232 4.8059525 -2.2422071 309 0 0 0 41.953026
11.43556 4.3189907 2.4689693 87 0 0 0 41.953026
4.8394794 2.379683 -2.6031249 201 0 0 0 41.953026
4.2528725 2.6840391 -2.5030639 229 0 0 0 41.953026
6.3288832 4.8666019 0.13754809 318 0 0 0 41.953026
7.7266231 4.8315578 2.5494483 27 0 0 0 41.953026
6.1979017 4.7954097 2.1114287 274 0 0 0 41.953026
6.2442517 4.8015919 0.52587569 344 0 0 0 41.953026
11.173852 3.9013472 9.0330009 28 0 0 0 41.953026
10.634971 6.7718124 10.070486 19 0 0 0 41.953026
7.5049644 4.6893435 2.0148635 176 0 0 0 41.953026
9.4495382 5.9154606 3.7127638 8 0 0 0 41.953026
6.2356977 4.8071933 1.305599 325 0 0 0 41.953026
8.8458395 4.3106093 -2.5458918 156 0 0 0 42.056705
9.2746487 4.5216527 1.9472919 118 0 0 0 42.056705
7.236887 4.4778991 -2.7700741 62 0 0 0 42.056705
11.179878 4.0863676 4.3197556 61 0 0 0 42.056705
9.9947176 6.1909614 5.2604399 12 0 0 0 42.056705
11.568199 4.2514148 3.7870064 31 0 0 0 42.056705
6.3498611 4.8210301 0.13740794 330 0 0 0 42.056705
7.5825877 4.6642375 0.25617033 245 0 0 0 42.056705
4.8572206 2.3515089 -2.6048892 188 0 0 0 42.056705
6.3165374 4.7957563 0.52923816 305 0 0 0 42.056705
8.1331072 5.0165067 -2.0973873 50 0 0 0 42.056705
11.350408 4.2345157 -0.55918628 204 0 0 0 42.056705
8.8701191 4.3262887 -2.0415318 156 0 0 0 42.056705
7.7799153 4.798727 2.5571785 37 0 0 0 42.056705
6.831893 3.3199778 -2.7826917 98 0 0 0 42.056705
5.9415483 3.6824515 -2.6588352 132 0 0 0 42.056705
11.645594 4.050096 8.4438601 28 0 0 0 42.056705
3.2479932 2.0336111 -2.4118271 118 0 0 0 42.056705
11.045494 4.0942488 -2.3122993 102 0 0 0 42.056705
6.2990537 4.7859735 0.91626078 276 0 0 0 42.056705
9.9541578 4.8014107 5.797739 62 0 0 0 42.056705
11.788242 4.3698564 2.5384088 57 0 0 0 42.056705
11.214139 3.8383877 9.0463266 24 0 0 0 42.056705
7.5842719 4.674428 2.0282116 172 0 0 0 42.056705
6.3012238 4.7963262 1.3129456 338 0 0 0 42.056705
7.5786967 4.6673322 1.1288296 243 0 0 0 42.056705
11.241702 4.1782432 -1.743566 178 0 0 0 42.056705
8.5921249 4.1813478 -2.9833851 40 0 0 0 42.056705
9.6776285 4.701426 3.7302637 121 0 0 0 42.056705
4.1791754 2.0175941 -2.5310383 242 0 0 0 42.056705
10.831252 5.1199093 10.902451 12 0 0 0 42.056705
3.2291081 2.5475383 -2.3968265 98 0 0 0 42.056705
9.7634106 4.7325592 4.3751249 102 0 0 0 42.056705
8.0331841 4.9626608 -2.5647001 74 0 0 0 42.056705
8.283494 5.0992346 -0.1974833 55 0 0 0 42.056705
11.438206 4.2673039 0.038305867 107 0 0 0 42.056705
6.3294172 4.8055248 -0.25281471 315 0 0 0 42.056705
6.2467575 4.7930241 -2.2542541 312 0 0 0 42.056705
6.1367421 4.7257957 -2.6433432 93 0 0 0 42.056705
10.108331 3.718358 -3.2468374 29 0 0 0 42.056705
3.0977542 1.0590955 -2.4513416 16 0 0 0 42.056705
10.234532 6.3667488 6.9190974 6 0 0 0 42.056705
8.259552 5.0884886 -1.1499104 64 0 0 0 42.056705
3.7145746 2.3182249 -2.4577692 278 0 0 0 42.056705
6.2864442 4.7850885 -1.0338811 291 0 0 0 42.056705
9.2111855 4.4966898 0.91437 179 0 0 0 42.056705
6.5646081 5.0329881 2.6711733 70 0 0 0 42.056705
9.0686998 4.4310398 -0.57594007 138 0 0 0 42.056705
10.91532 4.0720325 0.60866898 109 0 0 0 42.056705
11.753425 4.3686337 1.8971356 68 0 0 0 42.056705
4.022841 1.4172715 -2.5602415 242 0 0 0 42.056705
6.275156 4.7851868 1.7121847 305 0 0 0 42.056705
5.0018077 3.1051416 -2.5747967 159 0 0 0 42.056705
11.048615 4.0844169 -2.9247203 98 0 0 0 42.056705
9.1941824 4.492372 0.41396001 219 0 0 0 42.056705
12.048044 4.2920837 6.963089 32 0 0 0 42.056705
9.0003452 4.3956785 -1.0630895 168 0 0 0 42.056705
9.5189037 4.636651 2.5387464 96 0 0 0 42.056705
6.3126063 4.7962599 -0.64249784 304 0 0 0 42.056705
11.027097 4.1093802 1.1955942 97 0 0 0 42.056705
4.3214016 3.3609018 -2.4943843 207 0 0 0 42.056705
10.775556 5.0567183 12.023745 5 0 0 0 42.056705
9.8645735 4.7730875 5.066184 65 0 0 0 42.056705
10.802671 3.920512 4.8335052 42 0 0 0 42.056705
8.2400827 5.0745087 -0.66737121 49 0 0 0 42.056705
5.7122846 2.7719331 -2.6869683 140 0 0 0 42.056705
10.154098 4.8258123 9.2158012 17 0 0 0 42.056705
5.3932576 1.9422191 -2.7019229 201 0 0 0 42.056705
4.6200027 1.6466236 -2.6185832 258 0 0 0 42.056705
6.2695737 4.7809343 -1.4314612 290 0 0 0 42.056705
9.5074711 5.8708348 3.7212372 12 0 0 0 42.056705
8.1375942 5.0192733 -1.610653 45 0 0 0 42.056705
6.4095631 2.3268611 -2.8104756 106 0 0 0 42.056705
9.1206722 4.4544649 -0.083963275 199 0 0 0 42.056705
3.7111967 2.9070051 -2.4389741 235 0 0 0 42.056705
11.96651 4.307879 6.1134982 40 0 0 0 42.056705
10.203188 4.890799 7.4818439 52 0 0 0 42.056705
5.1222501 3.9626148 -2.5719571 99 0 0 0 42.056705
10.074744 4.8465643 6.6045666 50 0 0 0 42.056705
10.321021 4.9251122 8.4303722 22 0 0 0 42.056705
11.294693 4.2069573 -1.1492429 251 0 0 0 42.056705
9.2451067 4.5132546 1.425308 154 0 0 0 42.056705
7.8314915 2.8642659 -2.9652929 86 0 0 0 42.056705
10.677647 6.7072616 10.071733 28 0 0 0 42.056705
10.120995 6.2814145 6.0631337 6 0 0 0 42.056705
7.5854678 4.6678386 0.69289303 223 0 0 0 42.056705
4.2624459 2.6536531 -2.4989934 245 0 0 0 42.056705
6.2686977 4.7889509 2.1252956 223 0 0 0 42.056705
11.493094 4.2443361 3.1115389 66 0 0 0 42.056705
7.587656 4.6728482 1.5739462 220 0 0 0 42.056705
9.5980644 4.6710677 3.1198757 115 0 0 0 42.056705
6.2650518 4.7896438 -1.8391632 326 0 0 0 42.056705
3.5252185 1.2253593 -2.5057099 279 0 0 0 42.056705
8.9314365 4.3581409 -1.5513047 198 0 0 0 42.056705
8.9591179 4.3018594 -2.0561965 120 0 0 0 42.149376
11.812464 4.0271149 8.5465002 24 0 0 0 42.149376
12.173231 4.2073851 7.8858829 31 0 0 0 42.149376
8.154768 4.9610548 -1.6079297 65 0 0 0 42.149376
7.6674252 4.6573167 1.137507 252 0 0 0 42.149376
5.4212227 1.9148079 -2.7101383 196 0 0 0 42.149376
4.6374812 1.6208605 -2.6228817 240 0 0 0 42.149376
11.214747 4.0678468 -2.9625854 100 0 0 0 42.149376
5.0090785 3.0672398 -2.5686958 185 0 0 0 42.149376
11.33992 4.1447558 -1.1513031 142 0 0 0 42.149376
11.066703 4.0513773 0.61531079 94 0 0 0 42.149376
10.074697 4.7706361 6.5852914 49 0 0 0 42.149376
7.6553383 4.6536469 2.0393717 165 0 0 0 42.149376
6.6189194 5.0104246 2.6806087 35 0 0 0 42.149376
11.678733 4.2594595 1.8810997 198 0 0 0 42.149376
9.5094481 4.56006 2.5288322 101 0 0 0 42.149376
4.0411344 1.3959137 -2.5665026 255 0 0 0 42.149376
8.2719173 5.0243707 -0.66744393 53 0 0 0 42.149376
4.3441019 3.3359785 -2.4956472 181 0 0 0 42.149376
7.6844068 4.6676278 1.5877612 165 0 0 0 42.149376
8.3342819 5.0602427 -0.19803721 52 0 0 0 42.149376
8.0964117 4.9333344 -2.5753493 171 0 0 0 42.149376
10.979254 5.1077061 11.01942 11 0 0 0 42.149376
3.2541802 2.5350621 -2.4039805 166 0 0 0 42.149376
8.9277496 4.2887154 -1.5459273 164 0 0 0 42.149376
9.7671347 4.6605673 4.3639641 90 0 0 0 42.149376
6.3347092 4.7815633 -1.8512317 305 0 0 0 42.149376
4.1898975 1.9911623 -2.5300667 269 0 0 0 42.149376
9.5988274 4.598803 3.1109748 109 0 0 0 42.149376
8.6485672 4.1433806 -2.9942584 55 0 0 0 42.149376
9.6610851 4.6203289 3.7130172 98 0 0 0 42.149376
9.0163975 4.3352008 -1.0617769 149 0 0 0 42.149376
7.2820573 4.4442887 -2.7769821 63 0 0 0 42.149376
11.229962 4.0956182 -1.7376813 124 0 0 0 42.149376
3.2639909 2.0158529 -2.4145284 108 0 0 0 42.149376
6.3684287 4.7860203 1.3206117 347 0 0 0 42.149376
9.8543072 4.6937122 5.0461264 74 0 0 0 42.149376
5.979948 3.6556511 -2.6660514 144 0 0 0 42.149376
9.1828527 4.4172406 0.41236931 105 0 0 0 42.149376
11.29933 3.7902815 9.0959949 32 0 0 0 42.149376
11.744799 4.2719436 2.5235429 121 0 0 0 42.149376
3.5404787 1.2063771 -2.511358 309 0 0 0 42.149376
9.5725098 5.830164 3.7325349 15 0 0 0 42.149376
9.9353933 4.7174258 5.7699594 43 0 0 0 42.149376
6.36164 4.7896433 -1.4461498 322 0 0 0 42.149376
11.184667 4.0679989 -2.3365965 96 0 0 0 42.149376
10.222352 6.2725129 6.8848376 5 0 0 0 42.149376
6.3630228 4.7906833 1.7278165 309 0 0 0 42.149376
3.7338648 2.8879621 -2.4422398 235 0 0 0 42.149376
11.382741 4.1671968 -0.55953068 172 0 0 0 42.149376
9.2341137 4.4379277 0.9139421 139 0 0 0 42.149376
3.1109731 1.0423502 -2.4568043 26 0 0 0 42.149376
10.199027 4.8120646 7.4570789 60 0 0 0 42.149376
12.131335 4.2833691 6.183877 43 0 0 0 42.149376
9.3553972 4.4901919 1.9582466 114 0 0 0 42.149376
8.9662857 4.3014412 -2.5733705 144 0 0 0 42.149376
9.1316118 4.3906164 -0.083749652 196 0 0 0 42.149376
9.3333559 4.48564 1.4344308 203 0 0 0 42.149376
6.3937297 4.7927656 0.13763727 344 0 0 0 42.149376
11.728123 4.2287393 3.8304703 16 0 0 0 42.149376
11.552135 4.1127687 5.1557369 31 0 0 0 42.149376
8.1620674 4.9654942 -2.0969503 55 0 0 0 42.149376
9.7336063 5.9352579 4.4351234 11 0 0 0 42.149376
11.209102 4.0991154 1.2121048 88 0 0 0 42.149376
11.295051 4.0501108 4.3543572 50 0 0 0 42.149376
6.3762007 4.7831273 -0.64617825 316 0 0 0 42.149376
12.13638 4.239841 6.9988527 44 0 0 0 42.149376
9.0561419 4.3562684 -0.57326925 201 0 0 0 42.149376
6.8774953 3.2901332 -2.7931588 100 0 0 0 42.149376
4.2847295 2.6311812 -2.5026116 238 0 0 0 42.149376
4.873178 2.3224339 -2.6057711 223 0 0 0 42.149376
7.8207421 4.7579117 2.5609105 33 0 0 0 42.149376
7.685586 4.6646614 0.69908887 241 0 0 0 42.149376
6.3889856 4.7892127 0.53260058 346 0 0 0 42.149376
10.319689 4.8469577 8.4049044 24 0 0 0 42.149376
7.6820102 4.6606517 0.25822717 222 0 0 0 42.149376
10.69666 6.6280279 10.051167 20 0 0 0 42.149376
11.859885 4.2974095 3.2027776 18 0 0 0 42.149376
6.3265238 4.7719154 2.1347971 212 0 0 0 42.149376
6.3576856 4.7779555 -1.041019 347 0 0 0 42.149376
10.143548 3.6608145 -3.2509282 37 0 0 0 42.149376
7.8692775 2.8234751 -2.9731028 75 0 0 0 42.149376
8.2040911 4.9851513 -1.1374974 186 0 0 0 42.149376
5.1560507 3.9384205 -2.576829 115 0 0 0 42.149376
5.7432737 2.7435648 -2.6936898 113 0 0 0 42.149376
3.7302074 2.2962985 -2.4587624 270 0 0 0 42.149376
6.36409 4.7740521 0.92125344 277 0 0 0 42.149376
6.388381 4.7887602 -0.25416407 346 0 0 0 42.149376
6.1806703 4.6994805 -2.6499009 103 0 0 0 42.149376
11.486709 4.2052984 0.038310058 199 0 0 0 42.149376
6.3097305 4.7800922 -2.2665813 323 0 0 0 42.149376
6.4254575 2.2881088 -2.8112483 141 0 0 0 42.149376
4.6539865 1.5946591 -2.6267025 189 0 0 0 42.250751
6.4022112 4.7676172 2.1502049 261 0 0 0 42.250751
11.925166 4.2173471 3.8858941 86 0 0 0 42.250751
10.208186 3.6135211 -3.2646618 29 0 0 0 42.250751
7.788671 4.6657634 1.1508285 194 0 0 0 42.250751
6.4436736 4.7809472 1.3298748 345 0 0 0 42.250751
9.1025467 4.310019 -0.57460463 147 0 0 0 42.250751
4.0423536 1.3686216 -2.5618069 229 0 0 0 42.250751
6.9136615 3.2554603 -2.7997878 97 0 0 0 42.250751
8.271677 4.9530416 -0.19541214 24 0 0 0 42.250751
9.0572033 4.2866011 -1.0635271 151 0 0 0 42.250751
6.4618411 4.782146 -0.25616989 344 0 0 0 42.250751
4.8962731 2.2966838 -2.6106224 209 0 0 0 42.250751
9.5973272 4.5258856 3.1015177 99 0 0 0 42.250751
9.312335 4.4053974 1.4271863 119 0 0 0 42.250751
3.5446846 1.1835812 -2.5090988 325 0 0 0 42.250751
9.4862146 4.477529 2.5154598 101 0 0 0 42.250751
6.4518852 4.7782826 -0.65114248 371 0 0 0 42.250751
3.7494214 2.2765186 -2.4622393 263 0 0 0 42.250751
6.3959188 4.7664185 -1.8607473 271 0 0 0 42.250751
11.249254 4.0401673 0.6235761 85 0 0 0 42.250751
11.363637 4.0543771 -2.3693194 76 0 0 0 42.250751
11.100584 5.0815477 11.1095 17 0 0 0 42.250751
11.385107 3.7415226 9.1462688 10 0 0 0 42.250751
9.1799803 4.3466959 0.41114858 179 0 0 0 42.250751
12.26995 4.1567378 7.9317317 12 0 0 0 42.250751
5.1882658 3.9128447 -2.5809515 112 0 0 0 42.250751
10.186713 4.7300482 7.4268107 43 0 0 0 42.250751
5.0450106 3.0468326 -2.5776439 159 0 0 0 42.250751
6.4308138 4.7626934 0.92646801 291 0 0 0 42.250751
6.4244928 4.7754555 1.7363619 254 0 0 0 42.250751
9.7552214 4.5816035 4.3461075 98 0 0 0 42.250751
6.4366837 4.7845078 -1.4567991 313 0 0 0 42.250751
9.3872175 4.434804 1.9591595 104 0 0 0 42.250751
6.451365 4.7866478 -1.0519279 368 0 0 0 42.250751
11.508689 4.0472679 4.4266133 53 0 0 0 42.250751
9.1547661 4.3327918 -0.083702184 176 0 0 0 42.250751
11.313546 4.047646 -1.7469498 119 0 0 0 42.250751
9.227849 4.365416 0.91077518 166 0 0 0 42.250751
7.7868037 4.6609411 0.70535851 215 0 0 0 42.250751
11.657273 4.0698118 5.1912403 32 0 0 0 42.250751
9.9207916 4.6361046 5.7449584 55 0 0 0 42.250751
8.2340679 4.9403224 -1.6178019 134 0 0 0 42.250751
5.7691422 2.7125742 -2.6980391 121 0 0 0 42.250751
9.0773306 4.2864113 -2.5980506 159 0 0 0 42.250751
7.73564 4.6376867 2.0529389 152 0 0 0 42.250751
9.7666435 5.8734999 4.4336805 13 0 0 0 42.250751
10.038948 4.6785049 6.543191 54 0 0 0 42.250751
7.752634 4.6441827 1.5957772 168 0 0 0 42.250751
7.3401036 4.4181237 -2.7889137 81 0 0 0 42.250751
11.992799 4.0066895 8.6587276 23 0 0 0 42.250751
10.314132 4.7673149 8.3764734 32 0 0 0 42.250751
9.790575 5.8995552 5.1152349 14 0 0 0 42.250751
9.8483744 4.6169572 5.0285759 68 0 0 0 42.250751
11.317399 4.0601964 1.2208515 96 0 0 0 42.250751
4.3130016 2.6122301 -2.5098481 208 0 0 0 42.250751
11.778178 4.2024374 2.5251076 162 0 0 0 42.250751
4.3760605 3.3180201 -2.5023839 162 0 0 0 42.250751
6.4704561 4.7885151 0.13838896 337 0 0 0 42.250751
8.1265297 4.883563 -2.5753493 185 0 0 0 42.250751
5.4430914 1.8850565 -2.7153273 190 0 0 0 42.250751
9.7497377 5.8563704 3.7871408 48 0 0 0 42.250751
3.7487009 2.8628526 -2.4403737 234 0 0 0 42.250751
12.246023 4.2395706 6.2287812 73 0 0 0 42.250751
3.2727044 1.9936 -2.4118271 90 0 0 0 42.250751
8.6910715 4.0983706 -3.0002992 49 0 0 0 42.250751
6.3712406 4.7654181 -2.2783482 315 0 0 0 42.250751
3.1142914 1.0222462 -2.4543765 46 0 0 0 42.250751
6.2252617 4.6733704 -2.6567862 106 0 0 0 42.250751
6.654881 4.9737067 2.6827393 52 0 0 0 42.250751
6.4411173 2.2492492 -2.812021 167 0 0 0 42.250751
11.390221 4.0526438 -3.0028937 87 0 0 0 42.250751
8.2328215 4.9336982 -1.137254 161 0 0 0 42.250751
7.902422 2.7807648 -2.9792147 90 0 0 0 42.250751
8.2931786 4.9678841 -0.6666441 63 0 0 0 42.250751
11.703718 4.187386 1.8809526 165 0 0 0 42.250751
11.483124 4.1242499 0.038304646 122 0 0 0 42.250751
11.376378 4.0791321 -1.1524802 114 0 0 0 42.250751
10.166844 4.6797953 9.1746578 20 0 0 0 42.250751
9.0631847 4.2836099 -2.0743725 133 0 0 0 42.250751
6.0318217 3.6367013 -2.6794014 152 0 0 0 42.250751
10.634356 6.4994755 9.9551945 12 0 0 0 42.250751
7.7754002 4.6652169 2.5369196 94 0 0 0 42.250751
7.7893929 4.6606388 0.26050705 236 0 0 0 42.250751
3.2792206 2.5223739 -2.4111345 203 0 0 0 42.250751
11.842174 4.2089539 3.1910677 107 0 0 0 42.250751
4.2075782 1.9680102 -2.5334668 229 0 0 0 42.250751
9.0458336 4.2773433 -1.5622176 153 0 0 0 42.250751
9.6430578 4.5392098 3.6954455 75 0 0 0 42.250751
6.4615893 4.78196 0.53596306 366 0 0 0 42.250751
11.442872 4.1097779 -0.561351 117 0 0 0 42.250751
12.249472 4.1952271 7.0489225 26 0 0 0 42.250751
8.1781549 4.9067864 -2.093236 225 0 0 0 42.250751
12.339972 4.1418247 7.0861168 53 0 0 0 42.346752
8.7411299 4.0566072 -3.0090582 57 0 0 0 42.346752
7.9433384 2.7405188 -2.9883828 85 0 0 0 42.346752
6.4811983 4.7648568 2.1666398 237 0 0 0 42.346752
5.7965131 2.6821411 -2.7031791 133 0 0 0 42.346752
6.5322299 4.7724528 -0.25802982 343 0 0 0 42.346752
6.5144897 4.7630048 0.93401253 259 0 0 0 42.346752
11.522496 4.0315785 -2.3977318 80 0 0 0 42.346752
10.036917 4.6028047 6.5234084 64 0 0 0 42.346752
10.185719 6.1398396 9.5008841 10 0 0 0 42.346752
10.229262 3.550503 -3.2643695 32 0 0 0 42.346752
6.5277944 4.7814956 -1.0598739 330 0 0 0 42.346752
9.3212242 4.3398075 1.4245031 175 0 0 0 42.346752
8.3578558 4.9371901 -0.66955274 111 0 0 0 42.346752
11.532734 4.0623593 0.038309183 94 0 0 0 42.346752
9.8525085 5.8547678 5.1286569 14 0 0 0 42.346752
7.8727026 4.6506891 1.1587725 217 0 0 0 42.346752
6.950511 3.2208612 -2.8067658 101 0 0 0 42.346752
9.2201405 4.2927279 0.90752274 160 0 0 0 42.346752
7.8287659 4.6321406 2.5449166 109 0 0 0 42.346752
4.9208651 2.2714903 -2.6163559 200 0 0 0 42.346752
3.7655537 2.2548068 -2.4637291 290 0 0 0 42.346752
10.02796 5.9708738 5.9410605 10 0 0 0 42.346752
4.3350754 2.5893738 -2.5134664 230 0 0 0 42.346752
8.1627531 4.8296871 -2.0814378 252 0 0 0 42.346752
11.512145 4.0550995 -0.5636633 105 0 0 0 42.346752
11.798099 4.0379786 5.2425656 53 0 0 0 42.346752
9.1885252 4.2701793 -2.6227305 144 0 0 0 42.346752
6.5351491 4.7745833 0.53938782 356 0 0 0 42.346752
9.8049049 5.814889 4.4347625 39 0 0 0 42.346752
7.3940191 4.3889904 -2.7992754 79 0 0 0 42.346752
9.1947746 4.2828722 -0.083880201 182 0 0 0 42.346752
12.281201 4.167542 6.2335305 78 0 0 0 42.346752
8.1248283 4.8149381 -2.5652325 247 0 0 0 42.346752
4.0490561 1.3432535 -2.5607634 218 0 0 0 42.346752
11.87968 4.1403656 3.1942391 114 0 0 0 42.346752
10.169222 4.6462822 7.39324 37 0 0 0 42.346752
11.522898 4.0204096 -3.0317202 101 0 0 0 42.346752
7.8686466 4.6427217 0.26196912 251 0 0 0 42.346752
6.4451671 4.7592859 -2.2945979 330 0 0 0 42.346752
9.1821976 4.2789679 -0.57818598 154 0 0 0 42.346752
6.5237255 4.7697501 -0.65567881 363 0 0 0 42.346752
11.655128 4.0186262 4.4730878 53 0 0 0 42.346752
6.2644501 4.6429543 -2.6613765 105 0 0 0 42.346752
6.453052 2.2090864 -2.8112483 152 0 0 0 42.346752
5.2218485 3.888128 -2.5858235 95 0 0 0 42.346752
9.3901825 4.3659267 1.9542298 101 0 0 0 42.346752
9.7443943 4.5037413 4.3289948 81 0 0 0 42.346752
3.5565841 1.1633543 -2.5124876 313 0 0 0 42.346752
6.5262647 4.7803764 1.3405752 288 0 0 0 42.346752
12.436973 4.1284804 8.0229082 33 0 0 0 42.346752
9.1992321 4.2869091 0.41085264 143 0 0 0 42.346752
12.058749 3.9466569 8.6886177 19 0 0 0 42.346752
3.2812676 1.9713161 -2.409126 72 0 0 0 42.346752
9.5883255 4.4499245 3.0898352 103 0 0 0 42.346752
11.486552 4.0302696 -1.7703416 88 0 0 0 42.346752
5.0879459 3.0303051 -2.5902526 127 0 0 0 42.346752
9.181119 4.2725992 -1.5815129 133 0 0 0 42.346752
3.7753839 2.8467112 -2.4464388 215 0 0 0 42.346752
6.4931135 4.7648578 1.746783 263 0 0 0 42.346752
6.4960461 4.7670074 -1.4637762 263 0 0 0 42.346752
9.9160366 4.559957 5.725976 63 0 0 0 42.346752
9.7585278 5.7804713 3.7767844 104 0 0 0 42.346752
6.7075105 4.9491696 2.6915658 52 0 0 0 42.346752
5.4622383 1.8542372 -2.7192187 237 0 0 0 42.346752
7.8453174 4.6308126 0.7079401 180 0 0 0 42.346752
8.2345409 4.872148 -1.6118445 247 0 0 0 42.346752
9.642417 4.4668355 3.6847072 88 0 0 0 42.346752
10.296986 4.6829181 8.339159 30 0 0 0 42.346752
4.4065089 3.2987087 -2.5082784 200 0 0 0 42.346752
12.151544 3.9112768 9.7410765 22 0 0 0 42.346752
11.819477 4.1355996 2.5284331 122 0 0 0 42.346752
9.1734333 4.2729282 -1.0744659 157 0 0 0 42.346752
9.832799 4.5362654 5.0064287 73 0 0 0 42.346752
11.165979 5.0288496 11.143784 15 0 0 0 42.346752
9.1620407 4.2617669 -2.0913093 109 0 0 0 42.346752
7.8335881 4.6275907 1.6063515 211 0 0 0 42.346752
10.179149 4.6099763 9.160099 23 0 0 0 42.346752
11.434905 4.0278635 0.63198906 73 0 0 0 42.346752
8.2928495 4.9007597 -1.1415135 250 0 0 0 42.346752
11.733857 4.1171336 1.8816882 120 0 0 0 42.346752
4.6678467 1.5674748 -2.6290908 233 0 0 0 42.346752
11.50539 4.0459309 -1.1633698 87 0 0 0 42.346752
6.5401006 4.7781968 0.139026 326 0 0 0 42.346752
11.97341 4.1519384 3.8931866 124 0 0 0 42.346752
3.7451434 1.718027 -2.5234776 14 0 0 0 42.346752
3.3014867 2.5073969 -2.4162443 219 0 0 0 42.346752
6.0692554 3.6086755 -2.6862566 143 0 0 0 42.346752
11.511053 4.0501876 1.2385415 87 0 0 0 42.346752
3.1182363 1.0023851 -2.4525554 46 0 0 0 42.346752
4.2354527 1.9494705 -2.5431814 265 0 0 0 42.346752
8.3604546 4.9367514 -0.1970498 110 0 0 0 42.346752
7.8403931 4.6353126 2.0728519 161 0 0 0 42.346752
6.4799094 4.7674065 -1.8769934 314 0 0 0 42.346752
9.5011559 4.4134974 2.5122321 85 0 0 0 42.346752
6.6153383 4.7711501 0.5433107 289 0 0 0 42.44685
9.3271217 4.265214 -2.655298 155 0 0 0 42.44685
9.3115187 4.2679324 -1.0880299 156 0 0 0 42.44685
9.8298407 4.4619489 4.9909678 84 0 0 0 42.44685
12.312532 4.0941014 6.2365527 57 0 0 0 42.44685
9.5848703 4.3770385 3.0800998 74 0 0 0 42.44685
7.967422 4.6409197 1.6275001 145 0 0 0 42.44685
6.6045923 4.7669239 -0.66115665 308 0 0 0 42.44685
12.017676 4.0848632 3.8993125 66 0 0 0 42.44685
6.5523419 4.7589731 -1.8897582 311 0 0 0 42.44685
6.5643029 4.7641416 2.1843586 193 0 0 0 42.44685
10.294638 4.6058245 8.3142834 27 0 0 0 42.44685
9.3211708 4.2684102 -1.601599 122 0 0 0 42.44685
11.915872 4.0711613 3.1971667 91 0 0 0 42.44685
12.493724 4.0623951 8.0432281 47 0 0 0 42.44685
10.005946 5.8749156 5.9066992 16 0 0 0 42.44685
10.19593 4.5423889 9.149972 28 0 0 0 42.44685
11.692743 4.0314298 -1.1803418 91 0 0 0 42.44685
9.3404703 4.2792287 1.4234298 175 0 0 0 42.44685
9.7659349 5.7042069 3.7661145 89 0 0 0 42.44685
10.028051 4.5244694 6.4995685 70 0 0 0 42.44685
3.1235704 0.98299348 -2.4519486 61 0 0 0 42.44685
6.5766439 4.7467732 0.93856144 297 0 0 0 42.44685
5.8262353 2.6526165 -2.7095053 133 0 0 0 42.44685
9.3143778 4.2712154 0.41447791 161 0 0 0 42.44685
11.730402 4.0467234 1.258885 97 0 0 0 42.44685
9.4652271 4.3263874 2.4958622 136 0 0 0 42.44685
7.9698043 2.6950471 -2.9921181 105 0 0 0 42.44685
5.2500916 3.8593061 -2.5880721 101 0 0 0 42.44685
12.382687 4.0718021 7.0961308 43 0 0 0 42.44685
3.8041399 2.8319323 -2.4539034 246 0 0 0 42.44685
6.4778504 2.1732705 -2.8162713 132 0 0 0 42.44685
3.7355142 1.6859342 -2.5097113 42 0 0 0 42.44685
4.2560925 1.9274149 -2.5485244 248 0 0 0 42.44685
10.148042 4.5615406 7.3574686 38 0 0 0 42.44685
8.3466225 4.8617249 -0.66606236 275 0 0 0 42.44685
6.5578241 4.7506866 -1.4713042 253 0 0 0 42.44685
9.3017759 4.2634649 -0.084936455 153 0 0 0 42.44685
5.4991741 1.8292438 -2.7321908 182 0 0 0 42.44685
4.3508816 2.5627255 -2.5134664 192 0 0 0 42.44685
4.0604663 1.3194417 -2.5628502 245 0 0 0 42.44685
11.998437 4.0245385 5.3201327 60 0 0 0 42.44685
8.2395954 4.8071332 -1.6069084 245 0 0 0 42.44685
4.4339652 3.276994 -2.5124886 185 0 0 0 42.44685
6.742373 4.9112825 2.693392 31 0 0 0 42.44685
3.3034399 1.9571465 -2.4166894 39 0 0 0 42.44685
10.066001 5.9243817 6.7055941 11 0 0 0 42.44685
8.1720028 4.7677112 -2.0761943 248 0 0 0 42.44685
6.5547132 4.7484355 1.7553284 284 0 0 0 42.44685
6.308075 4.6155782 -2.6679342 89 0 0 0 42.44685
5.1056557 2.9985666 -2.5898459 150 0 0 0 42.44685
6.5995827 4.7721033 -1.0670118 323 0 0 0 42.44685
6.5425367 4.7693768 -2.3192523 291 0 0 0 42.44685
12.159796 3.89732 8.743886 31 0 0 0 42.44685
11.714318 4.006803 -3.0761814 90 0 0 0 42.44685
8.7736607 4.0064616 -3.0117764 54 0 0 0 42.44685
12.189731 3.8411918 9.7525854 8 0 0 0 42.44685
11.855761 4.0668211 2.5307803 82 0 0 0 42.44685
9.852478 5.7616792 4.4401722 86 0 0 0 42.44685
7.4437556 4.3569641 -2.8080673 63 0 0 0 42.44685
7.969265 4.6382575 0.71612751 256 0 0 0 42.44685
8.1034489 4.7353363 -2.5489926 269 0 0 0 42.44685
6.6100388 4.7673321 -0.26021796 341 0 0 0 42.44685
9.7397385 4.4292603 4.3148584 73 0 0 0 42.44685
11.757963 4.0447364 1.881541 90 0 0 0 42.44685
3.5652266 1.142015 -2.5136173 294 0 0 0 42.44685
11.608479 4.0091643 0.038318608 110 0 0 0 42.44685
10.275297 3.495997 -3.272259 25 0 0 0 42.44685
8.296176 4.8342953 -1.1377409 272 0 0 0 42.44685
7.9268212 4.6172786 1.1624389 255 0 0 0 42.44685
3.7815607 2.2329824 -2.4652193 247 0 0 0 42.44685
6.6106715 4.7677879 0.13967577 325 0 0 0 42.44685
11.581176 3.9997246 0.63833565 68 0 0 0 42.44685
9.3348045 4.2726793 -2.1253893 126 0 0 0 42.44685
7.9470911 4.6328082 2.0932026 156 0 0 0 42.44685
4.684051 1.5410064 -2.6329117 236 0 0 0 42.44685
6.1057673 3.5798552 -2.6927514 137 0 0 0 42.44685
10.10353 6.0061088 9.3899546 13 0 0 0 42.44685
9.9024353 5.8025155 5.1359782 36 0 0 0 42.44685
6.5874829 4.7633634 1.3469636 300 0 0 0 42.44685
11.784716 3.98261 4.5131173 62 0 0 0 42.44685
9.3080778 4.2683258 -0.58486295 132 0 0 0 42.44685
11.722425 4.0324984 -1.8035905 81 0 0 0 42.44685
7.9471073 4.6235032 0.26340643 215 0 0 0 42.44685
9.9179888 4.4873319 5.7111602 55 0 0 0 42.44685
11.769607 4.0372367 -2.4447589 73 0 0 0 42.44685
8.4311972 4.9089961 -0.19818172 185 0 0 0 42.44685
9.2191343 4.2236204 0.90495503 159 0 0 0 42.44685
11.616103 4.0117998 -0.56779599 104 0 0 0 42.44685
6.9829326 3.1839874 -2.8119993 105 0 0 0 42.44685
4.9363441 2.2419965 -2.617238 199 0 0 0 42.44685
3.3209395 2.4901817 -2.4193103 201 0 0 0 42.44685
9.6231842 4.3864026 3.6671355 74 0 0 0 42.44685
9.3989143 4.3000441 1.9505783 122 0 0 0 42.44685
7.8970037 4.6073241 2.5577116 94 0 0 0 42.44685
10.294683 4.5302348 8.2917757 24 0 0 0 42.542591
3.8242974 2.8106298 -2.4557695 219 0 0 0 42.542591
8.3978624 4.8208466 -0.19642363 266 0 0 0 42.542591
6.6344023 4.7566261 -1.9053081 295 0 0 0 42.542591
12.076995 4.0225444 3.9103973 67 0 0 0 42.542591
9.5111179 4.2770109 2.5009346 103 0 0 0 42.542591
6.6878781 4.7613277 0.14042746 314 0 0 0 42.542591
12.524921 3.9877324 8.0473957 32 0 0 0 42.542591
9.8288298 4.3889518 4.9767604 63 0 0 0 42.542591
11.870954 4.013916 1.2709732 90 0 0 0 42.542591
8.040184 4.617456 1.6363689 194 0 0 0 42.542591
3.3306251 2.4656723 -2.4152224 239 0 0 0 42.542591
8.3033047 4.7704473 -1.1345767 274 0 0 0 42.542591
8.005826 4.601459 2.1010802 120 0 0 0 42.542591
9.7438564 4.3591771 4.3048139 73 0 0 0 42.542591
3.1348574 0.96545416 -2.4561973 84 0 0 0 42.542591
9.4196539 4.2497473 0.41769624 159 0 0 0 42.542591
6.7762494 4.8725982 2.6949139 28 0 0 0 42.542591
9.4236088 4.249547 -1.0984217 162 0 0 0 42.542591
8.0650492 4.6279774 0.72188085 253 0 0 0 42.542591
11.897221 3.9996293 2.534301 84 0 0 0 42.542591
9.4246044 4.2460275 -1.6152005 128 0 0 0 42.542591
9.9259024 4.4177394 5.7000484 38 0 0 0 42.542591
4.453989 3.2497261 -2.5124886 229 0 0 0 42.542591
3.5713797 1.1198697 -2.5130525 298 0 0 0 42.542591
8.2373295 4.7383103 -1.6006107 248 0 0 0 42.542591
8.0604801 4.6366162 2.6008954 45 0 0 0 42.542591
8.8032951 3.9548967 -3.0135887 47 0 0 0 42.542591
5.5051517 1.7937871 -2.7295964 168 0 0 0 42.542591
12.409219 3.8268938 9.9088583 22 0 0 0 42.542591
11.869718 4.0019321 -1.8228631 63 0 0 0 42.542591
10.095405 5.8585863 6.7011256 8 0 0 0 42.542591
5.1239586 2.9671824 -2.5898459 146 0 0 0 42.542591
9.5949001 4.3106632 3.074815 106 0 0 0 42.542591
6.6091928 4.7263193 1.7619981 291 0 0 0 42.542591
6.6487365 4.7457781 1.353352 258 0 0 0 42.542591
6.6196451 4.7337861 -1.4788321 271 0 0 0 42.542591
9.6361132 4.3210812 3.6619289 88 0 0 0 42.542591
9.3520527 4.2152987 0.91505474 133 0 0 0 42.542591
12.31899 3.8652062 8.8408861 29 0 0 0 42.542591
8.0698557 4.6288571 0.26610759 215 0 0 0 42.542591
6.6005182 4.7498741 -2.3296182 259 0 0 0 42.542591
4.2710323 1.9026875 -2.5504673 273 0 0 0 42.542591
10.158278 4.4914193 7.3448105 42 0 0 0 42.542591
8.0981054 4.6658006 -2.5380771 244 0 0 0 42.542591
9.8569393 5.6834168 4.4264679 73 0 0 0 42.542591
8.3572674 4.7994947 -0.66446263 277 0 0 0 42.542591
8.1698036 4.6994805 -2.0681105 266 0 0 0 42.542591
7.4917312 4.3235431 -2.816231 78 0 0 0 42.542591
4.3850374 2.5467255 -2.5243211 211 0 0 0 42.542591
11.940015 4.0024109 -3.1296813 74 0 0 0 42.542591
9.4262009 4.2507167 -0.086218193 166 0 0 0 42.542591
4.077425 1.297357 -2.5685897 275 0 0 0 42.542591
9.4618788 4.2588429 1.958064 80 0 0 0 42.542591
12.163995 3.9972577 5.3822637 50 0 0 0 42.542591
11.845466 4.0029798 -1.193684 100 0 0 0 42.542591
12.438391 4.0057268 7.1137743 25 0 0 0 42.542591
11.87322 3.9315374 4.5375419 57 0 0 0 42.542591
9.9513006 5.7494135 5.1428928 44 0 0 0 42.542591
10.113203 5.9281855 9.3650265 27 0 0 0 42.542591
11.873203 4.0193071 -0.57989877 83 0 0 0 42.542591
6.6710567 4.7528849 -0.66509378 342 0 0 0 42.542591
12.345997 4.0212727 6.2408705 37 0 0 0 42.542591
6.6745825 4.7518721 0.5456146 256 0 0 0 42.542591
4.9565625 2.214596 -2.6207664 180 0 0 0 42.542591
9.4414482 4.2595835 -0.59202558 152 0 0 0 42.542591
9.4413071 4.2475934 -2.6807413 153 0 0 0 42.542591
6.6279922 4.7485228 2.1956577 204 0 0 0 42.542591
11.984764 4.012764 3.2088764 67 0 0 0 42.542591
7.0160179 3.1472204 -2.8175817 85 0 0 0 42.542591
8.060874 4.6293344 1.1774715 177 0 0 0 42.542591
9.7571402 5.6190686 3.7494817 85 0 0 0 42.542591
4.6975985 1.5135875 -2.6352997 245 0 0 0 42.542591
11.89732 3.9996624 -2.4665089 81 0 0 0 42.542591
10.007838 5.7937508 5.886806 46 0 0 0 42.542591
9.4224005 4.2430506 -2.139641 122 0 0 0 42.542591
11.739825 3.9741082 0.64532185 86 0 0 0 42.542591
3.8079443 2.2171569 -2.4736626 269 0 0 0 42.542591
10.203756 4.4710398 9.1322479 33 0 0 0 42.542591
10.334656 3.4456019 -3.2845316 20 0 0 0 42.542591
9.4352083 4.2527928 1.4336259 152 0 0 0 42.542591
11.894258 4.0264421 0.03836678 83 0 0 0 42.542591
10.028844 4.450963 6.4823222 61 0 0 0 42.542591
6.6688018 4.7512798 0.94721544 284 0 0 0 42.542591
5.8474307 2.6190712 -2.7118776 123 0 0 0 42.542591
6.4980721 2.1357906 -2.8193624 124 0 0 0 42.542591
6.6529431 4.7487774 -1.0710522 291 0 0 0 42.542591
5.2789278 3.8308277 -2.5906954 109 0 0 0 42.542591
3.7403619 1.6605703 -2.506005 81 0 0 0 42.542591
7.9951177 2.6490574 -2.9955137 86 0 0 0 42.542591
6.3508334 4.5872879 -2.6741638 114 0 0 0 42.542591
6.692101 4.7643309 -0.26258847 321 0 0 0 42.542591
6.1276178 3.5423236 -2.6927514 118 0 0 0 42.542591
11.843476 3.9930751 1.8911037 78 0 0 0 42.542591
9.7627745 4.2959423 4.3014655 76 0 0 0 42.641151
10.294928 4.4551387 8.2698612 28 0 0 0 42.641151
8.1764126 4.6367507 -2.0624299 216 0 0 0 42.641151
3.1483285 0.94850439 -2.4622669 127 0 0 0 42.641151
9.8264627 4.3157701 4.9621348 66 0 0 0 42.641151
9.5733089 4.2365603 -2.7112732 119 0 0 0 42.641151
8.303916 4.7032709 -1.1305608 268 0 0 0 42.641151
6.6960282 4.7388506 -1.9148238 301 0 0 0 42.641151
4.086123 1.2725685 -2.5691113 268 0 0 0 42.641151
8.1636086 4.6181679 0.72785544 220 0 0 0 42.641151
9.5985813 4.2457395 2.5168431 105 0 0 0 42.641151
10.131782 5.8558478 9.3488235 27 0 0 0 42.641151
3.5742407 1.0967199 -2.5102284 318 0 0 0 42.641151
8.3639917 4.735353 -0.66257197 290 0 0 0 42.641151
3.7613633 1.642345 -2.5134175 101 0 0 0 42.641151
6.7539411 4.749691 0.95487088 317 0 0 0 42.641151
9.6858034 4.2721801 3.6707149 84 0 0 0 42.641151
6.6545906 4.7270613 -2.3385835 239 0 0 0 42.641151
6.408102 4.5690594 -2.6866231 113 0 0 0 42.641151
6.1484275 3.5041969 -2.6923904 149 0 0 0 42.641151
8.1249056 4.6150723 -2.5375447 214 0 0 0 42.641151
12.113799 4.0016952 1.929649 82 0 0 0 42.641151
9.5269785 4.2200379 -2.1578169 117 0 0 0 42.641151
6.7668891 4.7552471 0.14120463 350 0 0 0 42.641151
12.380363 3.8011935 8.8679562 42 0 0 0 42.641151
6.7881474 4.8182559 2.6879134 59 0 0 0 42.641151
10.134176 5.7982554 6.7031116 29 0 0 0 42.641151
12.130163 3.995343 2.5781164 68 0 0 0 42.641151
12.084104 3.9684436 -3.1614392 85 0 0 0 42.641151
9.9714966 4.3649297 5.7106972 27 0 0 0 42.641151
10.041983 7.1889615 5.3856983 6 0 0 0 42.641151
3.3533313 2.4507606 -2.4208434 246 0 0 0 42.641151
6.726974 4.7395511 1.3630942 254 0 0 0 42.641151
8.4064016 4.7574134 -0.19584563 285 0 0 0 42.641151
12.014255 3.9687765 -1.8416944 91 0 0 0 42.641151
8.8404751 3.9065878 -3.0181193 53 0 0 0 42.641151
5.158731 2.9451942 -2.5983875 142 0 0 0 42.641151
6.7467747 4.7623291 1.7903436 209 0 0 0 42.641151
12.465981 3.7608044 9.9355097 15 0 0 0 42.641151
9.5511093 5.4116449 2.4921196 106 0 0 0 42.641151
10.211092 4.399766 9.1145248 30 0 0 0 42.641151
10.144078 5.8204188 7.5264969 8 0 0 0 42.641151
9.537138 4.2265368 -1.6303837 145 0 0 0 42.641151
4.4863644 3.2313378 -2.5196464 214 0 0 0 42.641151
12.080079 4.0069571 0.038396452 75 0 0 0 42.641151
5.5057487 1.7566777 -2.7244077 208 0 0 0 42.641151
12.513028 3.9452059 7.1423855 31 0 0 0 42.641151
12.103164 4.0099225 1.2925942 96 0 0 0 42.641151
3.8486352 2.792299 -2.4604349 278 0 0 0 42.641151
4.3974848 2.5179996 -2.522512 241 0 0 0 42.641151
9.7501478 5.5356603 3.7337902 85 0 0 0 42.641151
12.091794 4.0038047 -1.2167383 98 0 0 0 42.641151
12.181462 3.9745004 3.9360671 67 0 0 0 42.641151
6.5207105 2.0989938 -2.8236127 110 0 0 0 42.641151
8.0201664 2.6028583 -2.9989092 77 0 0 0 42.641151
12.451207 3.9712336 6.2814569 41 0 0 0 42.641151
6.7656965 4.7544098 0.55034697 314 0 0 0 42.641151
9.6533432 5.4740171 3.0983067 92 0 0 0 42.641151
12.10867 3.9718275 3.2352233 70 0 0 0 42.641151
8.3544436 5.953054 3.8808429 12 0 0 0 42.641151
10.334696 3.375288 -3.2778111 46 0 0 0 42.641151
12.079638 4.0068107 -0.58934492 82 0 0 0 42.641151
9.9633694 5.6751356 5.1310973 49 0 0 0 42.641151
8.1546736 4.6112313 0.26771834 177 0 0 0 42.641151
6.7152457 4.740097 -1.4940716 302 0 0 0 42.641151
6.7027874 4.7401075 2.2105517 222 0 0 0 42.641151
9.5633755 4.2441764 0.42246827 162 0 0 0 42.641151
4.9766302 2.187032 -2.6242945 217 0 0 0 42.641151
9.6440105 4.2618065 3.082047 107 0 0 0 42.641151
9.5330915 4.2307324 -0.59639597 168 0 0 0 42.641151
9.5276423 4.2263174 -1.107829 136 0 0 0 42.641151
8.2388163 4.6721268 -1.5951641 271 0 0 0 42.641151
10.070971 4.395896 6.49196 44 0 0 0 42.641151
9.58251 4.2486577 1.4516032 161 0 0 0 42.641151
7.0557728 3.1131949 -2.8259552 106 0 0 0 42.641151
6.745749 4.7439356 -0.66988689 344 0 0 0 42.641151
12.327909 3.9675293 5.4436226 48 0 0 0 42.641151
9.5508156 4.2366004 -0.087499931 150 0 0 0 42.641151
6.7330055 4.7437963 -1.0795369 316 0 0 0 42.641151
12.600487 3.9268227 8.0802193 41 0 0 0 42.641151
4.2810254 1.875743 -2.5494957 236 0 0 0 42.641151
5.3113828 3.8048377 -2.5951927 111 0 0 0 42.641151
3.8312643 2.1993642 -2.4801192 306 0 0 0 42.641151
10.158082 4.4170151 7.3249989 45 0 0 0 42.641151
8.1961365 4.6403513 1.6617813 144 0 0 0 42.641151
12.047361 3.9680414 -2.4929616 80 0 0 0 42.641151
4.7109852 1.4860604 -2.6376879 192 0 0 0 42.641151
11.891006 3.9441757 0.65191442 79 0 0 0 42.641151
6.7580147 4.7490172 -0.2642296 337 0 0 0 42.641151
8.1297245 4.6027632 1.1832156 195 0 0 0 42.641151
10.028481 5.7238359 5.8782153 40 0 0 0 42.641151
5.8759985 2.5887003 -2.7178085 125 0 0 0 42.641151
9.8389177 5.592875 4.4030256 95 0 0 0 42.641151
7.5304985 4.284534 -2.820941 64 0 0 0 42.641151
9.5615473 4.2333546 1.9730355 110 0 0 0 42.641151
9.4852114 4.2055025 0.92515445 124 0 0 0 42.641151
11.94633 3.8745892 4.5561996 66 0 0 0 42.641151
12.584676 3.9289336 6.3362923 28 0 0 0 42.739201
8.0530157 2.5590191 -3.0053608 114 0 0 0 42.739201
9.678072 4.2242041 0.42605656 166 0 0 0 42.739201
12.301973 3.9684796 -2.5413601 68 0 0 0 42.739201
9.738658 4.2364626 2.5463548 125 0 0 0 42.739201
12.839862 3.91523 8.2177658 24 0 0 0 42.739201
9.7325573 5.4469867 3.7143331 88 0 0 0 42.739201
3.8692937 2.7712035 -2.4627676 287 0 0 0 42.739201
9.7316418 4.2293596 3.1015177 76 0 0 0 42.739201
9.6176853 4.193831 0.93516862 110 0 0 0 42.739201
9.6841784 4.2208195 -1.6515769 128 0 0 0 42.739201
3.7815018 1.6235894 -2.5203009 129 0 0 0 42.739201
4.5135036 3.2089994 -2.5238566 193 0 0 0 42.739201
8.2709217 4.6158972 1.6709912 173 0 0 0 42.739201
10.307243 4.3855753 8.2580147 34 0 0 0 42.739201
9.8627672 4.2597184 4.9671493 58 0 0 0 42.739201
12.046977 3.825727 4.5853734 42 0 0 0 42.739201
3.8590419 2.1839318 -2.4895561 327 0 0 0 42.739201
6.8371339 4.7421794 -0.26645422 304 0 0 0 42.739201
9.806839 4.2437019 4.309278 77 0 0 0 42.739201
9.5543165 5.3362894 2.4844608 120 0 0 0 42.739201
5.1902413 2.9210992 -2.6053021 155 0 0 0 42.739201
8.871273 3.8553107 -3.0205357 46 0 0 0 42.739201
9.8266668 5.5064168 4.3824687 82 0 0 0 42.739201
6.8183556 4.7415528 1.3753918 292 0 0 0 42.739201
6.7555289 4.7154741 2.2182558 220 0 0 0 42.739201
9.955759 4.2854342 5.6866221 39 0 0 0 42.739201
10.1431 5.7210422 6.6857333 47 0 0 0 42.739201
9.6933422 4.2308712 -0.6053189 159 0 0 0 42.739201
8.4597454 5.9501214 3.9124939 27 0 0 0 42.739201
9.6829405 4.2243128 -0.088876612 135 0 0 0 42.739201
12.442994 3.7370481 8.8961544 23 0 0 0 42.739201
12.305621 3.9815433 1.9558361 96 0 0 0 42.739201
8.257122 4.6044083 0.73338747 203 0 0 0 42.739201
10.123096 4.3448997 6.5081916 36 0 0 0 42.739201
6.1690001 3.4659483 -2.6920297 126 0 0 0 42.739201
4.096302 1.248221 -2.5706766 243 0 0 0 42.739201
12.330678 3.9658458 -3.2203135 66 0 0 0 42.739201
8.2352104 4.5903044 0.26920521 202 0 0 0 42.739201
10.145096 5.7807961 9.3282585 27 0 0 0 42.739201
12.18663 3.9594929 -0.59362513 94 0 0 0 42.739201
5.3406873 3.7764542 -2.5981908 116 0 0 0 42.739201
9.696207 4.2240443 -2.1908643 139 0 0 0 42.739201
9.7064142 4.2244515 -2.7420597 144 0 0 0 42.739201
10.298345 5.8442512 8.5042505 9 0 0 0 42.739201
8.2251539 4.5979185 -2.0676734 193 0 0 0 42.739201
9.6737967 4.2183075 1.4612627 122 0 0 0 42.739201
6.8452539 4.7478056 0.14196907 327 0 0 0 42.739201
4.2932568 1.849786 -2.5499816 254 0 0 0 42.739201
12.468155 3.9284451 5.4945626 39 0 0 0 42.739201
6.8099365 4.7268672 -0.6735673 357 0 0 0 42.739201
6.7813177 4.7246346 -1.5025176 168 0 0 0 42.739201
12.665095 3.736315 10.075429 17 0 0 0 42.739201
8.2254057 4.6056204 -2.5604405 202 0 0 0 42.739201
8.3152838 4.6425557 -1.1281269 255 0 0 0 42.739201
3.5895936 1.0773883 -2.5164413 330 0 0 0 42.739201
12.762073 3.9378836 7.2701817 21 0 0 0 42.739201
12.262298 3.9841037 0.038425423 86 0 0 0 42.739201
6.8059311 4.7329221 -1.0868095 290 0 0 0 42.739201
6.5343461 2.0592215 -2.8239992 124 0 0 0 42.739201
3.3683059 2.4301388 -2.4208434 240 0 0 0 42.739201
10.038695 7.093874 5.3606176 11 0 0 0 42.739201
12.401493 3.962333 3.9987836 52 0 0 0 42.739201
9.7081289 4.2272186 1.997501 118 0 0 0 42.739201
6.7401352 4.708251 -1.9192333 45 0 0 0 42.739201
12.688603 4.1055918 -1.9433535 111 0 0 0 42.739201
8.412734 4.6930833 -0.19521947 274 0 0 0 42.739201
7.5773497 4.2498546 -2.8287909 60 0 0 0 42.739201
6.8007541 4.7381616 1.7968048 241 0 0 0 42.739201
9.6718283 4.2194633 -1.1220493 125 0 0 0 42.739201
6.8197093 4.7336431 0.95986354 330 0 0 0 42.739201
4.9998407 2.1607296 -2.6295872 197 0 0 0 42.739201
8.2621679 4.6186023 -1.5941428 217 0 0 0 42.739201
12.318697 3.9738803 2.6125426 97 0 0 0 42.739201
6.817584 4.7765141 2.6879134 39 0 0 0 42.739201
9.7638807 4.2352524 3.6902392 66 0 0 0 42.739201
6.4630666 4.5486703 -2.6980989 103 0 0 0 42.739201
10.033871 5.6455779 5.8610349 42 0 0 0 42.739201
10.212571 5.7767105 7.5507941 16 0 0 0 42.739201
10.201882 4.3618264 7.3371062 30 0 0 0 42.739201
8.3876638 4.6810274 -0.66213572 336 0 0 0 42.739201
10.202256 4.3219247 9.0828762 14 0 0 0 42.739201
10.378892 3.3193955 -3.2854083 57 0 0 0 42.739201
12.18758 3.9598019 0.66603434 78 0 0 0 42.739201
3.1533272 0.92894304 -2.4616599 116 0 0 0 42.739201
7.1039701 3.0825317 -2.8378179 103 0 0 0 42.739201
4.7242112 1.4584259 -2.6400759 206 0 0 0 42.739201
5.5258894 1.725826 -2.7291641 179 0 0 0 42.739201
4.4485855 2.5111268 -2.5433166 202 0 0 0 42.739201
9.9255114 5.5732021 5.0940843 67 0 0 0 42.739201
12.362695 3.9713829 3.2959678 49 0 0 0 42.739201
9.6497297 5.3939953 3.0865779 97 0 0 0 42.739201
6.8415031 4.7452068 0.55389625 346 0 0 0 42.739201
5.8934569 2.5533278 -2.7185991 143 0 0 0 42.739201
12.348067 4.007225 1.315493 57 0 0 0 42.739201
12.169139 3.9467449 -1.2222322 70 0 0 0 42.739201
8.2488213 4.6035671 1.1960483 192 0 0 0 42.739201
12.811487 4.0685806 -1.286196 119 0 0 0 42.83699
10.244617 4.305943 7.3486629 33 0 0 0 42.83699
9.8414869 4.2177343 -1.6745099 134 0 0 0 42.83699
6.5495019 2.019906 -2.8251584 112 0 0 0 42.83699
3.7616982 1.5878091 -2.5001807 177 0 0 0 42.83699
9.8254185 4.2149167 -1.1373636 114 0 0 0 42.83699
9.8188391 4.203958 2.0146635 120 0 0 0 42.83699
10.171796 4.292088 6.5223942 47 0 0 0 42.83699
12.465406 3.9369688 -2.5705562 65 0 0 0 42.83699
8.3447485 4.5901685 1.2055811 154 0 0 0 42.83699
6.8977995 4.7342367 1.3852937 289 0 0 0 42.83699
3.3845549 2.4104214 -2.4218652 264 0 0 0 42.83699
12.381048 3.9388964 0.67479169 63 0 0 0 42.83699
10.437408 4.3205438 10.281303 6 0 0 0 42.83699
8.3490448 4.6001477 -1.6057169 196 0 0 0 42.83699
8.4238501 4.6317444 -0.19473781 227 0 0 0 42.83699
13.10295 4.1511488 -2.0041137 62 0 0 0 42.83699
9.7075958 5.3550701 3.6923652 90 0 0 0 42.83699
6.8869367 4.735661 1.8116028 258 0 0 0 42.83699
10.237159 4.262816 9.0904722 26 0 0 0 42.83699
9.802063 4.2069254 0.43001476 146 0 0 0 42.83699
12.403712 3.9461145 0.038446892 81 0 0 0 42.83699
9.5355883 5.2493372 2.4713314 110 0 0 0 42.83699
9.8169947 5.422123 4.3633542 85 0 0 0 42.83699
13.153169 3.9228246 8.4022036 11 0 0 0 42.83699
6.8765235 4.7196493 -1.0936781 78 0 0 0 42.83699
6.8924994 4.7181897 -0.26762125 293 0 0 0 42.83699
9.9263468 4.215106 4.9859533 66 0 0 0 42.83699
12.757348 3.6786194 10.130548 19 0 0 0 42.83699
5.9115481 2.5181985 -2.7197852 123 0 0 0 42.83699
9.8854761 4.2243133 3.1418498 87 0 0 0 42.83699
5.5294776 1.6897739 -2.7257049 173 0 0 0 42.83699
7.6331992 4.2198124 -2.8400946 77 0 0 0 42.83699
5.2208505 2.8962851 -2.6118097 161 0 0 0 42.83699
4.3053308 1.8237494 -2.5504673 214 0 0 0 42.83699
4.7414794 1.4319587 -2.6448522 241 0 0 0 42.83699
8.9298239 3.8157935 -3.0326171 59 0 0 0 42.83699
3.8655465 2.156409 -2.485086 263 0 0 0 42.83699
9.7247305 4.1696935 0.94278616 134 0 0 0 42.83699
7.5677686 5.2033329 -1.6741912 49 0 0 0 42.83699
9.833374 4.2162933 1.4809841 112 0 0 0 42.83699
5.3804922 3.755276 -2.6064358 127 0 0 0 42.83699
10.041019 5.5687671 5.8452106 58 0 0 0 42.83699
3.6072183 1.0586095 -2.524349 324 0 0 0 42.83699
6.8922567 4.7215676 -0.67913067 274 0 0 0 42.83699
9.8046818 4.1999249 -2.2098665 148 0 0 0 42.83699
9.9266424 4.2234349 4.3501997 67 0 0 0 42.83699
8.3292856 4.5892639 -2.0871186 209 0 0 0 42.83699
8.3865147 4.6131344 -0.65966332 233 0 0 0 42.83699
8.3218737 4.5927796 -2.582005 181 0 0 0 42.83699
9.7934122 4.2032113 -0.61023563 158 0 0 0 42.83699
8.5053263 5.9045038 3.9167142 7 0 0 0 42.83699
8.3644857 4.6029286 -1.1310475 213 0 0 0 42.83699
12.486331 3.9555976 1.9802579 64 0 0 0 42.83699
12.637512 3.9743745 3.3620791 56 0 0 0 42.83699
6.5133643 4.5245461 -2.7076073 86 0 0 0 42.83699
12.811244 3.9136343 6.437758 30 0 0 0 42.83699
9.8308916 4.2172651 -0.090455055 119 0 0 0 42.83699
12.540955 3.6827602 8.9497309 31 0 0 0 42.83699
8.3796148 4.6055207 0.74135357 177 0 0 0 42.83699
3.8891156 2.7494495 -2.4646339 250 0 0 0 42.83699
8.3657417 4.5959921 0.27210462 180 0 0 0 42.83699
8.4903717 5.874342 -2.9695132 14 0 0 0 42.83699
9.8825569 4.2271562 2.5767887 130 0 0 0 42.83699
12.464411 3.9606445 1.3250259 72 0 0 0 42.83699
12.495356 3.9344234 -3.2574461 75 0 0 0 42.83699
9.6404333 5.3114343 3.0732496 112 0 0 0 42.83699
10.234591 5.706562 7.5410752 51 0 0 0 42.83699
12.855942 4.0901403 -0.62698168 103 0 0 0 42.83699
9.8955736 5.4768133 5.0615454 88 0 0 0 42.83699
10.163328 5.7088652 9.3126783 22 0 0 0 42.83699
10.416403 3.2610848 -3.2909603 58 0 0 0 42.83699
3.161258 0.91024011 -2.4634807 127 0 0 0 42.83699
13.045146 3.9378223 7.4170523 30 0 0 0 42.83699
8.0604839 2.5070405 -3.0023048 116 0 0 0 42.83699
10.036879 7.0006719 5.336731 12 0 0 0 42.83699
8.336216 4.5854764 1.6783251 185 0 0 0 42.83699
4.5472231 3.1911333 -2.5318563 179 0 0 0 42.83699
6.209734 3.4388707 -2.7006891 130 0 0 0 42.83699
10.015332 4.2384343 5.7056046 48 0 0 0 42.83699
6.9421654 4.7521524 0.55931354 260 0 0 0 42.83699
10.332472 4.3216267 8.2568302 27 0 0 0 42.83699
8.7235527 6.0129986 -2.4855268 50 0 0 0 42.83699
6.8520079 4.7205067 2.2400832 208 0 0 0 42.83699
12.117829 3.7665503 4.6033525 44 0 0 0 42.83699
6.8514662 4.7378407 2.6897397 95 0 0 0 42.83699
12.6912 3.9693339 4.0836692 52 0 0 0 42.83699
10.155796 7.1232276 6.1694922 8 0 0 0 42.83699
6.9216199 4.7416625 0.96973795 250 0 0 0 42.83699
5.0245676 2.1349273 -2.6357615 215 0 0 0 42.83699
12.620562 3.9860251 2.6706369 49 0 0 0 42.83699
10.135525 5.6350827 6.6579285 37 0 0 0 42.83699
4.1022491 1.2225741 -2.5696332 303 0 0 0 42.83699
9.8723078 4.2105141 3.7211523 75 0 0 0 42.83699
7.150332 3.050658 -2.8489826 112 0 0 0 42.83699
9.8166122 4.2009716 -2.7662308 105 0 0 0 42.83699
12.898393 3.9773149 5.6724653 30 0 0 0 42.83699
10.278663 5.7499995 8.4588337 5 0 0 0 42.83699
6.927907 4.7424021 0.1427972 293 0 0 0 42.83699
4.4740429 2.489418 -2.5491962 228 0 0 0 42.83699
10.086161 4.2101316 5.0528121 79 0 0 0 42.933762
13.199201 4.1028428 -1.3236717 76 0 0 0 42.933762
9.8123932 5.3412776 4.3467646 81 0 0 0 42.933762
9.9422445 4.1950531 -0.61836946 130 0 0 0 42.933762
7.6856289 4.187428 -2.8501422 58 0 0 0 42.933762
7.1844707 3.0132542 -2.8552628 98 0 0 0 42.933762
3.9088159 2.7275565 -2.4665 229 0 0 0 42.933762
5.0392289 2.1047492 -2.6366436 215 0 0 0 42.933762
13.021729 3.9603715 4.9354591 25 0 0 0 42.933762
6.9408059 4.7191005 2.2593429 199 0 0 0 42.933762
3.2907019 1.3589644 -2.4351068 24 0 0 0 42.933762
8.4635077 4.5880589 1.2182915 160 0 0 0 42.933762
10.004836 4.2111645 2.0469799 120 0 0 0 42.933762
6.5573726 4.4957056 -2.7144928 94 0 0 0 42.933762
10.169833 7.0403867 6.1517382 8 0 0 0 42.933762
