# .PCD v0.7 - Point Cloud Data file format
VERSION 0.7
FIELDS x y z intensity normal_x normal_y normal_z curvature
SIZE 4 4 4 4 4 4 4 4
TYPE F F F F F F F F
COUNT 1 1 1 1 1 1 1 1
WIDTH 959
HEIGHT 1
VIEWPOINT 0 0 0 1 0 0 0
POINTS 959
DATA ascii
2.12854 3.0389752 3.9030795 210 0 0 0 31.815168
1.1848488 4.1719527 0.091083273 294 0 0 0 31.905279
3.0623035 4.7794957 0.31441328 250 0 0 0 31.905279
2.7614293 4.2892404 1.0482988 759 0 0 0 31.905279
1.8367162 3.5011611 3.2563357 349 0 0 0 31.905279
0.92059338 3.7077217 3.3515136 323 0 0 0 31.905279
1.887004 4.7970791 0.41540647 237 0 0 0 31.905279
2.8189867 5.4519596 3.2309408 42 0 0 0 31.905279
2.2008576 4.2686362 2.2347167 7 0 0 0 31.905279
1.8758249 4.7834496 1.4501318 6 0 0 0 31.905279
1.7878441 3.3904879 3.5044756 306 0 0 0 31.905279
2.4004745 3.5983241 2.6643245 362 0 0 0 31.905279
2.3483009 4.5943551 0.73103446 780 0 0 0 31.905279
2.4817727 3.6866632 3.0586197 137 0 0 0 31.905279
1.360707 4.876502 1.6457657 48 0 0 0 31.905279
2.7572403 5.3187418 3.5504892 29 0 0 0 31.905279
1.1320547 4.2848406 2.8147728 439 0 0 0 31.905279
2.5449569 3.8935041 1.972012 624 0 0 0 31.905279
2.4984026 6.3567085 1.2137374 10 0 0 0 31.905279
1.7372906 3.2721505 3.7593374 189 0 0 0 31.905279
2.7405431 4.2765241 0.037061624 245 0 0 0 31.905279
2.8215353 4.3912344 0.80845571 745 0 0 0 31.905279
2.2071002 3.1610534 3.648035 234 0 0 0 31.905279
1.4948262 5.284174 0.92022145 22 0 0 0 31.905279
1.7384158 4.4586172 2.1566324 582 0 0 0 31.905279
1.9957484 5.0785413 0.70474076 293 0 0 0 31.905279
1.5631925 3.9765716 -0.066085279 410 0 0 0 31.905279
2.3017955 4.4819283 1.7615747 367 0 0 0 31.905279
2.2586083 3.2803507 3.3962843 362 0 0 0 31.905279
1.4867693 3.8861601 3.3393316 200 0 0 0 31.905279
2.0989566 5.4330792 3.7603695 38 0 0 0 31.905279
0.86602104 3.5882685 3.5948825 278 0 0 0 31.905279
1.2677865 4.6194072 2.1048844 388 0 0 0 31.905279
1.9740653 5.1314454 3.9614196 33 0 0 0 31.905279
1.9323052 3.7832313 -0.22048014 392 0 0 0 31.905279
2.4901617 3.8851314 -0.18975537 258 0 0 0 31.905279
1.3038108 4.5893559 0.33209783 303 0 0 0 31.905279
1.8640199 6.6076384 1.4935482 49 0 0 0 31.905279
1.3037258 4.7079253 1.8622097 18 0 0 0 31.905279
1.7841995 4.5641088 1.921767 702 0 0 0 31.905279
2.4935694 3.7928483 2.1981995 594 0 0 0 31.905279
2.1515384 3.0320652 3.9110281 240 0 0 0 31.905279
2.5949261 3.9899836 1.7436391 648 0 0 0 31.905279
1.4443594 5.089273 0.62368935 297 0 0 0 31.905279
2.3297756 4.5620399 0.22478017 291 0 0 0 31.905279
1.3022732 3.4461267 3.646034 307 0 0 0 31.905279
2.4497745 3.6991091 2.4315648 471 0 0 0 31.905279
2.7006364 4.1833329 1.2821313 748 0 0 0 31.905279
3.9850447 10.173563 3.6393285 15 0 0 0 31.905279
2.3012071 4.4924221 1.2259419 345 0 0 0 31.905279
2.0987532 4.1075897 -0.018238515 310 0 0 0 31.905279
2.2965758 3.3749166 3.1309557 425 0 0 0 31.905279
2.2813442 3.55458 -0.37745878 372 0 0 0 31.905279
2.2466571 4.3650575 1.9942228 215 0 0 0 31.905279
1.2234603 4.5047526 2.3372622 540 0 0 0 31.905279
2.8843205 4.4977965 0.56111348 794 0 0 0 31.905279
1.3549018 3.5624821 3.3972077 300 0 0 0 31.905279
2.6456096 4.0837517 1.5122986 689 0 0 0 31.905279
1.6997124 4.3707628 2.4022908 41 0 0 0 31.905279
2.3968937 4.689486 0.48624477 615 0 0 0 31.905279
2.293252 4.4807587 0.96593118 877 0 0 0 31.905279
1.6571759 4.274797 2.6470435 21 0 0 0 31.905279
1.7158662 4.3601036 0.1516435 396 0 0 0 31.905279
2.6851017 5.1617556 3.8589888 28 0 0 0 31.905279
1.177747 4.3916936 2.5728881 929 0 0 0 31.905279
1.0147876 3.9092305 2.8652012 489 0 0 0 31.905279
2.3531559 4.589932 1.5224432 385 0 0 0 31.905279
0.96970457 3.8130889 3.1073043 402 0 0 0 31.905279
2.0002313 3.827878 3.1986356 188 0 0 0 31.905279
2.478327 3.6331353 3.0270381 118 0 0 0 32.011265
2.27668 4.3780594 1.1991971 666 0 0 0 32.011265
1.7654033 4.4470177 2.1562257 617 0 0 0 32.011265
1.0507965 3.9479656 2.898001 238 0 0 0 32.011265
1.7304424 4.3702016 2.4077163 34 0 0 0 32.011265
1.808614 3.3794541 3.5044756 320 0 0 0 32.011265
2.6198764 3.9747722 1.7439784 636 0 0 0 32.011265
2.5252848 3.7902455 2.2055397 574 0 0 0 32.011265
2.1395628 4.1248183 -0.018642025 314 0 0 0 32.011265
2.2358499 4.2719574 2.2434919 7 0 0 0 32.011265
2.7182817 5.1481366 3.8611901 26 0 0 0 32.011265
1.3215983 3.4334133 3.6411269 287 0 0 0 32.011265
2.0263219 3.8205163 3.2027817 190 0 0 0 32.011265
1.1594347 4.2818966 2.8174372 421 0 0 0 32.011265
1.8118256 4.5522089 1.9214064 720 0 0 0 32.011265
2.3475902 4.5106425 1.5013036 275 0 0 0 32.011265
1.7363991 5.9953961 1.0416002 20 0 0 0 32.011265
2.3340585 4.4769449 1.7651542 362 0 0 0 32.011265
1.3346376 4.7070403 1.865023 15 0 0 0 32.011265
0.99388129 3.8101125 3.109772 448 0 0 0 32.011265
1.5074601 3.8689499 3.3324764 197 0 0 0 32.011265
2.2268744 3.1480467 3.64872 211 0 0 0 32.011265
0.88610941 3.5752158 3.5872343 249 0 0 0 32.011265
2.3172407 3.3607616 3.1309557 391 0 0 0 32.011265
2.1310205 5.4169655 3.7582097 49 0 0 0 32.011265
2.9102392 4.4775095 0.56081867 741 0 0 0 32.011265
1.3361377 4.5956416 0.33303183 244 0 0 0 32.011265
1.5964845 3.9891777 -0.066663273 369 0 0 0 32.011265
1.2044399 4.3835435 2.5723994 997 0 0 0 32.011265
1.907519 6.606411 1.4958408 54 0 0 0 32.011265
2.3229675 4.4709659 0.96684408 898 0 0 0 32.011265
1.477227 5.0860395 0.62435502 299 0 0 0 32.011265
2.4743819 3.6869292 2.4334722 470 0 0 0 32.011265
4.0512638 10.15862 3.6427805 21 0 0 0 32.011265
2.1668808 3.0143116 3.9052472 221 0 0 0 32.011265
2.2782578 3.2658041 3.395638 334 0 0 0 32.011265
2.3738141 4.5787139 0.2260749 314 0 0 0 32.011265
2.7347388 4.1796746 1.2860345 772 0 0 0 32.011265
1.9977981 5.0995569 3.9462807 31 0 0 0 32.011265
1.2961068 4.6115413 2.1048844 392 0 0 0 32.011265
1.7474238 4.3615556 0.15196566 369 0 0 0 32.011265
3.1122208 4.7924614 0.31628281 242 0 0 0 32.011265
1.9249357 4.8067017 0.41710293 253 0 0 0 32.011265
2.3782718 4.5833783 0.73157114 805 0 0 0 32.011265
2.7930481 4.2804332 1.0502548 809 0 0 0 32.011265
2.8559742 4.3854489 0.8105154 778 0 0 0 32.011265
2.5728693 3.8839719 1.9750993 612 0 0 0 32.011265
2.7825091 4.2839608 0.037066683 233 0 0 0 32.011265
1.2157444 4.1828427 0.091325343 329 0 0 0 32.011265
2.7902246 5.3024864 3.5509965 32 0 0 0 32.011265
1.3906031 4.8680611 1.6457657 67 0 0 0 32.011265
1.3772769 3.5554979 3.3985333 336 0 0 0 32.011265
1.6859262 4.2710066 2.6510158 10 0 0 0 32.011265
2.4274573 4.6782289 0.48658714 626 0 0 0 32.011265
2.5582349 6.3934002 1.2234589 7 0 0 0 32.011265
2.5210176 3.8806734 -0.19039494 228 0 0 0 32.011265
2.4225082 3.5835273 2.6643245 481 0 0 0 32.011265
2.2828498 4.3692923 2.0024071 405 0 0 0 32.011265
1.9614518 3.782825 -0.22126925 367 0 0 0 32.011265
1.7606732 3.2676308 3.7664368 187 0 0 0 32.011265
2.6732388 4.0714417 1.5137571 709 0 0 0 32.011265
1.6371111 5.8798342 3.0483153 324 0 0 0 32.011265
2.0242898 5.0597501 0.70388526 234 0 0 0 32.011265
1.8607092 3.4946098 3.2607665 389 0 0 0 32.011265
0.94370043 3.7034643 3.3528273 349 0 0 0 32.011265
2.849504 5.4290657 3.2276998 58 0 0 0 32.011265
1.7820854 4.3701887 0.15248606 346 0 0 0 32.102657
2.4570448 4.6650095 0.48675829 589 0 0 0 32.102657
1.3382109 3.4139545 3.6292093 289 0 0 0 32.102657
3.1394322 4.7663794 0.59708315 222 0 0 0 32.102657
1.7598946 4.3661189 2.4113333 27 0 0 0 32.102657
2.410702 4.5808668 0.22677776 287 0 0 0 32.102657
2.6473467 3.9633183 1.7460138 658 0 0 0 32.102657
1.9460759 6.5880175 1.4943818 51 0 0 0 32.102657
1.8383214 4.5375485 1.9199637 643 0 0 0 32.102657
2.1626527 5.3998814 3.7555101 49 0 0 0 32.102657
0.90909868 3.5738893 3.5914059 319 0 0 0 32.102657
1.0174452 3.8047025 3.110389 464 0 0 0 32.102657
2.3601584 4.4600315 1.764178 414 0 0 0 32.102657
2.5546548 3.880156 -0.19128051 277 0 0 0 32.102657
2.1914275 3.0093498 3.9160864 234 0 0 0 32.102657
2.3400929 3.3497441 3.1339843 366 0 0 0 32.102657
1.4040183 3.5595171 3.4104629 340 0 0 0 32.102657
2.6286507 6.4542322 1.2377855 31 0 0 0 32.102657
2.59922 3.871944 1.9770288 633 0 0 0 32.102657
2.4213424 3.5029702 2.9317291 203 0 0 0 32.102657
2.7513957 5.134305 3.8633914 33 0 0 0 32.102657
2.8273642 4.2754912 1.0531889 819 0 0 0 32.102657
2.0293522 5.0879579 3.9468629 34 0 0 0 32.102657
2.7630095 4.1668591 1.2872543 768 0 0 0 32.102657
2.88555 4.3719721 0.81125098 687 0 0 0 32.102657
2.8279641 4.2960563 0.037072793 235 0 0 0 32.102657
1.245103 4.1877608 0.091490969 324 0 0 0 32.102657
1.4204468 4.859437 1.6457657 58 0 0 0 32.102657
2.82149 5.2829852 3.5494747 43 0 0 0 32.102657
2.8561037 5.3614063 3.1980686 8 0 0 0 32.102657
0.96583188 3.6954162 3.3508568 341 0 0 0 32.102657
1.8793911 4.6318345 1.6801081 16 0 0 0 32.102657
1.5112443 5.0864043 0.6254645 286 0 0 0 32.102657
1.6704494 5.8602009 3.043433 291 0 0 0 32.102657
2.7039917 4.0637269 1.5169657 714 0 0 0 32.102657
1.7953967 4.4428768 2.1594796 661 0 0 0 32.102657
1.88322 3.4851706 3.2626655 387 0 0 0 32.102657
2.4984386 3.6738594 2.4349027 456 0 0 0 32.102657
1.6228187 3.9839356 -0.066783689 289 0 0 0 32.102657
1.7095095 4.2541389 2.6470435 12 0 0 0 32.102657
2.4463773 3.5714145 2.6664085 487 0 0 0 32.102657
2.3091815 4.3543825 2.0020351 402 0 0 0 32.102657
1.2320254 4.3785892 2.5738661 607 0 0 0 32.102657
2.3393476 4.4281983 1.4790514 296 0 0 0 32.102657
1.3680199 4.5997901 0.33384132 276 0 0 0 32.102657
1.7531992 5.9174409 1.0302609 19 0 0 0 32.102657
2.5863807 6.3568759 1.5693367 67 0 0 0 32.102657
1.9630561 4.8160386 0.41879943 272 0 0 0 32.102657
1.5245318 3.8429101 3.3181429 176 0 0 0 32.102657
3.1547327 4.7933073 0.31746358 256 0 0 0 32.102657
1.9925243 3.7857368 -0.22230114 384 0 0 0 32.102657
1.7813649 3.258002 3.7678568 197 0 0 0 32.102657
2.0755231 5.0968666 0.71048492 123 0 0 0 32.102657
2.5515177 3.7791674 2.2081301 568 0 0 0 32.102657
1.3653259 4.7050543 1.8674848 17 0 0 0 32.102657
2.249114 3.1384733 3.6535144 225 0 0 0 32.102657
2.4058886 4.5678225 0.73143697 822 0 0 0 32.102657
1.451102 4.9319315 1.3952262 6 0 0 0 32.102657
2.3062243 4.3691716 1.2005804 795 0 0 0 32.102657
2.3503571 4.4566283 0.96684408 933 0 0 0 32.102657
2.0504892 3.8094304 3.2039661 170 0 0 0 32.102657
1.1314021 4.147316 3.0481892 170 0 0 0 32.102657
1.1818269 4.2608438 2.8083782 547 0 0 0 32.102657
2.2586122 4.2517385 2.2401488 10 0 0 0 32.102657
1.3213254 4.5929255 2.1001072 834 0 0 0 32.102657
2.2947361 3.2467735 3.3904681 371 0 0 0 32.102657
2.1685567 4.1186919 -0.018736968 265 0 0 0 32.102657
1.8339055 3.3767526 3.5132148 278 0 0 0 32.102657
4.1757593 10.271374 3.0956409 6 0 0 0 32.102657
2.0082452 4.8416667 0.42182362 238 0 0 0 32.20813
0.93082815 3.5675488 3.5907106 309 0 0 0 32.20813
1.6466913 5.7126126 3.3566363 155 0 0 0 32.20813
2.4879699 4.6542397 0.48718625 663 0 0 0 32.20813
2.1947911 5.384172 3.75389 33 0 0 0 32.20813
2.2966132 4.2833753 1.4362158 394 0 0 0 32.20813
1.8013221 3.2470105 3.7678568 217 0 0 0 32.20813
2.0938318 5.0528641 0.70632958 258 0 0 0 32.20813
3.1951106 4.7867751 0.60180044 22 0 0 0 32.20813
1.4005857 4.6056294 0.33477536 261 0 0 0 32.20813
2.6219761 6.3327732 1.5673673 52 0 0 0 32.20813
2.2721744 3.1299255 3.6596789 241 0 0 0 32.20813
2.5274084 3.6678758 2.4411018 459 0 0 0 32.20813
1.3957729 4.7019711 1.8695949 20 0 0 0 32.20813
1.5502449 5.1027045 0.62846017 285 0 0 0 32.20813
1.8821381 4.5649819 1.9361929 42 0 0 0 32.20813
2.3804407 4.4473248 0.96793956 930 0 0 0 32.20813
1.9856124 6.5731444 1.4937565 41 0 0 0 32.20813
1.8215194 4.3896389 0.15330383 302 0 0 0 32.20813
2.8554947 5.2686043 3.5515037 39 0 0 0 32.20813
1.3526 4.5952888 2.1048844 1058 0 0 0 32.20813
1.3638967 3.417599 3.6418278 321 0 0 0 32.20813
2.4429994 4.5739231 0.2271107 273 0 0 0 32.20813
2.7885249 4.1498275 1.2872543 763 0 0 0 32.20813
2.3132842 3.2307692 3.3885293 310 0 0 0 32.20813
1.6522133 3.9859073 -0.06709677 286 0 0 0 32.20813
1.9215558 4.6535606 1.6920335 39 0 0 0 32.20813
2.020416 3.7822452 -0.22290815 350 0 0 0 32.20813
1.1621307 4.1591945 3.0619996 278 0 0 0 32.20813
1.8226238 4.4317765 2.1594796 608 0 0 0 32.20813
1.4491426 4.8469801 1.6445482 70 0 0 0 32.20813
1.2745676 4.1924758 0.091656595 366 0 0 0 32.20813
2.6281106 3.8635552 1.9808879 591 0 0 0 32.20813
2.8546355 4.2596927 1.05358 777 0 0 0 32.20813
2.9134202 4.3558297 0.81154519 766 0 0 0 32.20813
2.4309661 3.4711239 2.9176302 377 0 0 0 32.20813
2.433404 4.5521002 0.7313028 825 0 0 0 32.20813
2.1994398 4.1158929 -0.018879384 256 0 0 0 32.20813
1.2098048 4.2600222 2.8126411 503 0 0 0 32.20813
3.2078905 4.8096066 0.31957912 277 0 0 0 32.20813
2.8703456 4.3027606 0.037077855 256 0 0 0 32.20813
1.9045691 3.4735498 3.2626655 353 0 0 0 32.20813
1.4830118 4.9284863 1.396767 5 0 0 0 32.20813
2.0534942 5.0580864 3.933471 18 0 0 0 32.20813
2.0761406 3.8010206 3.20752 168 0 0 0 32.20813
2.5751667 3.7641854 2.2085619 560 0 0 0 32.20813
2.6768813 3.9547949 1.7494061 700 0 0 0 32.20813
2.2902594 4.2481976 2.2455812 240 0 0 0 32.20813
2.3334489 4.3557963 1.2008109 827 0 0 0 32.20813
1.8578036 3.3712735 3.5192649 310 0 0 0 32.20813
2.6848109 6.4780302 1.2452898 54 0 0 0 32.20813
1.0399357 3.7953527 3.1079214 504 0 0 0 32.20813
1.5407547 3.815357 3.302563 145 0 0 0 32.20813
2.3807728 4.4329686 1.7592969 234 0 0 0 32.20813
1.8267651 6.029366 1.051023 18 0 0 0 32.20813
2.3402529 4.3483067 2.0057552 348 0 0 0 32.20813
1.9628177 4.7463303 1.4495987 15 0 0 0 32.20813
1.7883455 4.359364 2.413594 13 0 0 0 32.20813
2.4721324 3.5619502 2.6705766 496 0 0 0 32.20813
2.2139468 3.0014155 3.9233124 212 0 0 0 32.20813
1.7326206 4.23634 2.6425748 18 0 0 0 32.20813
2.5850585 3.8743837 -0.1918709 236 0 0 0 32.20813
2.7304776 4.0494394 1.5178409 725 0 0 0 32.20813
2.3661096 3.3431225 3.141253 393 0 0 0 32.20813
2.783246 5.1180596 3.8639417 40 0 0 0 32.20813
1.3122079 4.5021114 2.3479147 225 0 0 0 32.20813
0.98672366 3.6828678 3.3449452 292 0 0 0 32.20813
1.42695 3.5536144 3.4131138 353 0 0 0 32.20813
2.1255679 5.0417504 0.70657402 251 0 0 0 32.300034
2.890259 5.2555156 3.5545471 33 0 0 0 32.300034
2.0448987 4.8457904 0.42315128 251 0 0 0 32.300034
2.3167186 4.2348623 2.2459991 383 0 0 0 32.300034
2.0854235 5.0476451 3.9352179 9 0 0 0 32.300034
2.3686681 4.3371243 2.0072432 418 0 0 0 32.300034
2.0250397 6.5580339 1.4931313 50 0 0 0 32.300034
1.3888713 3.4190745 3.6523433 318 0 0 0 32.300034
2.7260408 6.465066 1.245972 44 0 0 0 32.300034
1.8809918 6.0736685 1.0604459 18 0 0 0 32.300034
1.0078989 3.6716559 3.3403473 301 0 0 0 32.300034
2.0492904 3.780309 -0.22363655 367 0 0 0 32.300034
2.6007807 3.7520227 2.2107208 494 0 0 0 32.300034
2.1060593 3.8001931 3.2175891 174 0 0 0 32.300034
2.8166611 4.1366496 1.2884741 752 0 0 0 32.300034
1.1860487 4.1464829 3.0579715 238 0 0 0 32.300034
1.1879724 3.8243475 -0.10894335 408 0 0 0 32.300034
1.2380539 4.2598295 2.8174372 531 0 0 0 32.300034
2.23704 4.1251774 -0.019187951 240 0 0 0 32.300034
1.3781186 4.5781212 2.1009033 776 0 0 0 32.300034
2.4679015 4.5492797 0.733181 716 0 0 0 32.300034
2.8878725 4.2526493 1.0561229 883 0 0 0 32.300034
1.3041368 4.1969862 0.091822222 309 0 0 0 32.300034
1.4808102 4.8443723 1.6466787 61 0 0 0 32.300034
1.927727 3.4651816 3.2658305 382 0 0 0 32.300034
2.3647768 4.349947 1.2031165 812 0 0 0 32.300034
2.5548909 3.6595109 2.4458704 459 0 0 0 32.300034
1.3344145 4.4759464 2.3385937 410 0 0 0 32.300034
2.7558119 4.0333996 1.5181326 710 0 0 0 32.300034
2.8129847 5.0979609 3.8617404 51 0 0 0 32.300034
1.6827017 5.7057471 3.358592 146 0 0 0 32.300034
2.6008117 6.1803255 1.8835673 40 0 0 0 32.300034
2.4973733 3.5516055 2.6742237 485 0 0 0 32.300034
1.5909795 5.1234608 0.63201052 313 0 0 0 32.300034
1.4306011 4.6026659 0.33514896 262 0 0 0 32.300034
1.55878 3.7928131 3.2913454 188 0 0 0 32.300034
3.2541029 4.8146696 0.32105505 261 0 0 0 32.300034
2.3164287 4.2573886 1.4323217 687 0 0 0 32.300034
2.6604049 6.3156667 1.5671484 49 0 0 0 32.300034
2.4119055 4.4404116 0.96958274 989 0 0 0 32.300034
2.519805 4.6450171 0.4877854 674 0 0 0 32.300034
3.9161861 5.7913489 0.72386134 14 0 0 0 32.300034
1.8542554 4.3921928 0.15367556 329 0 0 0 32.300034
2.4824419 4.5799351 0.22799851 274 0 0 0 32.300034
1.4270514 4.7013783 1.8727599 15 0 0 0 32.300034
2.2917671 3.1165123 3.6603637 243 0 0 0 32.300034
2.2401676 2.9983072 3.9370418 254 0 0 0 32.300034
1.067048 3.8025355 3.1190255 197 0 0 0 32.300034
1.9046972 4.5404477 1.9307832 27 0 0 0 32.300034
0.95214063 3.5596879 3.588625 328 0 0 0 32.300034
2.2252049 5.3643842 3.7495706 17 0 0 0 32.300034
2.364511 4.3385582 1.7280582 306 0 0 0 32.300034
1.4470261 3.5406334 3.4091372 380 0 0 0 32.300034
2.3930585 3.3376021 3.1497328 375 0 0 0 32.300034
1.6832482 3.9913518 -0.067506187 293 0 0 0 32.300034
1.7622532 4.2344432 2.6480365 13 0 0 0 32.300034
1.8229371 3.2389662 3.7714064 239 0 0 0 32.300034
1.8494295 4.4196672 2.1590729 817 0 0 0 32.300034
1.9500734 4.6416826 1.6920335 35 0 0 0 32.300034
2.6564732 3.8541973 1.9843611 575 0 0 0 32.300034
2.3379846 3.2233155 3.395638 341 0 0 0 32.300034
2.9666991 4.377193 0.81860691 446 0 0 0 32.300034
2.4479246 3.4500761 2.9125545 497 0 0 0 32.300034
2.9129152 4.3091059 0.037082918 238 0 0 0 32.300034
2.7080052 3.9483864 1.753816 682 0 0 0 32.300034
1.8171233 4.3532467 2.4163067 17 0 0 0 32.300034
1.8748443 3.3533471 3.5125425 281 0 0 0 32.300034
1.8441724 3.2301669 3.7742462 237 0 0 0 32.405502
1.4032071 4.559937 2.0965242 485 0 0 0 32.405502
2.0825441 3.7860329 -0.22491126 386 0 0 0 32.405502
2.0804973 4.8468966 0.4242577 282 0 0 0 32.405502
2.6971846 6.2947397 1.5660543 64 0 0 0 32.405502
1.0318438 3.6704817 3.3449452 323 0 0 0 32.405502
2.5265362 3.5466506 2.6820388 450 0 0 0 32.405502
2.2738729 4.1324024 -0.019472782 241 0 0 0 32.405502
1.5410558 4.9025421 1.3947127 8 0 0 0 32.405502
1.4106424 3.4124649 3.6544464 302 0 0 0 32.405502
2.393302 4.3387637 1.2040387 778 0 0 0 32.405502
3.1618588 4.6044593 0.86288971 170 0 0 0 32.405502
2.1015389 4.9995332 3.9078512 18 0 0 0 32.405502
2.4967241 4.5357881 0.73344934 773 0 0 0 32.405502
1.8793777 4.4149599 2.1623266 286 0 0 0 32.405502
1.7909116 4.2299442 2.6520088 12 0 0 0 32.405502
2.26227 2.9894717 3.9435453 215 0 0 0 32.405502
4.1996584 9.8373241 4.1628342 13 0 0 0 32.405502
2.5501797 4.6329603 0.48812777 704 0 0 0 32.405502
2.4214292 3.3338094 3.1600299 369 0 0 0 32.405502
2.1364403 3.7998435 3.2282503 133 0 0 0 32.405502
2.6827095 3.8416092 1.9862906 563 0 0 0 32.405502
1.9516143 3.4580088 3.2702613 401 0 0 0 32.405502
1.5125003 4.841558 1.6488093 53 0 0 0 32.405502
1.844149 4.3428364 2.4167588 14 0 0 0 32.405502
2.4709728 3.4376755 2.9148104 514 0 0 0 32.405502
3.2665377 4.7660947 0.60406083 10 0 0 0 32.405502
3.2937322 4.8094521 0.32194063 291 0 0 0 32.405502
2.343436 4.2447772 1.4328779 718 0 0 0 32.405502
2.3348334 4.2221718 1.6880337 314 0 0 0 32.405502
1.3642119 4.4753866 2.3425884 760 0 0 0 32.405502
2.2574234 5.3490791 3.7484906 16 0 0 0 32.405502
0.97320086 3.551007 3.5858438 273 0 0 0 32.405502
1.7161648 5.6903048 3.3556583 85 0 0 0 32.405502
2.3676424 3.2224507 3.4098558 317 0 0 0 32.405502
1.4678603 3.529614 3.4071491 367 0 0 0 32.405502
2.8442123 5.080605 3.8617404 44 0 0 0 32.405502
2.9522834 4.3101368 0.03708693 245 0 0 0 32.405502
2.7364702 3.93788 1.7565299 664 0 0 0 32.405502
2.9172435 4.2396998 1.0572965 792 0 0 0 32.405502
1.8888155 3.3301859 3.5004423 272 0 0 0 32.405502
2.639823 6.1669087 1.8843671 51 0 0 0 32.405502
1.7128341 3.9928906 -0.067819268 288 0 0 0 32.405502
1.156911 4.0265551 3.3071795 146 0 0 0 32.405502
2.791384 4.0321527 1.5239667 719 0 0 0 32.405502
2.3303967 4.1863208 2.5276639 30 0 0 0 32.405502
2.578311 3.6452017 2.4468241 517 0 0 0 32.405502
2.6310012 3.7463348 2.2167656 502 0 0 0 32.405502
1.2093936 4.1320653 3.0527925 282 0 0 0 32.405502
1.3335056 4.2003384 0.091975115 307 0 0 0 32.405502
1.2569094 4.2278271 2.8014507 126 0 0 0 32.405502
1.2183908 3.838887 -0.10978214 380 0 0 0 32.405502
2.0655358 6.5464177 1.4933397 63 0 0 0 32.405502
2.441952 4.430696 0.97067821 971 0 0 0 32.405502
1.9122554 6.0431933 1.0572517 19 0 0 0 32.405502
2.2542474 4.0394025 2.747025 7 0 0 0 32.405502
1.9759039 4.6235189 1.6898367 18 0 0 0 32.405502
2.8485909 4.1288733 1.2914015 762 0 0 0 32.405502
2.3413374 4.218184 2.2447455 351 0 0 0 32.405502
1.4583751 4.7005782 1.8759251 27 0 0 0 32.405502
1.6269053 5.1278086 0.63367474 368 0 0 0 32.405502
2.3965847 4.324945 2.0083594 340 0 0 0 32.405502
2.7656584 6.4482179 1.245972 37 0 0 0 32.405502
1.4642674 4.610919 0.33626977 260 0 0 0 32.405502
2.1611602 5.0395579 0.7080406 252 0 0 0 32.405502
2.5210869 4.5838833 0.22881235 233 0 0 0 32.405502
2.31215 3.1041465 3.6624186 238 0 0 0 32.405502
1.8831441 4.385325 0.15379946 306 0 0 0 32.405502
1.5723588 3.7600923 3.2714031 175 0 0 0 32.405502
2.8736842 5.060153 3.859539 40 0 0 0 32.499199
1.8667786 3.2236674 3.7799258 267 0 0 0 32.499199
1.436955 4.5696135 2.1048844 627 0 0 0 32.499199
1.1804816 4.0156064 3.304095 188 0 0 0 32.499199
2.8871906 4.130404 1.2972564 773 0 0 0 32.499199
2.8237526 4.0259185 1.5280505 678 0 0 0 32.499199
1.5819182 3.718714 3.2439826 158 0 0 0 32.499199
2.3186729 4.1533012 -0.019947501 219 0 0 0 32.499199
2.3978319 3.2219558 3.4247196 325 0 0 0 32.499199
2.5996065 3.627883 2.4458704 497 0 0 0 32.499199
2.6169946 6.0200729 2.1976085 50 0 0 0 32.499199
1.6880548 5.5481954 3.6759007 108 0 0 0 32.499199
1.3393679 4.3478684 2.5743551 27 0 0 0 32.499199
2.4729292 4.4224954 0.97213882 887 0 0 0 32.499199
1.2465593 3.8455939 -0.11032918 368 0 0 0 32.499199
2.6581166 3.7360041 2.2202199 536 0 0 0 32.499199
1.3980627 4.4874587 2.353241 924 0 0 0 32.499199
1.6647867 5.1375785 0.63600463 376 0 0 0 32.499199
2.1140003 3.7880032 -0.22594315 424 0 0 0 32.499199
2.9488051 4.2297692 1.0592526 778 0 0 0 32.499199
1.4888916 4.6968937 1.8780352 27 0 0 0 32.499199
1.9770234 3.4533608 3.2772241 356 0 0 0 32.499199
2.5517418 3.5359299 2.6856859 498 0 0 0 32.499199
2.374598 4.2395382 1.4359376 800 0 0 0 32.499199
2.2741573 3.2665436 -0.55175573 453 0 0 0 32.499199
1.542179 4.8321862 1.6488093 45 0 0 0 32.499199
2.1916447 5.0252929 0.70791835 266 0 0 0 32.499199
2.3342197 3.0939765 3.667213 223 0 0 0 32.499199
1.4940753 4.6065931 0.33658111 291 0 0 0 32.499199
2.6787674 6.1532459 1.8851668 42 0 0 0 32.499199
3.3300064 4.7990036 0.32253101 245 0 0 0 32.499199
2.1316142 4.8877397 0.95449615 44 0 0 0 32.499199
1.8704076 4.3306203 2.4163067 22 0 0 0 32.499199
1.8185502 4.2228613 2.6544914 13 0 0 0 32.499199
2.4963877 3.428462 2.9198861 439 0 0 0 32.499199
2.3871603 4.2462263 1.9789701 251 0 0 0 32.499199
2.5259571 4.5229788 0.73385179 766 0 0 0 32.499199
2.3200033 4.1351843 1.6593982 620 0 0 0 32.499199
4.1616058 9.6079664 4.6877546 20 0 0 0 32.499199
2.2908666 5.3366737 3.7495706 19 0 0 0 32.499199
1.9440572 3.4818277 -0.39965528 416 0 0 0 32.499199
0.99731326 3.5532694 3.594187 340 0 0 0 32.499199
2.4484305 3.3278692 3.16851 347 0 0 0 32.499199
1.5690348 4.8865547 1.3929151 6 0 0 0 32.499199
2.5618203 4.5910201 0.22977416 262 0 0 0 32.499199
1.9092158 4.3718557 0.1537499 317 0 0 0 32.499199
1.4903662 3.5226095 3.4091372 374 0 0 0 32.499199
4.2606835 9.8130817 4.1635551 25 0 0 0 32.499199
1.5960462 3.6605411 -0.2529628 411 0 0 0 32.499199
2.106266 6.5354819 1.4937565 53 0 0 0 32.499199
2.5814724 4.6224456 0.48864129 734 0 0 0 32.499199
2.2826691 2.9782805 3.9471583 240 0 0 0 32.499199
4.360455 6.2697659 1.1680143 12 0 0 0 32.499199
1.0558121 3.6691518 3.3495431 373 0 0 0 32.499199
1.9632922 6.0745459 1.0645983 25 0 0 0 32.499199
1.3604904 4.1958804 0.092026077 335 0 0 0 32.499199
2.4194043 4.3231478 1.2038082 836 0 0 0 32.499199
1.2382555 4.1363153 3.061424 257 0 0 0 32.499199
2.3694034 4.2076969 2.2468348 359 0 0 0 32.499199
2.3172693 4.1032414 2.4864583 259 0 0 0 32.499199
1.4323847 3.4057169 3.6565495 312 0 0 0 32.499199
2.1257675 4.8696814 0.42713436 328 0 0 0 32.499199
1.7449024 3.9997132 -0.068276852 323 0 0 0 32.499199
1.9103203 3.3204594 3.5024588 253 0 0 0 32.499199
2.760581 3.921015 1.7565299 650 0 0 0 32.499199
2.1593165 3.7859631 3.227658 130 0 0 0 32.499199
2.9980383 4.3198876 0.037092865 200 0 0 0 32.499199
2.7099557 3.8303514 1.988992 574 0 0 0 32.499199
2.1113861 4.9379606 3.8700042 26 0 0 0 32.499199
2.1747534 4.9042897 0.96012437 374 0 0 0 32.603905
2.5053523 4.416647 0.9741472 938 0 0 0 32.603905
1.9837164 6.1229315 2.4449406 28 0 0 0 32.603905
2.2228405 5.0126581 0.7080406 273 0 0 0 32.603905
2.1653228 4.8784204 0.42890459 343 0 0 0 32.603905
1.0774503 3.6597121 3.3469157 366 0 0 0 32.603905
2.3649118 4.146821 1.9399084 298 0 0 0 32.603905
2.4216838 3.2126718 3.430536 305 0 0 0 32.603905
1.8980213 4.3215117 2.4176631 22 0 0 0 32.603905
1.3846347 4.1827087 0.091962367 282 0 0 0 32.603905
2.6269741 3.6189823 2.4506388 501 0 0 0 32.603905
1.9933994 6.0408282 1.060925 23 0 0 0 32.603905
2.8533826 4.0155382 1.5306759 683 0 0 0 32.603905
1.2631319 4.1270761 3.0602732 262 0 0 0 32.603905
2.3446043 4.0927916 2.4887731 310 0 0 0 32.603905
2.1435926 3.7862546 -0.22673225 355 0 0 0 32.603905
2.1760547 3.7614813 3.2181814 150 0 0 0 32.603905
2.4043608 4.2315702 1.4381628 807 0 0 0 32.603905
2.2992082 2.9620316 3.944268 205 0 0 0 32.603905
3.3760319 4.8021874 0.32395777 231 0 0 0 32.603905
2.5212929 3.418401 2.9243977 422 0 0 0 32.603905
4.2204809 9.5822506 4.6877546 21 0 0 0 32.603905
1.8925817 3.2224791 3.7919946 239 0 0 0 32.603905
2.5703719 3.5160687 2.68256 487 0 0 0 32.603905
2.3562512 3.0836523 3.6720076 257 0 0 0 32.603905
1.5134341 3.5168371 3.412451 371 0 0 0 32.603905
1.622522 3.6597953 -0.25368994 379 0 0 0 32.603905
2.4702282 3.3146989 3.1703269 369 0 0 0 32.603905
1.999341 3.4431741 3.2791228 404 0 0 0 32.603905
1.2062359 4.0120544 3.3071795 191 0 0 0 32.603905
2.3588891 4.165103 -0.02030354 225 0 0 0 32.603905
1.7230737 5.5409641 3.6780324 72 0 0 0 32.603905
1.273911 3.8492537 -0.11076681 379 0 0 0 32.603905
1.9751767 3.4871349 -0.40184304 394 0 0 0 32.603905
2.4497263 4.314992 1.2056527 827 0 0 0 32.603905
2.6846771 3.7247496 2.2232423 572 0 0 0 32.603905
2.7911351 3.9131987 1.7606007 651 0 0 0 32.603905
1.9362508 3.3182693 3.5125425 272 0 0 0 32.603905
1.7750902 4.0017233 -0.068614013 313 0 0 0 32.603905
1.3660207 4.3395686 2.5743551 27 0 0 0 32.603905
2.7360909 3.8174028 1.9909215 619 0 0 0 32.603905
4.372087 6.2048759 1.1610998 20 0 0 0 32.603905
2.6561882 6.0091119 2.1994913 65 0 0 0 32.603905
1.8468663 4.2171884 2.6579671 8 0 0 0 32.603905
2.3486049 4.1266246 1.661676 597 0 0 0 32.603905
2.3252535 5.3263736 3.7522702 22 0 0 0 32.603905
1.020094 3.5505357 3.5976636 332 0 0 0 32.603905
2.6012597 4.5952196 0.23062499 248 0 0 0 32.603905
1.9412825 4.3719349 0.15407205 255 0 0 0 32.603905
2.1466336 6.5233641 1.493965 46 0 0 0 32.603905
2.6117504 4.6099868 0.48898366 690 0 0 0 32.603905
4.3230758 9.791873 4.165719 29 0 0 0 32.603905
2.1455381 4.9338579 3.8769913 25 0 0 0 32.603905
2.5595212 4.5177426 0.73546171 768 0 0 0 32.603905
1.4540973 3.3988302 3.6586528 298 0 0 0 32.603905
2.3978791 4.1978135 2.249342 375 0 0 0 32.603905
1.5706161 4.8190107 1.6475918 26 0 0 0 32.603905
2.8959308 5.0272293 3.8479819 33 0 0 0 32.603905
2.4982445 3.5477939 -0.38883886 225 0 0 0 32.603905
1.5904078 3.6759262 3.2153153 177 0 0 0 32.603905
1.6994075 5.1367002 0.63711411 328 0 0 0 32.603905
1.4255708 4.478796 2.353241 568 0 0 0 32.603905
1.4649667 4.5607104 2.1048844 536 0 0 0 32.603905
2.3083899 3.2727497 -0.55543369 429 0 0 0 32.603905
2.9152792 4.1165705 1.2984761 762 0 0 0 32.603905
2.7172532 6.1384559 1.8856999 55 0 0 0 32.603905
1.5245144 4.6039696 0.337017 285 0 0 0 32.603905
3.0945125 4.3815079 1.1007206 288 0 0 0 32.603905
2.6388569 4.5956397 0.23132785 263 0 0 0 32.696831
2.5939267 3.5029769 2.684644 499 0 0 0 32.696831
2.2547803 5.0016384 0.70840722 310 0 0 0 32.696831
1.9795951 4.3854504 0.15476592 281 0 0 0 32.696831
1.535285 3.5081706 3.4131138 330 0 0 0 32.696831
2.8194957 3.9021027 1.7633145 677 0 0 0 32.696831
1.0422678 3.5455883 3.5990541 332 0 0 0 32.696831
2.3683379 4.0760288 2.4873841 266 0 0 0 32.696831
2.3410707 4.0470486 1.9004747 442 0 0 0 32.696831
2.1869318 6.5109968 1.4941734 53 0 0 0 32.696831
2.0165355 6.096427 2.4393137 56 0 0 0 32.696831
1.7343987 5.1365309 0.63833457 281 0 0 0 32.696831
2.6414762 4.5964665 0.48924044 760 0 0 0 32.696831
1.6588914 3.6806812 -0.25616229 369 0 0 0 32.696831
2.0151696 4.4914856 1.9304225 204 0 0 0 32.696831
2.5945964 4.5148425 0.73747408 712 0 0 0 32.696831
1.7510393 3.9607956 3.1252873 73 0 0 0 32.696831
2.5368161 4.4088621 0.97579044 893 0 0 0 32.696831
2.20521 4.8917518 0.96029496 348 0 0 0 32.696831
2.6980712 6.0039587 2.2035711 45 0 0 0 32.696831
2.195626 4.8659511 0.42897835 340 0 0 0 32.696831
1.0994489 3.6515887 3.345602 385 0 0 0 32.696831
2.4153972 4.1688695 2.2418203 283 0 0 0 32.696831
2.032953 6.0359659 1.0622027 19 0 0 0 32.696831
2.7096059 3.7111225 2.2249694 558 0 0 0 32.696831
3.1737831 4.435853 1.1187161 92 0 0 0 32.696831
2.3893797 4.1592221 -0.020422218 235 0 0 0 32.696831
1.5977436 4.8020544 1.6451569 53 0 0 0 32.696831
1.2317591 4.007586 3.3096471 194 0 0 0 32.696831
1.7629477 5.5488315 3.6902885 27 0 0 0 32.696831
2.43028 4.2167377 1.4381628 773 0 0 0 32.696831
1.2997507 3.84799 -0.1110221 390 0 0 0 32.696831
2.6538105 3.6091733 2.4549305 519 0 0 0 32.696831
1.415408 4.1892862 0.092166223 305 0 0 0 32.696831
2.1752303 3.7877479 -0.22776416 401 0 0 0 32.696831
4.1800447 5.8661919 0.74479449 13 0 0 0 32.696831
2.0084138 3.4956386 -0.40446833 399 0 0 0 32.696831
1.4541366 4.473372 2.3550165 434 0 0 0 32.696831
1.9123188 3.2108057 3.7919946 261 0 0 0 32.696831
2.4376521 3.1928952 3.4253659 297 0 0 0 32.696831
1.962603 3.3165231 3.5232983 269 0 0 0 32.696831
2.1876843 3.728596 3.201597 163 0 0 0 32.696831
2.3385792 4.0020847 3.079164 27 0 0 0 32.696831
1.6069437 3.6524997 3.2034745 177 0 0 0 32.696831
1.9255936 4.3122272 2.4190195 14 0 0 0 32.696831
4.4290271 6.2045093 1.1659547 14 0 0 0 32.696831
2.4876485 3.2956657 3.1666927 365 0 0 0 32.696831
2.1646986 4.8064456 1.2124339 10 0 0 0 32.696831
1.5610636 4.6191053 0.33863595 288 0 0 0 32.696831
1.8826011 4.2279768 2.6718695 6 0 0 0 32.696831
4.2806907 9.5595093 4.6893816 27 0 0 0 32.696831
2.3410611 3.2762418 -0.55867028 448 0 0 0 32.696831
2.3786063 4.120327 1.66493 642 0 0 0 32.696831
2.8835492 4.005722 1.5335929 691 0 0 0 32.696831
2.5459402 3.5688791 -0.39325354 385 0 0 0 32.696831
2.0184674 3.4275053 3.2759581 345 0 0 0 32.696831
1.4743551 3.3885365 3.6572506 290 0 0 0 32.696831
1.3934256 4.3335958 2.5758219 30 0 0 0 32.696831
3.4193268 4.8009162 0.32513854 221 0 0 0 32.696831
2.3609669 5.3189287 3.7571299 34 0 0 0 32.696831
2.5441945 3.4055147 2.9266534 392 0 0 0 32.696831
2.7643347 3.8072658 1.9943947 654 0 0 0 32.696831
1.496363 4.5620923 2.1096618 457 0 0 0 32.696831
1.8020784 3.9962237 -0.068758518 296 0 0 0 32.696831
2.3139119 3.9726453 2.7302861 48 0 0 0 32.696831
2.3782439 3.0731742 3.6768022 250 0 0 0 32.696831
2.3181922 2.9489563 3.945713 230 0 0 0 32.696831
1.6816289 5.3716211 3.983844 55 0 0 0 32.696831
2.943871 4.1033354 1.2999399 703 0 0 0 32.696831
2.4810102 4.3083134 1.2079582 880 0 0 0 32.696831
2.047338 4.4892182 1.9347503 842 0 0 0 32.801537
2.0076034 4.4124041 2.1842904 21 0 0 0 32.801537
2.2303355 6.5076308 1.496466 34 0 0 0 32.801537
3.4405463 4.7685003 0.32444975 143 0 0 0 32.801537
2.4595277 3.1808991 3.4285972 301 0 0 0 32.801537
1.4221731 4.3315921 2.5797331 28 0 0 0 32.801537
2.1880541 4.7797656 1.2091516 333 0 0 0 32.801537
1.477595 4.4524622 2.3488023 222 0 0 0 32.801537
4.5158124 6.2332611 1.5660621 17 0 0 0 32.801537
2.4541698 4.1984291 1.4370502 713 0 0 0 32.801537
2.1973457 3.69294 3.1826437 191 0 0 0 32.801537
1.9102991 4.2202992 2.6743522 7 0 0 0 32.801537
2.2013154 4.7998171 0.42470026 435 0 0 0 32.801537
2.9135861 4.9173145 3.7912974 36 0 0 0 32.801537
2.0382702 3.4130611 3.2740591 375 0 0 0 32.801537
1.6259505 4.7885532 1.6439395 46 0 0 0 32.801537
1.8311499 3.9950864 -0.06902343 301 0 0 0 32.801537
2.2064643 3.7881322 -0.22873536 435 0 0 0 32.801537
2.3960018 4.0660028 2.4901621 267 0 0 0 32.801537
1.712309 5.3541927 3.9786651 52 0 0 0 32.801537
2.3431196 2.9433393 3.9572749 210 0 0 0 32.801537
1.4508883 4.2088737 0.092548437 375 0 0 0 32.801537
1.6549575 4.8458738 1.3898336 8 0 0 0 32.801537
1.9924322 3.3202927 3.5401042 258 0 0 0 32.801537
2.0143919 4.3904829 0.15523677 239 0 0 0 32.801537
2.9091995 3.9895003 1.5341763 675 0 0 0 32.801537
2.4114892 4.1038308 2.2150769 223 0 0 0 32.801537
1.5225753 4.5476069 2.1072731 488 0 0 0 32.801537
1.6868483 3.6822188 -0.25710762 362 0 0 0 32.801537
2.6801007 3.5984657 2.4587452 530 0 0 0 32.801537
2.3715448 3.2762485 -0.56131846 437 0 0 0 32.801537
2.5753586 3.563683 -0.39452887 445 0 0 0 32.801537
2.4057534 4.1089191 1.6662316 704 0 0 0 32.801537
2.6795731 4.6009531 0.23225266 259 0 0 0 32.801537
2.5112011 3.2847686 3.1709328 301 0 0 0 32.801537
1.9330754 3.2008204 3.7941246 251 0 0 0 32.801537
2.5677834 4.4000082 0.97725105 884 0 0 0 32.801537
2.3347394 3.9524355 2.7262282 288 0 0 0 32.801537
1.6274071 3.6382883 3.1997354 184 0 0 0 32.801537
2.0348265 3.4918394 -0.40556219 388 0 0 0 32.801537
1.5968772 4.631135 0.34006813 254 0 0 0 32.801537
2.4203901 4.1539884 -0.020552767 243 0 0 0 32.801537
2.7947407 3.7999001 1.9994113 641 0 0 0 32.801537
1.0640035 3.5391264 3.5990541 306 0 0 0 32.801537
1.372853 4.2343321 2.827029 10 0 0 0 32.801537
1.4948301 3.3787742 3.6565495 271 0 0 0 32.801537
2.8483799 3.8915653 1.7663676 656 0 0 0 32.801537
2.5073988 4.2930088 1.2079582 895 0 0 0 32.801537
2.0757365 6.0401793 1.0650774 24 0 0 0 32.801537
2.7344654 5.9864268 2.2032573 58 0 0 0 32.801537
2.9712713 4.088335 1.3009157 654 0 0 0 32.801537
1.1220566 3.6454942 3.3462589 362 0 0 0 32.801537
2.3949444 5.3074102 3.7592895 35 0 0 0 32.801537
1.7697761 5.1370649 0.63966596 264 0 0 0 32.801537
1.5543441 3.493212 3.4078119 305 0 0 0 32.801537
4.451376 6.1555676 1.1619824 18 0 0 0 32.801537
1.257036 4.0022044 3.3114979 199 0 0 0 32.801537
2.5739989 3.4017029 2.9368048 409 0 0 0 32.801537
2.0533047 6.0821657 2.4386103 78 0 0 0 32.801537
2.2380583 4.8843985 0.96148878 335 0 0 0 32.801537
2.6262405 4.5056872 0.73854738 750 0 0 0 32.801537
2.6766508 4.5922251 0.4904387 771 0 0 0 32.801537
2.3517749 4.008585 1.8893142 723 0 0 0 32.801537
1.3292147 3.8569431 -0.11167855 358 0 0 0 32.801537
2.7344687 3.6973295 2.2266965 524 0 0 0 32.801537
2.6209974 3.4945118 2.6903751 504 0 0 0 32.801537
2.4015429 3.0642643 3.6836514 270 0 0 0 32.801537
4.2297449 9.3141384 5.2104292 20 0 0 0 32.801537
1.7736416 3.9462698 3.122376 138 0 0 0 32.801537
2.2775676 4.9705677 0.70608515 267 0 0 0 32.801537
2.2087321 3.6607571 3.1666517 186 0 0 0 32.892929
1.5735863 3.4788339 3.4031725 295 0 0 0 32.892929
2.4285183 5.2949104 3.7609096 44 0 0 0 32.892929
4.2890587 9.2928686 5.2131419 14 0 0 0 32.892929
1.5092106 4.4560394 2.3554602 153 0 0 0 32.892929
2.1264992 6.0664473 1.0717852 15 0 0 0 32.892929
2.8766813 3.880064 1.7690815 621 0 0 0 32.892929
2.0752373 4.4774175 1.9351109 807 0 0 0 32.892929
2.7084739 3.59038 2.4644675 572 0 0 0 32.892929
4.3995967 9.5104036 4.6914153 19 0 0 0 32.892929
2.648062 3.4858463 2.6961062 463 0 0 0 32.892929
2.6071572 3.5614741 -0.39619663 490 0 0 0 32.892929
2.7250254 4.6136847 0.2335104 278 0 0 0 32.892929
1.0812451 3.5181098 3.5844531 320 0 0 0 32.892929
1.9548838 3.1925039 3.7983842 235 0 0 0 32.892929
1.6302419 4.6353683 0.34100214 245 0 0 0 32.892929
2.759804 3.6840937 2.2288551 529 0 0 0 32.892929
2.249337 4.8305502 0.68897492 368 0 0 0 32.892929
1.5146554 3.3675878 3.6544464 237 0 0 0 32.892929
1.3598343 3.8685062 -0.1124444 369 0 0 0 32.892929
2.0866146 6.0579486 2.4340384 80 0 0 0 32.892929
2.0602572 3.4861355 -0.40643731 436 0 0 0 32.892929
2.5992377 4.3917856 0.97889423 884 0 0 0 32.892929
2.6563575 4.4937544 0.73921818 775 0 0 0 32.892929
2.4225607 3.0523276 3.6870761 279 0 0 0 32.892929
2.456002 4.1562791 -0.020790126 267 0 0 0 32.892929
2.212363 4.7599211 1.4807868 78 0 0 0 32.892929
2.5376582 4.2842417 1.2098027 834 0 0 0 32.892929
2.7727458 5.9729805 2.2045126 40 0 0 0 32.892929
3.181803 4.322433 1.3797127 239 0 0 0 32.892929
1.280363 3.9906704 3.3084133 194 0 0 0 32.892929
1.8200828 5.1795397 0.64599001 181 0 0 0 32.892929
4.4949031 6.1361208 1.1634537 17 0 0 0 32.892929
2.4823325 4.1874232 1.438441 741 0 0 0 32.892929
2.0146904 3.3111682 3.5434654 258 0 0 0 32.892929
1.4816738 4.2140369 0.092739545 307 0 0 0 32.892929
2.3854928 4.0030923 2.1691115 248 0 0 0 32.892929
1.5498556 4.5364437 2.1064768 690 0 0 0 32.892929
2.4050369 3.279995 -0.56470221 414 0 0 0 32.892929
2.0615785 3.4044647 3.2778571 346 0 0 0 32.892929
1.8649215 4.0037093 -0.069553263 312 0 0 0 32.892929
2.9353268 3.9738843 1.5350515 704 0 0 0 32.892929
1.7380023 5.3218226 3.962553 68 0 0 0 32.892929
2.9320982 4.8800178 3.7764385 31 0 0 0 32.892929
2.2692535 6.4910541 1.4958408 42 0 0 0 32.892929
1.4531724 4.3360138 2.5875561 37 0 0 0 32.892929
2.7113659 4.5868669 0.4915514 797 0 0 0 32.892929
2.4804084 3.1675522 3.430536 248 0 0 0 32.892929
2.2181644 4.7680192 1.2095892 418 0 0 0 32.892929
4.1783047 9.0780268 5.7408566 17 0 0 0 32.892929
1.6438688 3.6154218 3.1885178 223 0 0 0 32.892929
1.1462212 3.6442928 3.3515136 369 0 0 0 32.892929
2.5395777 3.2800033 3.1812298 310 0 0 0 32.892929
2.051861 4.4006886 0.1558563 241 0 0 0 32.892929
2.8196552 3.7849014 2.0005691 654 0 0 0 32.892929
2.4314024 4.0948935 1.6665571 682 0 0 0 32.892929
2.8497205 3.8977702 -0.20028383 145 0 0 0 32.892929
2.2222946 4.7681437 0.42322505 558 0 0 0 32.892929
1.794103 3.9271796 3.1159711 193 0 0 0 32.892929
1.6553018 4.7784867 1.6439395 58 0 0 0 32.892929
2.36957 3.9557824 2.7384019 215 0 0 0 32.892929
2.4304485 4.0672059 2.4998848 299 0 0 0 32.892929
2.3650331 2.9337559 3.9637783 206 0 0 0 32.892929
2.3782244 3.9972708 1.8908023 683 0 0 0 32.892929
2.2738128 4.8830781 0.96387655 347 0 0 0 32.892929
2.5968292 3.388469 2.9390607 448 0 0 0 32.892929
1.7123588 3.6781275 -0.25761661 400 0 0 0 32.892929
2.2342331 3.7822585 -0.22928166 404 0 0 0 32.892929
4.3286076 5.9197307 0.75766885 9 0 0 0 32.892929
1.8198791 3.9197836 3.1188824 217 0 0 0 32.998913
2.2219081 3.6320112 3.1536212 165 0 0 0 32.998913
4.2328243 9.04986 5.739367 24 0 0 0 32.998913
2.2536449 4.758924 0.42359385 541 0 0 0 32.998913
2.2502995 4.7604938 1.211121 354 0 0 0 32.998913
4.9409933 6.6474299 1.6828376 17 0 0 0 32.998913
2.4448895 3.0419536 3.6925554 279 0 0 0 32.998913
2.7630353 4.6131682 0.23421326 276 0 0 0 32.998913
2.6855469 5.714293 2.8371027 43 0 0 0 32.998913
2.7916141 3.6793146 2.2361953 540 0 0 0 32.998913
2.1246789 6.0476804 2.4350936 120 0 0 0 32.998913
2.5119364 4.1787004 1.4406662 714 0 0 0 32.998913
2.3156185 6.495429 1.5000093 34 0 0 0 32.998913
1.8997233 4.013875 -0.070131257 321 0 0 0 32.998913
2.405582 3.9873726 1.8930343 692 0 0 0 32.998913
2.2109821 4.6731305 0.66942036 513 0 0 0 32.998913
1.3852359 3.8647916 -0.11262675 358 0 0 0 32.998913
1.5352899 3.3582308 3.6544464 251 0 0 0 32.998913
2.9636614 3.9611633 1.5370934 726 0 0 0 32.998913
1.5146071 4.2246265 0.093007095 342 0 0 0 32.998913
2.0310853 3.2924411 3.5367432 259 0 0 0 32.998913
2.3541265 3.8958311 2.1193852 515 0 0 0 32.998913
1.7165692 4.831573 1.3916311 5 0 0 0 32.998913
2.618583 3.3737772 2.9401884 422 0 0 0 32.998913
1.7383094 3.674763 -0.25819835 370 0 0 0 32.998913
2.433363 3.2763011 -0.56676185 422 0 0 0 32.998913
2.0872865 3.3996699 3.2854526 339 0 0 0 32.998913
1.6581413 3.588232 3.1735611 274 0 0 0 32.998913
2.3869174 2.9240141 3.9702818 208 0 0 0 32.998913
2.4305675 4.0112734 2.4748836 181 0 0 0 32.998913
2.5054786 3.1594551 3.4382911 283 0 0 0 32.998913
1.6925421 4.7906871 1.6515486 92 0 0 0 32.998913
2.1838729 4.6242599 1.4434676 327 0 0 0 32.998913
2.1034663 4.4662871 1.9358323 819 0 0 0 32.998913
1.7514353 5.2536602 3.919971 112 0 0 0 32.998913
2.6431694 3.5646081 -0.39855114 444 0 0 0 32.998913
2.3375993 3.8364108 2.9850566 53 0 0 0 32.998913
2.7336509 3.5778873 2.4673288 557 0 0 0 32.998913
4.5513163 6.1338539 1.1681615 13 0 0 0 32.998913
2.0878179 4.4069853 0.1563767 228 0 0 0 32.998913
1.4808826 4.3303165 2.5895116 40 0 0 0 32.998913
2.7368991 4.5658703 0.49112344 767 0 0 0 32.998913
2.5699077 4.2786016 1.2125695 877 0 0 0 32.998913
3.2071068 4.3012724 1.3792248 343 0 0 0 32.998913
1.4255264 4.2195706 2.8286276 13 0 0 0 32.998913
2.6756382 3.4776568 2.7023582 541 0 0 0 32.998913
1.8491423 5.1607914 0.64510244 147 0 0 0 32.998913
2.5655386 3.2718794 3.1884983 355 0 0 0 32.998913
2.4603825 4.0863795 1.6691602 672 0 0 0 32.998913
4.3463769 9.2671843 5.213594 18 0 0 0 32.998913
1.1002158 3.5031843 3.5761096 284 0 0 0 32.998913
2.8913958 3.9043057 -0.20175977 292 0 0 0 32.998913
2.8444908 3.7697396 2.0017269 652 0 0 0 32.998913
2.4881368 4.1522832 -0.020944409 263 0 0 0 32.998913
2.1826544 6.1062584 1.0808886 23 0 0 0 32.998913
1.168329 3.6364734 3.3508568 354 0 0 0 32.998913
1.5797801 4.5329103 2.1092637 562 0 0 0 32.998913
1.6627053 4.6365485 0.34174937 300 0 0 0 32.998913
2.9055128 3.8691144 1.7721345 683 0 0 0 32.998913
2.6833715 4.4765205 0.73908401 767 0 0 0 32.998913
2.6296763 4.3816566 0.98017234 900 0 0 0 32.998913
2.4027405 3.9559031 2.7485466 206 0 0 0 32.998913
1.5958416 3.4711537 3.4051609 294 0 0 0 32.998913
1.3048252 3.982739 3.3084133 168 0 0 0 32.998913
1.9755493 3.1822443 3.800514 240 0 0 0 32.998913
2.4606056 5.2791467 3.7603695 38 0 0 0 32.998913
2.275342 3.7984536 -0.23140617 352 0 0 0 32.998913
1.5344698 4.4407682 2.3523533 162 0 0 0 32.998913
2.088248 3.4845145 -0.40785933 420 0 0 0 32.998913
2.2957206 4.8521137 0.96063602 289 0 0 0 32.998913
4.6799464 9.9194117 3.6531367 16 0 0 0 32.998913
2.1174221 4.3994956 0.15652539 264 0 0 0 33.089279
2.1828699 4.5558167 1.6976824 8 0 0 0 33.089279
1.190148 3.627804 3.3495431 370 0 0 0 33.089279
2.4180036 2.9253156 3.9919598 203 0 0 0 33.089279
3.01561 3.9795198 1.5510951 542 0 0 0 33.089279
1.7215818 4.7793159 1.6512443 73 0 0 0 33.089279
3.2503705 4.3039689 1.3862994 23 0 0 0 33.089279
1.3304906 3.9783885 3.3114979 191 0 0 0 33.089279
1.6023283 4.5084419 2.1024957 486 0 0 0 33.089279
2.1138308 3.3960023 3.2943144 304 0 0 0 33.089279
2.4623277 3.273174 -0.56896865 456 0 0 0 33.089279
1.7686061 3.6802058 -0.25950724 358 0 0 0 33.089279
2.5890248 3.2604418 3.1927383 325 0 0 0 33.089279
2.3146613 3.8108723 -0.23328787 383 0 0 0 33.089279
4.5853038 6.1010661 1.1672788 23 0 0 0 33.089279
2.231395 4.6507406 1.4557296 447 0 0 0 33.089279
1.5442852 4.2255807 0.093147241 377 0 0 0 33.089279
1.618062 3.4633315 3.4071491 298 0 0 0 33.089279
2.8703656 3.7558827 2.0036564 629 0 0 0 33.089279
2.5430257 4.1722322 1.4437259 697 0 0 0 33.089279
2.1620631 6.0354109 2.4354453 54 0 0 0 33.089279
2.1188755 3.4869289 -0.40982831 427 0 0 0 33.089279
2.4343598 3.979665 1.8963826 660 0 0 0 33.089279
1.4068606 3.8505893 -0.11240793 379 0 0 0 33.089279
2.2934172 4.771338 0.94784451 331 0 0 0 33.089279
1.5558667 3.3487473 3.6544464 235 0 0 0 33.089279
2.2348819 4.6496377 0.66807604 876 0 0 0 33.089279
2.6590667 4.3696389 0.98108518 901 0 0 0 33.089279
1.928651 4.0111513 -0.07037209 325 0 0 0 33.089279
1.6966182 4.641253 0.34274563 258 0 0 0 33.089279
2.8179801 3.6671264 2.2392178 586 0 0 0 33.089279
1.8456318 3.912219 3.1217937 289 0 0 0 33.089279
2.7179911 4.4718285 0.74096227 774 0 0 0 33.089279
2.5223906 4.1514683 -0.021146165 255 0 0 0 33.089279
2.4685595 3.0331175 3.7000897 287 0 0 0 33.089279
2.287497 4.7633066 1.2152786 324 0 0 0 33.089279
2.2819376 4.7432094 0.42344633 548 0 0 0 33.089279
1.5103064 4.3293819 2.5944009 31 0 0 0 33.089279
2.5334053 3.154743 3.4499238 265 0 0 0 33.089279
1.8753072 5.1344161 0.64332724 196 0 0 0 33.089279
2.7777948 4.5702791 0.49326321 794 0 0 0 33.089279
2.6006656 4.2702336 1.2146444 847 0 0 0 33.089279
2.3746908 3.8440201 3.0021172 166 0 0 0 33.089279
2.4251616 3.9381497 2.7465177 223 0 0 0 33.089279
1.449731 4.205946 2.8254304 12 0 0 0 33.089279
2.4036148 6.6134367 1.5300223 10 0 0 0 33.089279
1.9961625 3.1718514 3.8026438 252 0 0 0 33.089279
2.8099556 4.6268816 0.23554499 347 0 0 0 33.089279
2.4351938 3.9638031 2.4549751 180 0 0 0 33.089279
2.4878721 4.075242 1.6707873 704 0 0 0 33.089279
2.7026896 3.468586 2.7080894 509 0 0 0 33.089279
2.2305703 3.5963936 3.1346679 176 0 0 0 33.089279
1.680127 3.5779903 3.1735611 345 0 0 0 33.089279
2.6823025 3.5714149 -0.40139616 471 0 0 0 33.089279
2.7174079 5.6911125 2.833849 81 0 0 0 33.089279
2.9382999 3.8632014 1.7775621 688 0 0 0 33.089279
2.4936726 5.2654705 3.7614493 47 0 0 0 33.089279
4.4050765 9.2443666 5.2158546 21 0 0 0 33.089279
1.1225723 3.4991038 3.5788908 269 0 0 0 33.089279
2.6489177 3.3699925 2.9509037 426 0 0 0 33.089279
2.1300259 4.4516139 1.9351109 827 0 0 0 33.089279
4.5048161 5.9829268 1.5245941 21 0 0 0 33.089279
1.782846 5.2404923 3.9182446 128 0 0 0 33.089279
2.3836789 3.8906112 2.1243997 645 0 0 0 33.089279
2.9260738 3.9008815 -0.20264535 300 0 0 0 33.089279
2.758239 3.5645249 2.469713 495 0 0 0 33.089279
2.0504644 3.278661 3.5353985 259 0 0 0 33.089279
4.2871556 9.0213652 5.7378778 21 0 0 0 33.089279
1.556015 4.4152169 2.34392 103 0 0 0 33.089279
2.4945264 3.0269196 3.7110486 252 0 0 0 33.195518
1.876635 3.9154811 3.1334391 189 0 0 0 33.195518
4.5277739 5.9372306 1.5200952 19 0 0 0 33.195518
1.2126257 3.6211479 3.3501999 377 0 0 0 33.195518
2.8426411 3.652616 2.2409449 565 0 0 0 33.195518
2.3132567 4.742166 1.213528 342 0 0 0 33.195518
2.9698715 3.9091153 -0.20426889 303 0 0 0 33.195518
1.5791277 3.3449402 3.6607559 211 0 0 0 33.195518
2.1518452 4.4016867 0.15694666 262 0 0 0 33.195518
2.2170191 4.5551414 1.7023897 32 0 0 0 33.195518
2.5589645 3.1468434 3.4583249 318 0 0 0 33.195518
2.6263072 4.2533674 1.2144139 855 0 0 0 33.195518
1.4760739 4.1985674 2.8264961 11 0 0 0 33.195518
2.526664 5.2515874 3.7625294 44 0 0 0 33.195518
1.5391878 4.3266063 2.5983124 46 0 0 0 33.195518
2.3158174 4.7389731 0.4242577 604 0 0 0 33.195518
2.2268786 3.5417037 3.0991302 163 0 0 0 33.195518
2.4442623 3.9151521 2.7409382 245 0 0 0 33.195518
2.0174794 3.162513 3.8061936 237 0 0 0 33.195518
2.1987333 6.021152 2.4350936 60 0 0 0 33.195518
2.5721111 4.162271 1.445673 763 0 0 0 33.195518
2.7479768 4.4592862 0.74163306 739 0 0 0 33.195518
1.7316986 4.6485205 0.34392872 242 0 0 0 33.195518
1.5836846 4.4072723 2.3448079 79 0 0 0 33.195518
2.6873763 4.3557515 0.98163295 926 0 0 0 33.195518
2.2396033 4.5871911 0.91509825 443 0 0 0 33.195518
2.9023812 3.7498806 2.009831 684 0 0 0 33.195518
2.2904694 6.1678333 1.0962206 12 0 0 0 33.195518
2.1558642 3.4992557 -0.41310993 451 0 0 0 33.195518
1.8176554 5.2371788 3.9239991 125 0 0 0 33.195518
2.5624943 4.1597548 -0.021478467 298 0 0 0 33.195518
2.1577082 4.4392996 1.9354717 786 0 0 0 33.195518
2.8545289 4.6359358 0.23669176 302 0 0 0 33.195518
4.462882 9.2195711 5.2172112 15 0 0 0 33.195518
2.7510803 5.6718664 2.8326287 72 0 0 0 33.195518
1.9655186 4.0243902 -0.071046419 350 0 0 0 33.195518
1.4378028 3.8615444 -0.11317379 330 0 0 0 33.195518
2.4631333 3.9717541 1.8997307 677 0 0 0 33.195518
2.7297301 3.4593141 2.7138205 473 0 0 0 33.195518
2.264241 4.6376204 0.66832048 834 0 0 0 33.195518
2.0705433 3.2660179 3.5353985 288 0 0 0 33.195518
1.9060813 5.1209507 0.64310533 228 0 0 0 33.195518
4.3412962 8.9925451 5.7363882 15 0 0 0 33.195518
2.5158148 4.0647249 1.6727397 691 0 0 0 33.195518
1.3518159 3.961215 3.304095 182 0 0 0 33.195518
4.6352253 6.0893507 1.1703682 13 0 0 0 33.195518
1.1467177 3.5003424 3.5872343 307 0 0 0 33.195518
2.6793041 3.365962 2.9616189 427 0 0 0 33.195518
1.798159 3.6836226 -0.26067069 383 0 0 0 33.195518
3.3076637 4.3544927 0.037129518 119 0 0 0 33.195518
2.3521256 3.8195503 -0.23492678 420 0 0 0 33.195518
2.4075065 3.875912 2.1243997 568 0 0 0 33.195518
2.1383443 3.3888624 3.3000112 291 0 0 0 33.195518
2.4877534 3.26509 -0.57029271 446 0 0 0 33.195518
2.7865565 3.5558422 2.4754353 518 0 0 0 33.195518
2.7137945 3.5675709 -0.40296581 445 0 0 0 33.195518
2.387341 3.8328993 2.3836751 239 0 0 0 33.195518
1.6450677 3.4655123 3.4190786 332 0 0 0 33.195518
1.7037348 3.5711424 3.1766772 392 0 0 0 33.195518
3.2377594 4.2190948 1.6502745 196 0 0 0 33.195518
2.6159525 3.2531836 3.2012181 322 0 0 0 33.195518
1.6299614 4.4985251 2.1024957 469 0 0 0 33.195518
2.439451 2.9146698 3.9977407 242 0 0 0 33.195518
1.7479134 4.7606173 1.648505 17 0 0 0 33.195518
2.2611568 4.6395602 1.4565294 390 0 0 0 33.195518
