# .PCD v0.7 - Point Cloud Data file format
VERSION 0.7
FIELDS x y z intensity normal_x normal_y normal_z curvature
SIZE 4 4 4 4 4 4 4 4
TYPE F F F F F F F F
COUNT 1 1 1 1 1 1 1 1
WIDTH 1089
HEIGHT 1
VIEWPOINT 0 0 0 1 0 0 0
POINTS 1089
DATA ascii
0.82499999 -1.914 1.561 45 0 0 0 79.412163
0.852 -1.802 1.562 46 0 0 0 79.427002
0.91399997 -2.1159999 1.571 39 0 0 0 79.441841
0.93900001 -1.9960001 1.577 39 0 0 0 79.45668
0.95899999 -1.8789999 1.579 41 0 0 0 79.471519
0.97100002 -1.7640001 1.582 47 0 0 0 79.486359
1.085 -2.092 1.594 33 0 0 0 79.501198
1.096 -1.97 1.605 36 0 0 0 79.516045
1.099 -1.846 1.605 41 0 0 0 79.530891
1.092 -1.722 1.605 42 0 0 0 79.545731
1.27 -2.072 1.631 35 0 0 0 79.56057
1.2539999 -1.933 1.633 38 0 0 0 79.575409
1.2359999 -1.8 1.6289999 44 0 0 0 79.590248
1.206 -1.666 1.622 48 0 0 0 79.605087
1.441 -2.016 1.651 35 0 0 0 79.619934
1.402 -1.87 1.649 38 0 0 0 80.198174
1.3660001 -1.735 1.645 43 0 0 0 80.21302
1.3200001 -1.604 1.64 45 0 0 0 80.227867
1.625 -1.961 1.684 31 0 0 0 80.242706
1.5599999 -1.808 1.677 37 0 0 0 80.257545
1.49 -1.658 1.6569999 52 0 0 0 80.272385
1.424 -1.529 1.651 37 0 0 0 80.287224
1.802 -1.8839999 1.7130001 35 0 0 0 80.302063
1.712 -1.7309999 1.702 31 0 0 0 80.31691
1.626 -1.589 1.687 41 0 0 0 80.331749
1.5319999 -1.454 1.669 42 0 0 0 80.346596
1.975 -1.79 1.739 33 0 0 0 80.361435
1.86 -1.64 1.724 35 0 0 0 80.376274
1.758 -1.506 1.712 63 0 0 0 80.391113
1.636 -1.3710001 1.6849999 39 0 0 0 80.405952
2.1429999 -1.681 1.766 35 0 0 0 80.420792
2.029 -1.556 1.77 33 0 0 0 80.435631
1.898 -1.424 1.75 26 0 0 0 80.450478
1.7460001 -1.289 1.712 48 0 0 0 80.465317
2.303 -1.554 1.79 49 0 0 0 80.480164
2.1489999 -1.425 1.776 33 0 0 0 80.495003
1.992 -1.3 1.748 41 0 0 0 80.509842
1.8430001 -1.191 1.727 43 0 0 0 80.524681
2.454 -1.413 1.814 37 0 0 0 80.53952
2.2750001 -1.295 1.795 43 0 0 0 80.554367
2.092 -1.178 1.7589999 41 0 0 0 80.569206
1.924 -1.081 1.733 44 0 0 0 80.584045
2.586 -1.252 1.83 38 0 0 0 80.598885
2.375 -1.143 1.799 36 0 0 0 80.613731
2.187 -1.048 1.7690001 38 0 0 0 80.628571
2.0090001 -0.97000003 1.7460001 47 0 0 0 80.64341
2.7060001 -1.079 1.847 37 0 0 0 80.658249
2.4760001 -0.99000001 1.811 36 0 0 0 80.569633
2.277 -0.91399997 1.783 46 0 0 0 80.584473
2.082 -0.84899998 1.753 42 0 0 0 80.599312
2.8169999 -0.898 1.865 39 0 0 0 80.614151
2.575 -0.829 1.829 36 0 0 0 80.62899
2.358 -0.76999998 1.794 37 0 0 0 80.643837
2.1530001 -0.72500002 1.7640001 41 0 0 0 80.658684
2.8970001 -0.69999999 1.872 41 0 0 0 80.673523
2.645 -0.65499997 1.8329999 37 0 0 0 80.688362
2.4189999 -0.61699998 1.7970001 36 0 0 0 80.703201
2.2190001 -0.59500003 1.775 46 0 0 0 80.71804
2.9579999 -0.49599999 1.876 38 0 0 0 80.73288
2.7149999 -0.47799999 1.846 36 0 0 0 80.747726
2.4779999 -0.46000001 1.804 37 0 0 0 80.762566
2.267 -0.456 1.775 46 0 0 0 80.777405
3.007 -0.287 1.882 38 0 0 0 80.792252
2.767 -0.29300001 1.855 37 0 0 0 80.807091
2.53 -0.29800001 1.814 33 0 0 0 80.82193
2.3210001 -0.31600001 1.788 37 0 0 0 80.836769
3.043 -0.074000001 1.89 36 0 0 0 80.851608
2.8039999 -0.104 1.862 37 0 0 0 80.866447
2.5639999 -0.13 1.818 32 0 0 0 80.881294
2.3570001 -0.168 1.79 38 0 0 0 80.896133
3.0480001 0.141 1.8890001 35 0 0 0 80.910973
2.819 0.089000002 1.863 37 0 0 0 80.925819
2.582 0.039999999 1.817 33 0 0 0 80.940659
2.3840001 -0.017000001 1.793 35 0 0 0 80.955498
3.0569999 0.359 1.9 31 0 0 0 80.970337
2.822 0.28400001 1.865 37 0 0 0 80.985184
2.5910001 0.213 1.819 30 0 0 0 81.000023
2.405 0.138 1.7970001 32 0 0 0 81.014862
2.997 0.56900001 1.8789999 35 0 0 0 81.029701
2.7980001 0.47799999 1.858 37 0 0 0 80.572983
2.596 0.38999999 1.825 32 0 0 0 80.587822
2.4089999 0.296 1.796 30 0 0 0 80.602661
2.9349999 0.77399999 1.8660001 36 0 0 0 80.6175
2.7639999 0.66900003 1.853 37 0 0 0 80.632347
2.5799999 0.56599998 1.824 32 0 0 0 80.647186
2.4030001 0.456 1.793 32 0 0 0 80.662033
2.885 0.98299998 1.87 36 0 0 0 80.676872
2.711 0.85900003 1.845 38 0 0 0 80.691711
2.5480001 0.74299997 1.8200001 31 0 0 0 80.706551
2.391 0.61900002 1.793 30 0 0 0 80.72139
2.783 1.17 1.851 33 0 0 0 80.736229
2.6400001 1.04 1.834 37 0 0 0 80.751076
2.494 0.912 1.809 29 0 0 0 80.765923
2.369 0.78399998 1.794 31 0 0 0 80.780762
2.675 1.352 1.836 34 0 0 0 80.795601
2.549 1.2130001 1.816 36 0 0 0 80.81044
2.425 1.0779999 1.794 29 0 0 0 80.825279
2.325 0.94499999 1.785 30 0 0 0 80.840118
2.5380001 1.5140001 1.808 35 0 0 0 80.854958
2.4400001 1.374 1.794 35 0 0 0 80.869797
2.3399999 1.2359999 1.776 28 0 0 0 80.884644
2.2650001 1.103 1.773 31 0 0 0 80.89949
2.391 1.661 1.78 33 0 0 0 80.91433
2.3280001 1.531 1.778 35 0 0 0 80.929169
2.256 1.396 1.767 28 0 0 0 80.944008
2.1949999 1.2589999 1.761 30 0 0 0 80.958847
2.2379999 1.798 1.755 34 0 0 0 80.973686
2.1919999 1.668 1.75 33 0 0 0 80.988525
2.1470001 1.54 1.7460001 29 0 0 0 81.003372
2.1210001 1.416 1.7539999 31 0 0 0 81.018219
2.085 1.925 1.7359999 35 0 0 0 81.033058
2.056 1.799 1.729 34 0 0 0 80.94957
2.039 1.686 1.735 28 0 0 0 80.964409
2.029 1.564 1.7410001 31 0 0 0 80.979248
1.918 2.0339999 1.71 35 0 0 0 80.994095
1.909 1.9170001 1.706 32 0 0 0 81.008934
1.911 1.814 1.715 28 0 0 0 81.023773
1.913 1.696 1.717 30 0 0 0 81.038612
1.74 2.1170001 1.678 34 0 0 0 81.053459
1.753 2.0209999 1.681 34 0 0 0 81.068298
1.763 1.92 1.682 27 0 0 0 81.083138
1.783 1.816 1.688 29 0 0 0 81.097977
1.559 2.188 1.646 33 0 0 0 81.112816
1.5880001 2.1070001 1.651 32 0 0 0 81.127663
1.617 2.0239999 1.659 28 0 0 0 81.142502
1.658 1.941 1.6720001 29 0 0 0 81.157341
1.387 2.257 1.625 31 0 0 0 81.172188
1.4220001 2.1819999 1.625 32 0 0 0 81.187027
1.461 2.1129999 1.632 27 0 0 0 81.201866
1.513 2.0439999 1.6440001 30 0 0 0 81.216705
1.2079999 2.303 1.597 31 0 0 0 81.231552
1.2539999 2.2479999 1.6 31 0 0 0 81.246391
1.3049999 2.197 1.61 32 0 0 0 81.26123
1.367 2.1470001 1.625 29 0 0 0 81.27607
1.024 2.3210001 1.5599999 30 0 0 0 81.290909
1.0779999 2.2880001 1.567 30 0 0 0 81.305756
1.14 2.263 1.584 27 0 0 0 81.320595
1.209 2.2320001 1.6 29 0 0 0 81.335434
0.84899998 2.3410001 1.533 31 0 0 0 81.350273
0.90700001 2.3239999 1.54 30 0 0 0 81.36512
0.96799999 2.3069999 1.552 30 0 0 0 81.379959
1.038 2.289 1.564 28 0 0 0 81.394798
0.68000001 2.358 1.513 35 0 0 0 81.409637
0.73900002 2.358 1.52 33 0 0 0 81.97599
0.79900002 2.3510001 1.529 30 0 0 0 81.990829
0.87 2.3510001 1.54 28 0 0 0 82.005669
0.509 2.348 1.484 31 0 0 0 82.020515
0.56800002 2.3659999 1.493 31 0 0 0 82.035355
0.62800002 2.381 1.5039999 30 0 0 0 82.050194
0.69700003 2.395 1.513 30 0 0 0 82.065041
0.34400001 2.325 1.454 38 0 0 0 82.07988
0.398 2.359 1.4630001 30 0 0 0 82.094719
0.45500001 2.3889999 1.473 30 0 0 0 82.109558
0.52200001 2.4289999 1.488 28 0 0 0 82.124397
0.186 2.306 1.434 37 0 0 0 82.139236
0.234 2.349 1.4400001 33 0 0 0 82.154083
0.285 2.3940001 1.45 28 0 0 0 82.168922
0.34299999 2.4430001 1.46 44 0 0 0 82.183762
0.032000002 2.273 1.411 38 0 0 0 82.198608
0.071999997 2.3299999 1.4170001 38 0 0 0 82.213448
0.115 2.3770001 1.42 43 0 0 0 82.228287
0.16500001 2.444 1.432 31 0 0 0 82.243126
-0.115 2.2219999 1.3839999 38 0 0 0 82.257965
-0.083999999 2.29 1.3890001 35 0 0 0 82.272804
-0.050000001 2.358 1.397 33 0 0 0 82.287651
-0.011 2.431 1.404 33 0 0 0 82.302498
-0.25600001 2.1730001 1.363 38 0 0 0 82.317337
-0.236 2.247 1.3660001 36 0 0 0 82.332176
-0.213 2.322 1.372 30 0 0 0 82.347015
-0.185 2.3959999 1.372 41 0 0 0 82.361855
-0.39300001 2.1229999 1.347 40 0 0 0 82.376694
-0.38299999 2.2 1.346 37 0 0 0 82.391533
-0.36899999 2.2679999 1.342 31 0 0 0 82.40638
-0.35600001 2.3629999 1.349 37 0 0 0 82.421219
-0.51999998 2.05 1.322 43 0 0 0 82.436066
-0.52200001 2.1289999 1.319 36 0 0 0 82.201233
-0.523 2.2179999 1.323 33 0 0 0 82.21608
-0.523 2.313 1.323 36 0 0 0 82.230919
-0.64300001 1.982 1.304 42 0 0 0 82.245758
-0.65600002 2.062 1.298 38 0 0 0 82.260597
-0.66900003 2.1470001 1.2970001 37 0 0 0 82.275436
-0.68099999 2.2390001 1.2920001 30 0 0 0 82.290283
-0.759 1.906 1.285 50 0 0 0 82.305122
-0.78399998 1.987 1.278 41 0 0 0 82.319969
-0.80800003 2.0699999 1.273 37 0 0 0 82.334808
-0.83499998 2.164 1.268 35 0 0 0 82.349648
-0.866 1.821 1.2640001 39 0 0 0 82.364487
-0.90799999 1.911 1.263 45 0 0 0 82.379326
-0.94300002 1.99 1.2539999 38 0 0 0 82.394165
-0.98299998 2.0799999 1.245 36 0 0 0 82.409004
-0.96799999 1.7359999 1.247 41 0 0 0 82.423851
-1.0190001 1.818 1.2410001 43 0 0 0 82.43869
-1.071 1.903 1.237 38 0 0 0 82.453537
-1.125 1.989 1.226 38 0 0 0 82.468376
-1.066 1.652 1.235 53 0 0 0 82.483215
-1.124 1.722 1.222 41 0 0 0 82.498055
-1.187 1.8 1.214 41 0 0 0 82.512894
-1.252 1.8789999 1.201 36 0 0 0 82.527733
-1.153 1.556 1.217 49 0 0 0 82.54258
-1.228 1.6289999 1.209 46 0 0 0 82.557426
-1.301 1.7 1.2 44 0 0 0 82.572266
-1.3789999 1.773 1.1849999 41 0 0 0 82.587105
-1.2359999 1.461 1.2029999 47 0 0 0 82.601944
-1.3200001 1.526 1.193 44 0 0 0 82.616783
-1.409 1.595 1.187 47 0 0 0 82.631622
-1.495 1.6569999 1.168 44 0 0 0 82.646461
-1.316 1.367 1.192 46 0 0 0 82.661301
-1.408 1.421 1.181 46 0 0 0 82.556
-1.505 1.48 1.1720001 49 0 0 0 82.570847
-1.603 1.535 1.154 51 0 0 0 82.585686
-1.391 1.271 1.183 46 0 0 0 82.600525
-1.49 1.314 1.17 46 0 0 0 82.615372
-1.599 1.3660001 1.163 54 0 0 0 82.630211
-1.699 1.404 1.1390001 48 0 0 0 82.64505
-1.466 1.176 1.1799999 49 0 0 0 82.659889
-1.568 1.205 1.161 49 0 0 0 82.674736
-1.668 1.234 1.143 37 0 0 0 82.689575
-1.7869999 1.2690001 1.126 39 0 0 0 82.704414
-1.526 1.071 1.169 47 0 0 0 82.719254
-1.628 1.086 1.147 36 0 0 0 82.734093
-1.743 1.11 1.1339999 28 0 0 0 82.74894
-1.867 1.131 1.1160001 35 0 0 0 82.763779
-1.584 0.96700001 1.1619999 27 0 0 0 82.778618
-1.694 0.972 1.142 29 0 0 0 82.793457
-1.812 0.98199999 1.127 27 0 0 0 82.808304
-1.941 0.991 1.109 33 0 0 0 82.823143
-1.637 0.861 1.156 23 0 0 0 82.837982
-1.745 0.852 1.133 29 0 0 0 82.852821
-1.8609999 0.84600002 1.114 27 0 0 0 82.867661
-2.0009999 0.84399998 1.102 38 0 0 0 82.882507
-1.678 0.74900001 1.147 27 0 0 0 82.897346
-1.791 0.73000002 1.125 31 0 0 0 82.912193
-1.905 0.70999998 1.105 30 0 0 0 82.927032
-2.0339999 0.68900001 1.086 34 0 0 0 82.941872
-1.714 0.63700002 1.138 29 0 0 0 82.956711
-1.832 0.60699999 1.1210001 40 0 0 0 82.97155
-1.7539999 0.52700001 1.137 34 0 0 0 83.016075
-2.0880001 -0.52399999 1.0880001 7 0 0 0 83.316231
-1.839 -0.296 1.123 15 0 0 0 83.33107
-1.9119999 -0.417 1.114 41 0 0 0 83.345909
-1.98 -0.53899997 1.103 48 0 0 0 83.360748
-2.0569999 -0.67400002 1.096 61 0 0 0 83.375603
-1.834 -0.419 1.128 51 0 0 0 83.390442
-1.893 -0.54799998 1.119 54 0 0 0 83.935593
-1.952 -0.67799997 1.1109999 50 0 0 0 83.950432
-2.0109999 -0.81900001 1.103 60 0 0 0 83.965271
-1.814 -0.54100001 1.1289999 53 0 0 0 83.98011
-1.868 -0.67900002 1.125 57 0 0 0 83.994949
-1.908 -0.81300002 1.115 58 0 0 0 84.009789
-1.955 -0.95999998 1.11 58 0 0 0 84.024643
-1.793 -0.66600001 1.133 52 0 0 0 84.039482
-1.83 -0.80800003 1.128 53 0 0 0 84.054321
-1.863 -0.949 1.124 44 0 0 0 84.06916
-1.905 -1.1059999 1.127 67 0 0 0 84.084
-1.762 -0.78899997 1.136 53 0 0 0 84.098839
-1.789 -0.93699998 1.136 53 0 0 0 84.113678
-1.818 -1.0880001 1.1390001 57 0 0 0 84.128517
-1.831 -1.2410001 1.136 53 0 0 0 84.143356
-1.726 -0.91500002 1.141 55 0 0 0 84.158211
-1.7410001 -1.067 1.145 51 0 0 0 84.17305
-1.752 -1.217 1.148 52 0 0 0 84.187889
-1.7460001 -1.368 1.145 50 0 0 0 84.202728
-1.6799999 -1.038 1.146 50 0 0 0 84.217567
-1.682 -1.192 1.152 48 0 0 0 84.232407
-1.674 -1.34 1.154 48 0 0 0 84.247246
-1.6569999 -1.493 1.156 51 0 0 0 84.262093
-1.636 -1.168 1.158 50 0 0 0 84.276939
-1.6160001 -1.317 1.161 47 0 0 0 84.291779
-1.604 -1.473 1.173 51 0 0 0 84.306618
-1.569 -1.6210001 1.176 46 0 0 0 84.321457
-1.576 -1.2920001 1.165 48 0 0 0 84.336296
-1.546 -1.442 1.174 47 0 0 0 84.351135
-1.515 -1.594 1.1849999 47 0 0 0 84.365974
-1.4680001 -1.738 1.191 46 0 0 0 84.380814
-1.515 -1.4220001 1.178 42 0 0 0 84.39566
-1.4809999 -1.581 1.198 50 0 0 0 84.310249
-1.4220001 -1.7130001 1.2 45 0 0 0 84.325089
-1.358 -1.849 1.207 47 0 0 0 84.339928
-1.451 -1.558 1.197 46 0 0 0 84.354767
-1.3890001 -1.697 1.209 47 0 0 0 84.369606
-1.324 -1.8329999 1.22 48 0 0 0 84.384445
-1.2410001 -1.954 1.225 50 0 0 0 84.3993
-1.3660001 -1.682 1.209 46 0 0 0 84.414139
-1.2920001 -1.816 1.223 44 0 0 0 84.428978
-1.211 -1.939 1.234 45 0 0 0 84.443817
-1.118 -2.052 1.243 42 0 0 0 84.458656
-1.275 -1.807 1.223 42 0 0 0 84.473495
-1.186 -1.9299999 1.239 53 0 0 0 84.488335
-1.091 -2.0380001 1.249 46 0 0 0 84.503181
-0.98799998 -2.142 1.262 38 0 0 0 84.518021
-1.173 -1.9299999 1.238 47 0 0 0 84.532867
-1.072 -2.04 1.255 44 0 0 0 84.547707
-0.96200001 -2.128 1.263 40 0 0 0 84.562546
-0.85299999 -2.227 1.283 46 0 0 0 84.577385
-1.062 -2.0510001 1.255 39 0 0 0 84.592224
-0.94800001 -2.1429999 1.271 41 0 0 0 84.607063
-0.833 -2.227 1.286 40 0 0 0 84.621902
-0.71399999 -2.3080001 1.306 41 0 0 0 84.636749
-0.93800002 -2.1619999 1.2690001 36 0 0 0 84.651588
-0.81800002 -2.2490001 1.293 37 0 0 0 84.666435
-0.69599998 -2.322 1.312 39 0 0 0 84.681274
-0.56800002 -2.381 1.331 40 0 0 0 84.696114
-0.80800003 -2.2820001 1.2920001 37 0 0 0 84.710953
-0.67900002 -2.348 1.314 39 0 0 0 84.725792
-0.55000001 -2.404 1.335 41 0 0 0 84.740639
-0.417 -2.4449999 1.355 39 0 0 0 84.755478
-0.66500002 -2.3940001 1.314 34 0 0 0 84.770317
-0.53200001 -2.448 1.342 38 0 0 0 84.316208
-0.396 -2.4749999 1.357 52 0 0 0 84.331047
-0.25999999 -2.497 1.378 43 0 0 0 84.345886
-0.51200002 -2.5039999 1.339 41 0 0 0 84.360725
-0.373 -2.5380001 1.368 37 0 0 0 84.375565
-0.236 -2.5469999 1.385 36 0 0 0 84.390419
-0.098999999 -2.5510001 1.408 34 0 0 0 84.405258
-0.347 -2.612 1.367 31 0 0 0 84.420097
-0.206 -2.6199999 1.395 34 0 0 0 84.434937
-0.068999998 -2.6170001 1.4170001 38 0 0 0 84.449776
0.066 -2.6010001 1.441 36 0 0 0 84.464615
-0.17 -2.7279999 1.406 31 0 0 0 84.479454
-0.028000001 -2.7079999 1.4299999 33 0 0 0 84.494293
0.106 -2.6760001 1.449 33 0 0 0 84.509132
0.236 -2.6199999 1.462 33 0 0 0 84.523987
0.021 -2.8180001 1.436 112 0 0 0 84.538826
0.15899999 -2.78 1.4630001 64 0 0 0 84.553665
0.28799999 -2.723 1.4809999 35 0 0 0 84.568504
0.412 -2.655 1.5 33 0 0 0 84.583344
0.21699999 -2.799 1.418 123 0 0 0 84.598183
0.34900001 -2.7780001 1.464 99 0 0 0 84.613022
0.477 -2.757 1.512 101 0 0 0 84.627869
0.56900001 -2.576 1.477 101 0 0 0 84.642715
0.414 -2.777 1.405 110 0 0 0 84.657555
0.53899997 -2.7590001 1.4630001 122 0 0 0 84.672394
0.62300003 -2.576 1.431 114 0 0 0 84.687233
0.74000001 -2.5599999 1.4960001 117 0 0 0 84.702072
0.58600003 -2.6359999 1.339 141 0 0 0 84.716911
0.68599999 -2.5650001 1.375 111 0 0 0 84.73175
0.79699999 -2.5469999 1.439 123 0 0 0 84.74659
0.912 -2.5409999 1.52 104 0 0 0 84.761436
0.76300001 -2.562 1.3150001 115 0 0 0 84.776283
0.86900002 -2.543 1.385 112 0 0 0 84.914078
0.98000002 -2.5339999 1.4630001 105 0 0 0 84.928925
1.089 -2.52 1.548 104 0 0 0 84.943771
0.95499998 -2.5320001 1.319 104 0 0 0 84.958611
1.059 -2.5209999 1.402 110 0 0 0 84.97345
1.238 -2.668 1.581 110 0 0 0 84.988289
1.324 -2.6010001 1.649 39 0 0 0 85.003128
1.224 -2.6589999 1.415 150 0 0 0 85.017967
1.339 -2.661 1.5190001 111 0 0 0 85.032814
1.444 -2.641 1.614 109 0 0 0 85.047653
1.507 -2.549 1.673 37 0 0 0 85.062492
1.452 -2.6400001 1.444 97 0 0 0 85.077339
1.5549999 -2.6259999 1.548 102 0 0 0 85.092178
1.663 -2.6159999 1.658 100 0 0 0 85.107018
1.692 -2.49 1.7029999 38 0 0 0 85.121857
1.689 -2.612 1.479 105 0 0 0 85.136696
1.79 -2.5999999 1.5930001 105 0 0 0 85.151535
1.888 -2.5780001 1.705 111 0 0 0 85.166382
1.873 -2.414 1.727 41 0 0 0 85.181221
1.939 -2.5739999 1.52 119 0 0 0 85.196068
2.0339999 -2.559 1.64 112 0 0 0 85.210907
2.132 -2.5420001 1.7640001 99 0 0 0 85.225746
2.0510001 -2.3269999 1.753 40 0 0 0 85.240585
2.2149999 -2.5409999 1.5779999 106 0 0 0 85.255424
2.313 -2.5320001 1.712 107 0 0 0 85.270271
2.3559999 -2.4619999 1.807 41 0 0 0 85.28511
2.223 -2.224 1.774 39 0 0 0 85.29995
2.5209999 -2.503 1.651 108 0 0 0 85.314789
2.6210001 -2.5 1.798 103 0 0 0 85.329636
2.563 -2.3469999 1.835 35 0 0 0 85.344475
2.4100001 -2.1259999 1.809 44 0 0 0 85.359314
2.8640001 -2.464 1.744 86 0 0 0 85.374153
2.9430001 -2.4449999 1.8890001 86 0 0 0 85.895622
2.7590001 -2.2119999 1.86 34 0 0 0 85.910461
2.5840001 -2.006 1.837 37 0 0 0 85.925308
3.2490001 -2.4119999 1.854 78 0 0 0 85.940155
3.204 -2.3080001 1.939 36 0 0 0 85.954994
2.9760001 -2.0780001 1.901 39 0 0 0 85.969833
2.763 -1.878 1.869 40 0 0 0 85.984673
3.704 -2.358 1.999 77 0 0 0 85.999512
3.4389999 -2.135 1.976 32 0 0 0 86.014351
3.152 -1.905 1.92 35 0 0 0 86.02919
2.9159999 -1.726 1.89 37 0 0 0 86.044029
4.02 -2.171 2.0669999 19 0 0 0 86.058884
3.6589999 -1.9349999 2.01 37 0 0 0 86.073723
3.346 -1.7309999 1.954 34 0 0 0 86.088562
3.0710001 -1.564 1.9119999 37 0 0 0 86.103401
4.2670002 -1.923 2.1059999 19 0 0 0 86.11824
3.8599999 -1.7130001 2.04 29 0 0 0 86.13308
3.533 -1.5420001 1.99 38 0 0 0 86.147919
3.217 -1.392 1.936 36 0 0 0 86.162766
4.487 -1.648 2.1389999 19 0 0 0 86.177605
4.0560002 -1.473 2.072 24 0 0 0 86.192451
3.6760001 -1.321 2.0039999 33 0 0 0 86.207291
3.3570001 -1.206 1.9579999 35 0 0 0 86.22213
4.7020001 -1.351 2.178 21 0 0 0 86.236969
4.2069998 -1.206 2.089 15 0 0 0 86.251808
3.813 -1.091 2.0239999 30 0 0 0 86.266647
3.4790001 -1.007 1.976 40 0 0 0 86.281487
4.8319998 -1.023 2.1889999 20 0 0 0 86.296333
4.3590002 -0.93099999 2.1170001 16 0 0 0 86.311172
3.9400001 -0.84899998 2.0439999 29 0 0 0 86.326019
3.5929999 -0.79500002 1.993 34 0 0 0 86.340858
4.9549999 -0.68099999 2.2060001 19 0 0 0 86.355698
4.4580002 -0.63300002 2.1259999 17 0 0 0 86.227409
4.052 -0.59399998 2.063 34 0 0 0 86.242249
3.6889999 -0.57300001 2.0079999 34 0 0 0 86.257088
5.0380001 -0.33000001 2.2179999 19 0 0 0 86.271927
4.5479999 -0.329 2.142 17 0 0 0 86.286766
4.1259999 -0.32499999 2.0699999 28 0 0 0 86.301613
3.767 -0.33899999 2.017 28 0 0 0 86.31646
5.0949998 0.030999999 2.23 18 0 0 0 86.331299
4.5910001 -0.012 2.1440001 16 0 0 0 86.346138
4.1830001 -0.048999999 2.0780001 23 0 0 0 86.360977
3.8280001 -0.097999997 2.0239999 27 0 0 0 86.375816
5.0949998 0.39300001 2.23 19 0 0 0 86.390656
4.605 0.30500001 2.145 17 0 0 0 86.405502
4.2119999 0.23100001 2.0810001 24 0 0 0 86.420341
3.885 0.152 2.036 31 0 0 0 86.435181
5.0370002 0.75400001 2.2160001 20 0 0 0 86.450027
4.5869999 0.62599999 2.1389999 17 0 0 0 86.464867
4.2270002 0.51899999 2.085 22 0 0 0 86.479706
3.905 0.40799999 2.036 32 0 0 0 86.494545
4.9650002 1.107 2.2079999 19 0 0 0 86.509384
4.5440001 0.94199997 2.1340001 17 0 0 0 86.524223
4.1939998 0.80299997 2.0739999 22 0 0 0 86.53907
3.9070001 0.66799998 2.0350001 35 0 0 0 86.553909
4.8239999 1.443 2.1800001 19 0 0 0 86.568748
4.454 1.252 2.115 24 0 0 0 86.583595
4.165 1.095 2.075 21 0 0 0 86.598434
3.8959999 0.93400002 2.0339999 30 0 0 0 86.613274
4.6589999 1.761 2.1530001 19 0 0 0 86.628113
4.3660002 1.5599999 2.109 45 0 0 0 86.64296
4.0879998 1.375 2.062 21 0 0 0 86.657799
3.8629999 1.199 2.0309999 24 0 0 0 86.672638
4.4619999 2.0569999 2.1199999 19 0 0 0 86.687477
4.2069998 1.842 2.0780001 16 0 0 0 86.234291
4.0289998 1.668 2.066 14 0 0 0 86.24913
3.8110001 1.467 2.0250001 40 0 0 0 86.263969
4.2389998 2.329 2.085 18 0 0 0 86.278809
4.0250001 2.1040001 2.0450001 16 0 0 0 86.293648
3.8559999 1.913 2.0220001 22 0 0 0 86.308487
3.7160001 1.722 2.007 24 0 0 0 86.323326
3.9760001 2.563 2.0369999 17 0 0 0 86.338165
3.8269999 2.352 2.0120001 15 0 0 0 86.353004
3.7079999 2.1659999 2 30 0 0 0 86.367859
3.605 1.975 1.989 20 0 0 0 86.382698
3.7190001 2.786 2 18 0 0 0 86.397537
3.625 2.5899999 1.9859999 21 0 0 0 86.412376
3.523 2.3929999 1.966 20 0 0 0 86.427216
3.461 2.211 1.962 15 0 0 0 86.442055
3.428 2.9619999 1.949 16 0 0 0 86.456894
3.3770001 2.7839999 1.942 20 0 0 0 86.471741
3.3210001 2.6059999 1.931 21 0 0 0 86.486588
3.296 2.4360001 1.931 20 0 0 0 86.501427
3.1329999 3.1159999 1.9 17 0 0 0 86.516266
3.1159999 2.9549999 1.896 22 0 0 0 86.531105
3.1110001 2.8069999 1.899 21 0 0 0 86.545944
3.122 2.6530001 1.905 20 0 0 0 86.560783
2.8340001 3.237 1.851 16 0 0 0 86.575623
2.8469999 3.0969999 1.849 20 0 0 0 86.590462
2.8770001 2.9790001 1.86 19 0 0 0 86.605309
2.9119999 2.842 1.8660001 14 0 0 0 86.620155
2.5409999 3.346 1.808 23 0 0 0 86.634995
2.5739999 3.224 1.804 20 0 0 0 86.649834
2.6199999 3.1159999 1.812 22 0 0 0 86.664673
2.6930001 3.017 1.8279999 14 0 0 0 86.679512
2.2420001 3.418 1.76 20 0 0 0 86.694351
2.3050001 3.3329999 1.765 20 0 0 0 86.907982
2.3710001 3.2509999 1.775 26 0 0 0 86.922821
2.4690001 3.1849999 1.796 21 0 0 0 86.93766
1.936 3.448 1.704 25 0 0 0 86.952515
2.017 3.3989999 1.7130001 21 0 0 0 86.967354
2.108 3.3570001 1.732 20 0 0 0 86.982193
2.223 3.322 1.756 20 0 0 0 86.997032
1.658 3.497 1.668 26 0 0 0 87.011871
1.744 3.464 1.674 26 0 0 0 87.026711
1.844 3.447 1.691 23 0 0 0 87.04155
1.962 3.4300001 1.711 18 0 0 0 87.056396
1.381 3.516 1.63 12 0 0 0 87.071243
1.476 3.5139999 1.638 17 0 0 0 87.086082
1.582 3.526 1.6569999 16 0 0 0 87.100922
1.7130001 3.552 1.682 36 0 0 0 87.115761
1.102 3.4879999 1.58 28 0 0 0 87.1306
1.201 3.5209999 1.592 55 0 0 0 87.145439
1.329 3.618 1.637 11 0 0 0 87.160278
1.446 3.6329999 1.6440001 12 0 0 0 87.175117
0.83499998 3.438 1.53 30 0 0 0 87.189964
0.92799997 3.4909999 1.539 26 0 0 0 87.204811
1.036 3.573 1.566 26 0 0 0 87.21965
1.1619999 3.655 1.589 47 0 0 0 87.234489
0.58499998 3.4000001 1.493 31 0 0 0 87.249329
0.671 3.471 1.501 30 0 0 0 87.264168
0.76700002 3.5580001 1.5190001 27 0 0 0 87.279007
0.88200003 3.6589999 1.538 22 0 0 0 87.293854
0.34299999 3.3280001 1.45 29 0 0 0 87.308693
0.41999999 3.421 1.4579999 28 0 0 0 87.32354
0.50700003 3.54 1.478 27 0 0 0 87.338379
0.611 3.6689999 1.498 30 0 0 0 87.353218
0.116 3.276 1.4220001 29 0 0 0 87.368057
0.18000001 3.369 1.421 29 0 0 0 87.888809
0.252 3.493 1.4349999 27 0 0 0 87.903648
0.34 3.645 1.454 30 0 0 0 87.918488
-0.1 3.188 1.385 28 0 0 0 87.933327
-0.048999999 3.3169999 1.392 28 0 0 0 87.948174
0.0060000001 3.4430001 1.399 27 0 0 0 87.963013
0.075999998 3.596 1.409 29 0 0 0 87.977859
-0.30599999 3.095 1.351 27 0 0 0 87.992699
-0.27000001 3.224 1.352 27 0 0 0 88.007538
-0.229 3.359 1.3559999 26 0 0 0 88.022377
-0.18000001 3.5309999 1.3660001 26 0 0 0 88.037216
-0.50099999 3.0039999 1.324 29 0 0 0 88.052055
-0.48100001 3.1400001 1.323 26 0 0 0 88.066895
-0.458 3.2850001 1.326 26 0 0 0 88.081741
-0.42899999 3.4549999 1.3279999 22 0 0 0 88.096581
-0.685 2.901 1.2970001 34 0 0 0 88.111427
-0.68300003 3.0450001 1.296 32 0 0 0 88.126266
-0.67900002 3.2019999 1.298 33 0 0 0 88.141106
-0.67500001 3.3989999 1.3049999 46 0 0 0 88.155945
-0.852 2.773 1.263 30 0 0 0 88.170784
-0.86799997 2.9200001 1.26 35 0 0 0 88.185631
-0.88200003 3.0739999 1.258 29 0 0 0 88.20047
-0.90899998 3.299 1.273 27 0 0 0 88.215309
-1.018 2.6700001 1.244 30 0 0 0 88.230148
-1.052 2.816 1.239 33 0 0 0 88.244995
-1.082 2.9630001 1.232 29 0 0 0 88.259834
-1.1160001 3.135 1.224 27 0 0 0 88.274673
-1.171 2.5510001 1.223 31 0 0 0 88.289513
-1.215 2.678 1.2079999 33 0 0 0 88.304352
-1.2640001 2.825 1.2 31 0 0 0 88.319199
-1.316 2.9860001 1.187 29 0 0 0 88.334038
-1.3 2.401 1.189 30 0 0 0 88.348877
-1.364 2.5320001 1.178 32 0 0 0 88.176285
-1.434 2.6789999 1.17 30 0 0 0 88.191139
-1.511 2.845 1.159 36 0 0 0 88.205978
-1.433 2.276 1.171 31 0 0 0 88.220818
-1.511 2.3989999 1.1569999 32 0 0 0 88.235657
-1.597 2.5350001 1.147 29 0 0 0 88.250496
-1.688 2.6830001 1.1289999 32 0 0 0 88.265335
-1.552 2.141 1.151 31 0 0 0 88.280174
-1.645 2.2550001 1.136 31 0 0 0 88.295021
-1.748 2.3840001 1.124 29 0 0 0 88.30986
-1.853 2.5150001 1.103 34 0 0 0 88.324707
-1.668 2.01 1.136 38 0 0 0 88.339546
-1.768 2.1059999 1.115 33 0 0 0 88.354385
-1.88 2.217 1.099 33 0 0 0 88.369225
-2 2.3340001 1.075 34 0 0 0 88.384064
-1.772 1.872 1.119 40 0 0 0 88.398903
-1.881 1.9529999 1.096 34 0 0 0 88.413742
-2.0020001 2.0480001 1.077 32 0 0 0 88.428589
-2.141 2.1570001 1.0549999 36 0 0 0 88.443436
-1.863 1.726 1.101 47 0 0 0 88.458275
-1.987 1.801 1.081 43 0 0 0 88.473114
-2.1199999 1.882 1.061 37 0 0 0 88.487953
-2.2739999 1.977 1.039 33 0 0 0 88.502792
-1.954 1.5880001 1.09 46 0 0 0 88.517632
-2.086 1.647 1.067 41 0 0 0 88.532478
-2.2260001 1.711 1.046 41 0 0 0 88.547318
-2.3840001 1.783 1.02 32 0 0 0 88.562157
-2.0380001 1.447 1.079 43 0 0 0 88.577003
-2.1819999 1.494 1.059 44 0 0 0 88.591843
-2.3199999 1.5369999 1.0319999 39 0 0 0 88.606682
-2.48 1.586 1.003 33 0 0 0 88.621521
-2.118 1.3049999 1.072 35 0 0 0 88.63636
-2.26 1.331 1.0470001 36 0 0 0 88.422592
-2.4030001 1.358 1.0190001 31 0 0 0 88.437439
-2.572 1.39 0.991 33 0 0 0 88.452278
-2.1819999 1.156 1.061 36 0 0 0 88.467117
-2.323 1.165 1.034 38 0 0 0 88.481956
-2.461 1.17 1.002 40 0 0 0 88.496803
-2.6530001 1.192 0.98199999 35 0 0 0 88.511642
-2.2360001 1.005 1.05 39 0 0 0 88.526482
-2.3789999 0.99699998 1.023 39 0 0 0 88.541321
-2.5380001 0.995 1 33 0 0 0 88.55616
-2.7249999 0.99199998 0.97600001 28 0 0 0 88.571007
-2.296 0.85699999 1.045 35 0 0 0 88.585846
-2.6700001 -0.69800001 0.99699998 4 0 0 0 89.065651
-2.744 -0.85100001 0.972 44 0 0 0 89.080498
-2.5439999 -0.727 1.013 48 0 0 0 89.110176
-2.628 -0.88499999 1.002 44 0 0 0 89.125015
-2.6949999 -1.051 0.98199999 44 0 0 0 89.139854
-2.4530001 -0.74400002 1.031 47 0 0 0 89.154694
-2.513 -0.90600002 1.0190001 53 0 0 0 89.169533
-2.575 -1.071 1.007 49 0 0 0 89.18438
-2.6289999 -1.247 0.99199998 42 0 0 0 89.199219
-2.414 -0.91000003 1.029 54 0 0 0 89.214066
-2.474 -1.085 1.027 53 0 0 0 89.228905
-2.5109999 -1.2539999 1.0140001 42 0 0 0 89.243744
-2.5539999 -1.4400001 1.005 39 0 0 0 89.258583
-2.385 -1.0829999 1.036 44 0 0 0 89.273422
-2.4200001 -1.263 1.033 45 0 0 0 89.288261
-2.4449999 -1.4400001 1.025 44 0 0 0 89.303101
-2.4679999 -1.631 1.0190001 36 0 0 0 89.317955
-2.3380001 -1.255 1.04 38 0 0 0 89.332794
-2.3599999 -1.443 1.0420001 36 0 0 0 89.178406
-2.3699999 -1.625 1.038 33 0 0 0 89.193245
-2.3759999 -1.821 1.0369999 34 0 0 0 89.208092
-2.2850001 -1.4299999 1.0470001 34 0 0 0 89.222931
-2.2839999 -1.617 1.05 34 0 0 0 89.23777
-2.2750001 -1.801 1.049 32 0 0 0 89.252609
-2.257 -1.994 1.049 33 0 0 0 89.267448
-2.22 -1.604 1.054 30 0 0 0 89.282288
-2.2030001 -1.795 1.061 32 0 0 0 89.297134
-2.174 -1.979 1.063 29 0 0 0 89.311974
-2.142 -2.175 1.0700001 34 0 0 0 89.326813
-2.148 -1.7819999 1.064 31 0 0 0 89.34166
-2.112 -1.973 1.074 32 0 0 0 89.356499
-2.0680001 -2.158 1.082 29 0 0 0 89.371338
-2.0150001 -2.3499999 1.091 34 0 0 0 89.386177
-2.0739999 -1.97 1.079 31 0 0 0 89.401024
-2.013 -2.1530001 1.091 34 0 0 0 89.415863
-1.948 -2.3329999 1.101 32 0 0 0 89.430702
-1.874 -2.5179999 1.114 35 0 0 0 89.445541
-1.985 -2.1559999 1.094 33 0 0 0 89.460381
-1.904 -2.3340001 1.109 34 0 0 0 89.475227
-1.8279999 -2.5190001 1.128 31 0 0 0 89.490067
-1.726 -2.684 1.1390001 36 0 0 0 89.504906
-1.886 -2.349 1.114 33 0 0 0 89.519745
-1.789 -2.526 1.1339999 36 0 0 0 89.534592
-1.683 -2.6860001 1.149 36 0 0 0 89.549431
-1.571 -2.855 1.171 36 0 0 0 89.56427
-1.779 -2.553 1.138 35 0 0 0 89.579109
-1.654 -2.7060001 1.156 36 0 0 0 89.593948
-1.535 -2.8640001 1.178 33 0 0 0 89.608795
-1.395 -2.9979999 1.196 117 0 0 0 89.623634
-1.643 -2.737 1.155 33 0 0 0 89.638481
-1.513 -2.901 1.187 39 0 0 0 90.123917
-1.35 -2.99 1.1900001 119 0 0 0 90.138763
-1.141 -2.9619999 1.155 107 0 0 0 90.153603
-1.506 -2.948 1.183 38 0 0 0 90.168442
-1.307 -2.9809999 1.174 113 0 0 0 90.183281
-1.101 -2.9549999 1.145 101 0 0 0 90.19812
-0.90899998 -2.934 1.125 108 0 0 0 90.212959
-1.274 -2.9809999 1.146 95 0 0 0 90.227806
-1.062 -2.9549999 1.127 103 0 0 0 90.242645
-0.87 -2.9260001 1.108 108 0 0 0 90.257484
-0.69199997 -2.9100001 1.101 108 0 0 0 90.272331
-1.027 -2.951 1.092 106 0 0 0 90.28717
-0.833 -2.928 1.086 98 0 0 0 90.30201
-0.65499997 -2.902 1.08 122 0 0 0 90.316849
-0.48500001 -2.881 1.081 109 0 0 0 90.331688
-0.79699999 -2.924 1.048 102 0 0 0 90.346527
-0.61500001 -2.8989999 1.051 98 0 0 0 90.361374
-0.449 -2.878 1.058 113 0 0 0 90.376213
-0.28799999 -2.859 1.069 112 0 0 0 90.391052
-0.57700002 -2.895 1.0089999 98 0 0 0 90.405899
-0.40799999 -2.872 1.023 108 0 0 0 90.420738
-0.25 -2.8529999 1.039 119 0 0 0 90.435577
-0.097000003 -2.836 1.061 120 0 0 0 90.450417
-0.368 -2.8670001 0.97600001 106 0 0 0 90.465263
-0.208 -2.8499999 1.002 119 0 0 0 90.480103
-0.057999998 -2.8329999 1.027 121 0 0 0 90.494942
0.088 -2.8139999 1.058 121 0 0 0 90.509781
-0.16500001 -2.8469999 0.95200002 111 0 0 0 90.524628
-0.014 -2.8269999 0.98500001 124 0 0 0 90.539467
0.13 -2.8110001 1.0190001 120 0 0 0 90.554306
0.27200001 -2.7950001 1.059 127 0 0 0 90.569145
0.033 -2.8199999 0.93099999 110 0 0 0 90.583984
0.177 -2.806 0.97399998 120 0 0 0 90.354126
0.31600001 -2.7880001 1.015 123 0 0 0 90.368965
0.45300001 -2.77 1.062 127 0 0 0 90.383804
0.229 -2.8 0.917 119 0 0 0 90.398651
0.368 -2.7820001 0.96600002 118 0 0 0 90.41349
0.50199997 -2.766 1.016 126 0 0 0 90.428329
0.634 -2.737 1.067 139 0 0 0 90.443169
0.42500001 -2.7739999 0.90600002 121 0 0 0 90.458008
0.56 -2.763 0.96399999 122 0 0 0 90.472847
0.64399999 -2.562 0.95300001 141 0 0 0 90.487694
0.76999998 -2.5610001 1.018 123 0 0 0 90.502533
0.62300003 -2.753 0.89999998 122 0 0 0 90.51738
0.70499998 -2.566 0.90399998 126 0 0 0 90.532219
0.82499999 -2.553 0.96600002 119 0 0 0 90.547058
0.94400001 -2.533 1.031 131 0 0 0 90.561897
0.77200001 -2.5569999 0.84299999 127 0 0 0 90.576736
0.89099997 -2.546 0.91100001 119 0 0 0 90.591583
1.008 -2.529 0.977 134 0 0 0 90.606422
1.126 -2.5120001 1.052 114 0 0 0 90.621262
0.96799999 -2.54 0.84899998 110 0 0 0 90.636101
1.081 -2.52 0.92000002 115 0 0 0 90.650948
1.25 -2.615 1.0369999 150 0 0 0 90.665787
1.403 -2.6559999 1.149 112 0 0 0 90.680626
1.1670001 -2.5120001 0.85600001 113 0 0 0 90.695465
1.3660001 -2.6630001 0.99800003 107 0 0 0 90.710304
1.492 -2.651 1.085 113 0 0 0 90.725151
1.613 -2.6300001 1.179 104 0 0 0 90.73999
1.4680001 -2.6489999 0.926 129 0 0 0 90.754829
1.591 -2.6370001 1.0190001 115 0 0 0 90.769669
1.709 -2.6159999 1.1109999 114 0 0 0 90.784515
1.83 -2.595 1.2130001 100 0 0 0 90.799355
1.707 -2.6199999 0.94700003 115 0 0 0 90.814194
1.827 -2.6059999 1.046 116 0 0 0 90.709549
1.948 -2.5880001 1.147 116 0 0 0 90.724396
2.0669999 -2.566 1.257 110 0 0 0 90.739235
1.961 -2.585 0.972 104 0 0 0 90.754074
2.086 -2.5769999 1.082 111 0 0 0 90.768913
2.201 -2.5510001 1.188 114 0 0 0 90.78376
2.319 -2.529 1.307 112 0 0 0 90.798599
2.2360001 -2.549 1.007 116 0 0 0 90.813438
2.3529999 -2.53 1.12 115 0 0 0 90.828278
2.4779999 -2.5139999 1.239 110 0 0 0 90.843117
2.6029999 -2.4979999 1.37 104 0 0 0 90.857964
2.5420001 -2.5090001 1.051 111 0 0 0 90.872803
2.6700001 -2.4990001 1.177 107 0 0 0 90.88765
2.8 -2.4860001 1.307 107 0 0 0 90.902489
2.921 -2.4660001 1.447 100 0 0 0 90.917328
2.892 -2.4719999 1.11 104 0 0 0 90.932167
3.02 -2.46 1.245 100 0 0 0 90.947006
3.1489999 -2.4430001 1.3839999 99 0 0 0 90.961845
3.263 -2.4159999 1.53 96 0 0 0 90.976685
3.2850001 -2.4219999 1.1799999 85 0 0 0 90.991531
3.411 -2.4059999 1.325 89 0 0 0 91.006371
3.5350001 -2.3829999 1.471 80 0 0 0 91.021217
3.6630001 -2.3659999 1.6339999 71 0 0 0 91.036057
3.7449999 -2.3659999 1.271 76 0 0 0 91.050896
3.8829999 -2.3559999 1.431 79 0 0 0 91.065735
3.9960001 -2.3239999 1.586 88 0 0 0 91.080574
4.1290002 -2.3080001 1.763 80 0 0 0 91.095413
3.885 -2.0810001 1.256 32 0 0 0 91.110252
3.8659999 -1.993 1.3609999 66 0 0 0 91.125107
3.8380001 -1.901 1.459 63 0 0 0 91.139946
4.6820002 -2.237 1.921 75 0 0 0 91.154785
3.888 -1.734 1.204 65 0 0 0 91.169624
3.8659999 -1.665 1.307 65 0 0 0 91.866371
3.9779999 -1.651 1.457 27 0 0 0 91.88121
5.3530002 -2.151 2.1199999 71 0 0 0 91.896049
4.6269999 -1.678 1.383 18 0 0 0 91.910889
4.7309999 -1.659 1.546 1 0 0 0 91.925728
6.0970001 -2.0650001 2.1600001 55 0 0 0 91.940575
6.204 -2.0420001 2.3800001 62 0 0 0 91.955414
6.9390001 -1.962 2.013 37 0 0 0 91.970253
7.1009998 -1.95 2.2550001 37 0 0 0 91.9851
7.2340002 -1.924 2.4920001 38 0 0 0 91.999939
6.6700001 -1.733 2.49 22 0 0 0 92.014778
8.5159998 -1.762 2.4159999 39 0 0 0 92.029617
8.7049999 -1.7539999 2.7 37 0 0 0 92.044464
7.9499998 -1.553 2.674 15 0 0 0 92.059303
6.8940001 -1.323 2.5109999 16 0 0 0 92.074142
9.1490002 -1.215 2.55 142 0 0 0 92.088982
9.1149998 -1.184 2.7750001 131 0 0 0 92.103821
8.2550001 -1.045 2.723 14 0 0 0 92.118668
7.131 -0.90100002 2.5450001 18 0 0 0 92.133507
9.1599998 -0.55299997 2.5250001 23 0 0 0 92.148346
8.5030003 -0.50400001 2.763 15 0 0 0 92.178032
7.428 -0.45300001 2.6040001 16 0 0 0 92.192871
9.099 0.105 2.4920001 55 0 0 0 92.20771
9.0760002 0.088 2.7 49 0 0 0 92.222549
8.9940004 0.074000001 2.8889999 37 0 0 0 92.237389
7.585 0.028000001 2.622 15 0 0 0 92.252235
8.8430004 0.736 2.4219999 46 0 0 0 92.267075
8.8190002 0.699 2.6140001 54 0 0 0 92.281921
8.7749996 0.66100001 2.8 43 0 0 0 92.296761
7.7150002 0.53200001 2.6389999 13 0 0 0 92.3116
8.8339996 1.382 2.4319999 48 0 0 0 92.326439
8.7559996 1.313 2.598 52 0 0 0 92.180145
8.7019997 1.253 2.766 52 0 0 0 92.194984
7.8379998 1.057 2.6630001 15 0 0 0 92.209824
8.6300001 1.987 2.4030001 51 0 0 0 92.224663
8.6450005 1.915 2.5810001 51 0 0 0 92.239502
8.6719999 1.85 2.7620001 53 0 0 0 92.254341
7.8759999 1.589 2.668 13 0 0 0 92.26918
8.6420002 2.654 2.447 56 0 0 0 92.284035
8.5459995 2.5309999 2.5780001 44 0 0 0 92.298874
8.5299997 2.437 2.7320001 46 0 0 0 92.313713
7.8520002 2.132 2.6600001 13 0 0 0 92.328552
8.4580002 3.2739999 2.45 36 0 0 0 92.343391
8.4720001 3.1630001 2.599 47 0 0 0 92.358231
8.4980001 3.062 2.7509999 50 0 0 0 92.37307
7.783 2.6719999 2.6500001 13 0 0 0 92.387909
8.4209995 3.9679999 2.5120001 41 0 0 0 92.402756
8.4659996 3.8540001 2.654 50 0 0 0 92.417603
8.3400002 3.665 2.7420001 30 0 0 0 92.432442
7.6259999 3.198 2.619 11 0 0 0 92.447281
8.3369999 4.6810002 2.576 52 0 0 0 92.46212
8.3389997 4.5209999 2.6889999 51 0 0 0 92.476959
7.9239998 4.1430001 2.661 13 0 0 0 92.491798
7.4099998 3.7030001 2.5799999 9 0 0 0 92.506638
8.4519997 5.5650001 2.7260001 18 0 0 0 92.521484
7.9910002 5.0819998 2.6670001 11 0 0 0 92.536331
7.5089998 4.6079998 2.589 9 0 0 0 92.55117
7.1570001 4.198 2.539 10 0 0 0 92.56601
7.7950001 5.967 2.6429999 12 0 0 0 92.580849
7.3460002 5.4239998 2.5539999 10 0 0 0 92.595688
7.0359998 5.0079999 2.5079999 14 0 0 0 92.610527
6.8740001 4.677 2.4990001 11 0 0 0 92.625366
7.033 6.2150002 2.5280001 25 0 0 0 92.640205
6.7490001 5.7480001 2.464 12 0 0 0 92.411842
6.559 5.3839998 2.4330001 11 0 0 0 92.426682
6.4759998 5.079 2.428 12 0 0 0 92.441521
6.0780001 6.1869998 2.336 57 0 0 0 92.45636
6.1539998 6.0300002 2.3789999 15 0 0 0 92.471199
6.0240002 5.6799998 2.345 12 0 0 0 92.486038
6.0549998 5.4499998 2.358 11 0 0 0 92.500877
5.1849999 6.0770001 2.1530001 76 0 0 0 92.515732
5.4169998 6.0999999 2.24 79 0 0 0 92.530571
5.539 5.993 2.2820001 19 0 0 0 92.54541
5.6220002 5.8010001 2.293 12 0 0 0 92.560249
4.4190001 5.9840002 2.006 89 0 0 0 92.575089
4.6269999 6.007 2.0680001 90 0 0 0 92.589928
4.8569999 6.0450001 2.1400001 99 0 0 0 92.604767
5.1129999 6.0539999 2.2049999 64 0 0 0 92.619606
3.7490001 5.895 1.887 95 0 0 0 92.634445
3.938 5.9169998 1.928 101 0 0 0 92.6493
4.1430001 5.9510002 1.976 94 0 0 0 92.664139
4.3759999 5.9679999 2.02 89 0 0 0 92.678978
3.1500001 5.8109999 1.7869999 102 0 0 0 92.693817
3.326 5.8449998 1.812 109 0 0 0 92.708656
3.503 5.8639998 1.837 102 0 0 0 92.723495
3.7190001 5.888 1.8609999 99 0 0 0 92.738335
2.6170001 5.7519999 1.711 104 0 0 0 92.753181
2.773 5.7719998 1.715 117 0 0 0 92.768021
2.9389999 5.8010001 1.726 105 0 0 0 92.782867
3.1259999 5.8060002 1.726 101 0 0 0 92.797707
2.1270001 5.691 1.647 114 0 0 0 92.812546
2.273 5.7179999 1.6390001 129 0 0 0 92.827385
2.4189999 5.7309999 1.63 109 0 0 0 92.842224
2.5910001 5.7389998 1.615 100 0 0 0 92.857063
1.674 5.638 1.597 117 0 0 0 92.871902
1.808 5.6609998 1.575 120 0 0 0 92.415253
1.9400001 5.6659999 1.55 103 0 0 0 92.430099
2.1010001 5.684 1.522 107 0 0 0 92.444939
1.248 5.586 1.557 114 0 0 0 92.459778
1.369 5.6030002 1.5190001 115 0 0 0 92.474617
1.494 5.612 1.484 97 0 0 0 92.489456
1.64 5.6279998 1.442 108 0 0 0 92.504303
0.84399998 5.5419998 1.527 108 0 0 0 92.519142
0.95599997 5.5549998 1.477 109 0 0 0 92.533981
1.071 5.5630002 1.429 95 0 0 0 92.54882
1.205 5.5749998 1.374 106 0 0 0 92.563667
0.449 5.4229999 1.485 21 0 0 0 92.578506
0.55800003 5.5050001 1.442 103 0 0 0 92.593346
0.66500002 5.5170002 1.3839999 91 0 0 0 92.608185
0.69800001 4.8870001 1.165 21 0 0 0 92.623024
0.075000003 5.2150002 1.425 21 0 0 0 92.637871
0.171 5.3839998 1.397 150 0 0 0 92.65271
0.273 5.4689999 1.347 89 0 0 0 92.667549
0.38699999 5.4650002 1.268 79 0 0 0 92.682388
-0.26699999 4.9819999 1.365 15 0 0 0 92.697235
-0.19499999 5.2340002 1.351 97 0 0 0 92.712074
-0.106 5.2399998 1.274 84 0 0 0 92.726913
-0.0049999999 5.2529998 1.191 93 0 0 0 92.74176
-0.57700002 4.7259998 1.304 16 0 0 0 92.756599
-0.54299998 5.0840001 1.312 14 0 0 0 92.771439
-0.48800001 5.368 1.295 94 0 0 0 92.786278
-0.38699999 5.3309999 1.188 111 0 0 0 92.801117
-0.86299998 4.5079999 1.2589999 15 0 0 0 92.815964
-0.861 4.8559999 1.26 15 0 0 0 92.830803
-0.861 5.2940001 1.274 47 0 0 0 92.845642
-0.77700001 5.336 1.176 98 0 0 0 92.860481
-1.122 4.2729998 1.2130001 15 0 0 0 92.875328
-1.15 4.6059999 1.207 15 0 0 0 92.935593
-1.183 5.0139999 1.21 15 0 0 0 92.950432
-1.166 5.2919998 1.161 99 0 0 0 92.965279
-1.359 4.0450001 1.1720001 28 0 0 0 92.980118
-1.416 4.368 1.1619999 15 0 0 0 92.994957
-1.48 4.7420001 1.154 15 0 0 0 93.009804
-1.553 5.2179999 1.145 74 0 0 0 93.024643
-1.5829999 3.839 1.141 22 0 0 0 93.039482
-1.666 4.1409998 1.124 21 0 0 0 93.054321
-1.7589999 4.493 1.11 15 0 0 0 93.06916
-1.882 4.9679999 1.099 17 0 0 0 93.084
-1.7970001 3.6440001 1.1160001 30 0 0 0 93.098846
-1.901 3.9200001 1.092 29 0 0 0 93.113686
-2.0209999 4.25 1.071 22 0 0 0 93.128525
-2.1619999 4.6529999 1.044 17 0 0 0 93.143372
-1.977 3.4119999 1.0829999 35 0 0 0 93.158211
-2.1070001 3.677 1.057 30 0 0 0 93.17305
-2.256 3.9879999 1.033 27 0 0 0 93.187889
-2.434 4.3720002 1.003 18 0 0 0 93.202736
-2.1440001 3.191 1.0549999 33 0 0 0 93.217575
-2.299 3.4400001 1.027 31 0 0 0 93.232414
-2.474 3.73 1 34 0 0 0 93.247253
-2.675 4.073 0.96200001 17 0 0 0 93.262093
-2.3 2.974 1.03 33 0 0 0 93.276939
-2.47 3.1960001 0.99800003 33 0 0 0 93.291779
-2.661 3.4530001 0.96600002 30 0 0 0 93.306618
-2.902 3.7839999 0.92900002 17 0 0 0 93.321457
-2.4300001 2.7449999 1.003 36 0 0 0 93.336304
-2.6199999 2.948 0.97100002 34 0 0 0 93.351143
-2.845 3.1949999 0.94 29 0 0 0 93.365982
-3.109 3.49 0.89999998 16 0 0 0 93.380821
-2.5669999 2.5380001 0.986 35 0 0 0 93.39566
-2.7709999 2.717 0.95099998 35 0 0 0 93.968681
-3.0220001 2.944 0.92000002 37 0 0 0 93.983521
-3.313 3.21 0.87900001 40 0 0 0 93.99836
-2.678 2.319 0.96499997 33 0 0 0 94.013199
-2.905 2.4809999 0.93199998 38 0 0 0 94.028038
-3.154 2.664 0.89499998 35 0 0 0 94.042877
-3.4549999 2.8859999 0.84799999 34 0 0 0 94.057716
-2.79 2.1099999 0.949 35 0 0 0 94.072563
-3.006 2.2309999 0.90899998 33 0 0 0 94.08741
-3.2690001 2.3859999 0.87099999 31 0 0 0 94.102249
-3.569 2.563 0.82200003 34 0 0 0 94.117088
-2.885 1.896 0.93400002 38 0 0 0 94.131927
-3.125 2.0020001 0.89700001 41 0 0 0 94.146767
-3.391 2.1240001 0.85699999 32 0 0 0 94.161606
-3.6849999 2.2550001 0.80199999 31 0 0 0 94.176445
-2.97 1.683 0.92000002 34 0 0 0 94.191299
-3.201 1.755 0.87800002 31 0 0 0 94.206139
-3.493 1.857 0.84200001 34 0 0 0 94.220978
-3.793 1.954 0.787 34 0 0 0 94.235817
-3.052 1.473 0.90899998 32 0 0 0 94.250656
-3.29 1.521 0.86799997 28 0 0 0 94.265495
-3.566 1.5829999 0.82700002 31 0 0 0 94.280334
-3.8670001 1.645 0.77200001 21 0 0 0 94.295174
-3.1210001 1.261 0.898 28 0 0 0 94.310013
-3.3610001 1.283 0.85799998 33 0 0 0 94.324867
-3.651 1.3200001 0.81999999 30 0 0 0 94.339706
-3.961 1.352 0.76700002 26 0 0 0 94.354546
-3.1949999 1.052 0.89200002 25 0 0 0 94.369385
-3.427 1.046 0.85000002 31 0 0 0 94.384224
-3.6900001 1.046 0.80699998 21 0 0 0 94.399063
-4.0409999 -0.74299997 0.764 11 0 0 0 94.698349
-3.766 -0.829 0.80299997 40 0 0 0 94.742874
-3.974 -1.0319999 0.76800001 35 0 0 0 94.757713
-3.3929999 -0.71700001 0.86000001 37 0 0 0 94.77256
-3.5610001 -0.90499997 0.83700001 41 0 0 0 94.787399
-3.74 -1.104 0.81199998 38 0 0 0 94.802238
-3.8959999 -1.318 0.77499998 38 0 0 0 94.817078
-3.378 -0.95099998 0.86000001 38 0 0 0 94.831917
-3.5339999 -1.159 0.84299999 41 0 0 0 94.375061
-3.6889999 -1.375 0.81999999 39 0 0 0 94.3899
-3.829 -1.61 0.79000002 37 0 0 0 94.404747
-3.3659999 -1.193 0.86500001 39 0 0 0 94.419586
-3.483 -1.41 0.847 33 0 0 0 94.434433
-3.619 -1.646 0.829 41 0 0 0 94.449272
-3.7479999 -1.903 0.80599999 38 0 0 0 94.464111
-3.339 -1.439 0.87 37 0 0 0 94.478951
-3.441 -1.674 0.85799998 39 0 0 0 94.49379
-3.5409999 -1.918 0.84100002 35 0 0 0 94.508629
-3.6400001 -2.187 0.82200003 38 0 0 0 94.523476
-3.303 -1.692 0.87599999 36 0 0 0 94.538315
-3.368 -1.932 0.86500001 37 0 0 0 94.553154
-3.448 -2.1919999 0.85399997 35 0 0 0 94.568001
-3.5179999 -2.471 0.83999997 41 0 0 0 94.58284
-3.2449999 -1.9450001 0.88200003 37 0 0 0 94.597679
-3.303 -2.2079999 0.87900001 36 0 0 0 94.612518
-3.3469999 -2.4690001 0.87099999 35 0 0 0 94.627357
-3.388 -2.757 0.86299998 33 0 0 0 94.642197
-3.2 -2.221 0.89399999 35 0 0 0 94.657043
-3.2149999 -2.48 0.89300001 36 0 0 0 94.67189
-3.2409999 -2.7579999 0.89300001 34 0 0 0 94.686729
-3.2590001 -3.0599999 0.89300001 27 0 0 0 94.701569
-3.125 -2.494 0.90499997 34 0 0 0 94.716408
-3.1199999 -2.766 0.91100001 31 0 0 0 94.731247
-3.115 -3.0480001 0.91600001 28 0 0 0 94.746086
-2.9579999 -3.1960001 0.87900001 92 0 0 0 94.760925
-3.05 -2.789 0.921 32 0 0 0 94.775764
-3.0280001 -3.076 0.93699998 27 0 0 0 94.790611
-2.826 -3.1730001 0.89499998 100 0 0 0 94.805458
-2.526 -3.145 0.824 107 0 0 0 94.820297
-2.9779999 -3.115 0.94599998 31 0 0 0 94.835136
-2.7179999 -3.1670001 0.89999998 99 0 0 0 94.950218
-2.4159999 -3.1240001 0.833 102 0 0 0 94.965057
-2.148 -3.0929999 0.778 116 0 0 0 94.979897
-2.6289999 -3.1489999 0.88599998 92 0 0 0 94.994736
-2.3269999 -3.1170001 0.833 116 0 0 0 95.009583
-2.0569999 -3.075 0.78200001 125 0 0 0 95.024422
-1.814 -3.0439999 0.74000001 121 0 0 0 95.039261
-2.2539999 -3.105 0.815 120 0 0 0 95.054108
-1.98 -3.069 0.77600002 116 0 0 0 95.068947
-1.745 -3.0420001 0.74199998 111 0 0 0 95.083786
-1.528 -3.023 0.71499997 114 0 0 0 95.098625
-1.9170001 -3.0569999 0.75300002 125 0 0 0 95.113472
-1.679 -3.0369999 0.73199999 115 0 0 0 95.128311
-1.4630001 -3.01 0.70899999 110 0 0 0 95.14315
-1.26 -2.987 0.69199997 102 0 0 0 95.15799
-1.626 -3.0339999 0.70599997 114 0 0 0 95.172829
-1.401 -3.0009999 0.69300002 103 0 0 0 95.187675
-1.201 -2.9749999 0.68000001 113 0 0 0 95.202515
-1.016 -2.961 0.67500001 107 0 0 0 95.217354
-1.351 -2.9960001 0.662 92 0 0 0 95.232193
-1.148 -2.9749999 0.662 110 0 0 0 95.24704
-0.96200001 -2.9460001 0.65799999 106 0 0 0 95.261879
-0.78500003 -2.924 0.66000003 100 0 0 0 95.276718
-1.103 -2.971 0.62699997 101 0 0 0 95.291557
-0.91000003 -2.9419999 0.634 97 0 0 0 95.306396
-0.73699999 -2.918 0.63999999 106 0 0 0 95.321243
-0.56900001 -2.898 0.64899999 118 0 0 0 95.336082
-0.866 -2.9400001 0.59500003 92 0 0 0 95.350929
-0.68699998 -2.9159999 0.611 103 0 0 0 95.365768
-0.52499998 -2.8970001 0.62599999 103 0 0 0 95.380608
-0.366 -2.878 0.64399999 111 0 0 0 95.395447
-0.64399999 -2.9089999 0.56800002 116 0 0 0 95.410286
-0.477 -2.892 0.59299999 109 0 0 0 95.932632
-0.32100001 -2.8729999 0.61500001 107 0 0 0 95.947472
-0.168 -2.8510001 0.639 111 0 0 0 95.962311
-0.43200001 -2.8840001 0.546 109 0 0 0 95.97715
-0.27200001 -2.865 0.57700002 114 0 0 0 95.991997
-0.123 -2.8469999 0.60600001 130 0 0 0 96.006844
0.023 -2.8280001 0.63800001 121 0 0 0 96.021683
-0.228 -2.858 0.52700001 115 0 0 0 96.036522
-0.075000003 -2.8429999 0.565 117 0 0 0 96.051361
0.068000004 -2.822 0.60000002 115 0 0 0 96.0662
0.211 -2.809 0.63999999 135 0 0 0 96.081039
-0.028000001 -2.8340001 0.51099998 121 0 0 0 96.095879
0.118 -2.8180001 0.55599999 114 0 0 0 96.110718
0.259 -2.8039999 0.59799999 127 0 0 0 96.125565
0.39700001 -2.7820001 0.64300001 129 0 0 0 96.140411
0.167 -2.819 0.5 121 0 0 0 96.155251
0.31 -2.7969999 0.54900002 121 0 0 0 96.17009
0.447 -2.7809999 0.597 133 0 0 0 96.184929
0.583 -2.7590001 0.64899999 129 0 0 0 96.199768
0.36300001 -2.7920001 0.48899999 127 0 0 0 96.214607
0.50300002 -2.7780001 0.546 123 0 0 0 96.229454
0.63599998 -2.7539999 0.59799999 133 0 0 0 96.244293
0.72399998 -2.569 0.61699998 119 0 0 0 96.259132
0.56 -2.7709999 0.48100001 129 0 0 0 96.273979
0.69599998 -2.753 0.54400003 131 0 0 0 96.288818
0.77700001 -2.563 0.56599998 123 0 0 0 96.303658
0.90499997 -2.553 0.62900001 123 0 0 0 96.318497
0.71399999 -2.5829999 0.44800001 115 0 0 0 96.333336
0.838 -2.5599999 0.50999999 125 0 0 0 96.348175
0.96200001 -2.543 0.57200003 123 0 0 0 96.363022
1.0829999 -2.5150001 0.63800001 141 0 0 0 96.377861
0.903 -2.549 0.44299999 117 0 0 0 96.3927
1.03 -2.5380001 0.514 124 0 0 0 96.148918
1.152 -2.5179999 0.58099997 126 0 0 0 96.163757
1.359 -2.661 0.69700003 122 0 0 0 96.178612
1.101 -2.5250001 0.44400001 114 0 0 0 96.193451
1.227 -2.5120001 0.51899999 138 0 0 0 96.20829
1.438 -2.6570001 0.63099998 112 0 0 0 96.223129
1.575 -2.6400001 0.71799999 110 0 0 0 96.237968
1.392 -2.6630001 0.47600001 114 0 0 0 96.252808
1.529 -2.6500001 0.56199998 108 0 0 0 96.267647
1.661 -2.6300001 0.64700001 125 0 0 0 96.282494
1.794 -2.605 0.73900002 116 0 0 0 96.297333
1.628 -2.638 0.48199999 121 0 0 0 96.31218
1.7640001 -2.622 0.574 113 0 0 0 96.327019
1.898 -2.6010001 0.66600001 115 0 0 0 96.341858
2.036 -2.5799999 0.76700002 114 0 0 0 96.356697
1.874 -2.6029999 0.49000001 109 0 0 0 96.371536
2.0120001 -2.585 0.58899999 114 0 0 0 96.386375
2.154 -2.5680001 0.68900001 110 0 0 0 96.401215
2.2939999 -2.5469999 0.79900002 112 0 0 0 96.416061
2.1429999 -2.5680001 0.50300002 109 0 0 0 96.430901
2.2869999 -2.5539999 0.61000001 114 0 0 0 96.445747
2.4260001 -2.5280001 0.71600002 119 0 0 0 96.460587
2.5710001 -2.506 0.83399999 129 0 0 0 96.475426
2.437 -2.53 0.51999998 114 0 0 0 96.490265
2.5829999 -2.51 0.634 117 0 0 0 96.505104
2.73 -2.4879999 0.74900001 123 0 0 0 96.519951
2.882 -2.4660001 0.87699997 110 0 0 0 96.53479
2.7690001 -2.49 0.54299998 119 0 0 0 96.549629
2.927 -2.4749999 0.667 110 0 0 0 96.564468
3.089 -2.457 0.79400003 112 0 0 0 96.579315
3.2449999 -2.4300001 0.93199998 102 0 0 0 96.594154
3.1500001 -2.4489999 0.57300001 96 0 0 0 96.608994
3.3169999 -2.4319999 0.70700002 94 0 0 0 96.498291
3.4719999 -2.4000001 0.84200001 97 0 0 0 96.51313
3.6429999 -2.3770001 0.99400002 86 0 0 0 96.527969
3.579 -2.391 0.61000001 86 0 0 0 96.542809
3.7579999 -2.3740001 0.75599998 83 0 0 0 96.557648
3.9119999 -2.332 0.89999998 100 0 0 0 96.572495
4.0929999 -2.3069999 1.0650001 119 0 0 0 96.587334
4.0510001 -2.3039999 0.65200001 113 0 0 0 96.602173
4.0370002 -2.175 0.77100003 71 0 0 0 96.61702
4.006 -2.039 0.88 60 0 0 0 96.631859
3.99 -1.921 0.99400002 45 0 0 0 96.646698
3.99 -1.905 0.611 13 0 0 0 96.661537
3.8640001 -1.745 0.704 93 0 0 0 96.676376
5.1570001 -2.2 1.084 73 0 0 0 96.691216
5.256 -2.122 1.2589999 69 0 0 0 96.706062
4.3179998 -1.691 0.634 13 0 0 0 96.720901
4.9780002 -1.844 0.87099999 19 0 0 0 96.735741
6.0019999 -2.099 1.217 53 0 0 0 96.750587
6.2210002 -2.0569999 1.439 60 0 0 0 96.765427
6.5409999 -2.0350001 0.92699999 36 0 0 0 96.780266
5.3200002 -1.561 0.89999998 21 0 0 0 96.795105
7.1040001 -1.959 1.392 36 0 0 0 96.809952
7.3699999 -1.916 1.65 40 0 0 0 96.824791
7.5510001 -1.763 1.039 109 0 0 0 96.83963
7.5079999 -1.645 1.233 109 0 0 0 96.854469
7.4520001 -1.524 1.418 113 0 0 0 96.869308
7.5139999 -1.443 1.635 21 0 0 0 96.884155
8.5010004 -1.351 1.145 37 0 0 0 96.898994
8.5380001 -1.2589999 1.37 105 0 0 0 96.913834
8.5410004 -1.153 1.584 124 0 0 0 96.928673
9.2340002 -1.156 1.956 137 0 0 0 96.94352
9.1850004 -0.78500003 1.216 80 0 0 0 96.958359
9.3520002 -0.71499997 1.47 10 0 0 0 96.9189
9.3059998 -0.62300003 1.6900001 8 0 0 0 96.933739
9.2729998 -0.55400002 1.92 6 0 0 0 96.948578
9.3170004 -0.126 1.222 12 0 0 0 96.963417
9.2709999 -0.066 1.438 13 0 0 0 96.978256
9.2150002 0.001 1.646 15 0 0 0 96.993103
9.1999998 0.052999999 1.865 14 0 0 0 97.007942
9.0740004 0.53399998 1.1849999 52 0 0 0 97.022781
9.0419998 0.57099998 1.387 47 0 0 0 97.037621
8.9379997 0.61000001 1.573 48 0 0 0 97.052467
8.9440002 0.63700002 1.7819999 47 0 0 0 97.067307
