# .PCD v0.7 - Point Cloud Data file format
VERSION 0.7
FIELDS x y z intensity normal_x normal_y normal_z curvature
SIZE 4 4 4 4 4 4 4 4
TYPE F F F F F F F F
COUNT 1 1 1 1 1 1 1 1
WIDTH 938
HEIGHT 1
VIEWPOINT 0 0 0 1 0 0 0
POINTS 938
DATA ascii
11.015175 -27.374754 14.150482 10 0 0 0 66.775299
2.2782867 -3.408874 -0.46317929 611 0 0 0 66.775299
13.515316 -25.629187 17.078009 8 0 0 0 66.775299
1.6241267 -3.9145758 -0.17120756 646 0 0 0 66.775299
3.2035999 -4.8016481 0.1785806 434 0 0 0 66.775299
2.0355277 -3.8058581 -0.22460775 554 0 0 0 66.775299
4.3444118 -8.1366978 1.7440817 133 0 0 0 66.775299
4.0606093 -7.647182 3.4967952 111 0 0 0 66.775299
2.8191025 -4.2218528 -0.085448183 492 0 0 0 66.775299
3.2414892 -4.8566203 0.46600607 317 0 0 0 66.775299
10.576975 -26.540155 15.524013 12 0 0 0 66.775299
4.3846335 -8.2189245 2.2371747 98 0 0 0 66.775299
2.5736167 -4.8111796 0.23713568 439 0 0 0 66.775299
2.6553562 -4.9680824 0.51774216 378 0 0 0 66.775299
3.8833027 -4.7402353 0.11390162 388 0 0 0 66.775299
3.4182351 -8.2762718 1.8168262 65 0 0 0 66.775299
2.119401 -5.1101804 0.57978624 266 0 0 0 66.775299
1.8004917 -4.3385262 0.036994953 621 0 0 0 66.775299
3.9860203 -4.8657875 0.42686963 160 0 0 0 66.775299
4.9426351 -12.057837 4.0025759 21 0 0 0 66.775299
2.3002992 -4.30235 -0.021395393 546 0 0 0 66.775299
3.4393382 -4.1975751 -0.16083916 410 0 0 0 66.775299
2.7209039 -3.3111076 -0.54257578 594 0 0 0 66.775299
7.8727589 -9.5925722 2.0394614 26 0 0 0 66.775299
10.249193 -25.96826 17.065031 14 0 0 0 66.775299
2.0231006 -4.8736386 0.29473391 370 0 0 0 66.775299
2.516892 -3.7675734 -0.29215673 563 0 0 0 66.775299
3.3896523 -4.1890612 -0.15945332 401 0 0 0 66.862335
7.877748 -9.7197104 2.0559113 10 0 0 0 66.862335
11.218894 -28.166243 12.70869 7 0 0 0 66.862335
13.349857 -25.696337 17.067863 5 0 0 0 66.862335
2.0895107 -5.1267738 0.58017939 328 0 0 0 66.862335
10.823117 -27.381435 14.119394 6 0 0 0 66.862335
1.596297 -3.9152224 -0.17071557 566 0 0 0 66.862335
3.1968234 -4.8539276 0.46401453 318 0 0 0 66.862335
3.1597896 -4.7995019 0.17793629 392 0 0 0 66.862335
4.2279272 -8.0642624 3.1611335 82 0 0 0 66.862335
4.8614039 -12.070194 3.9967415 32 0 0 0 66.862335
2.5333259 -4.8065505 0.23628485 410 0 0 0 66.862335
4.2650423 -8.1211996 2.6851227 53 0 0 0 66.862335
4.0230799 -7.6900463 3.5049794 94 0 0 0 66.862335
3.83215 -4.7367511 0.11345569 380 0 0 0 66.862335
1.9825754 -4.860074 0.29335636 404 0 0 0 66.862335
4.3064961 -8.1931362 2.2231107 137 0 0 0 66.862335
7.1880083 -10.900405 2.9584346 59 0 0 0 66.862335
3.9052837 -4.8272705 0.42182595 261 0 0 0 66.862335
2.4843998 -3.7687869 -0.29092053 605 0 0 0 66.862335
2.9824851 -3.6824529 -0.36852163 565 0 0 0 66.862335
10.073614 -25.989277 17.037939 10 0 0 0 66.862335
2.0088778 -3.8120959 -0.22418284 525 0 0 0 66.862335
2.2705932 -4.3101916 -0.021312317 525 0 0 0 66.862335
2.6861918 -3.3100305 -0.53947818 632 0 0 0 66.862335
4.279294 -8.1344891 1.7380567 78 0 0 0 66.862335
2.2513194 -3.4136727 -0.46184063 664 0 0 0 66.862335
2.7859969 -4.2282166 -0.085135102 490 0 0 0 66.862335
2.6225002 -4.9798746 0.51731426 341 0 0 0 66.862335
10.406556 -26.58573 15.513044 7 0 0 0 66.862335
1.7711881 -4.3430128 0.036993731 573 0 0 0 66.862335
3.3766186 -8.3198032 1.8217163 103 0 0 0 66.862335
7.133759 -10.963935 2.9636865 52 0 0 0 66.970879
2.2216735 -3.4141085 -0.45989349 633 0 0 0 66.970879
3.3352153 -4.1738467 -0.15777573 407 0 0 0 66.970879
4.1886406 -8.096034 2.6684334 159 0 0 0 66.970879
4.2172046 -8.1442366 2.203052 120 0 0 0 66.970879
4.189651 -8.1118946 3.169594 61 0 0 0 66.970879
2.44927 -3.7655632 -0.2893208 615 0 0 0 66.970879
10.637598 -27.402767 14.096511 11 0 0 0 66.970879
2.5739923 -4.9613853 0.51397616 456 0 0 0 66.970879
1.5659149 -3.9091876 -0.1698792 606 0 0 0 66.970879
4.2130103 -8.1291704 1.7314838 88 0 0 0 66.970879
2.2353473 -4.3071818 -0.021086825 503 0 0 0 66.970879
3.1582885 -4.8600702 0.46283439 241 0 0 0 66.970879
2.754009 -4.2360106 -0.084870189 419 0 0 0 66.970879
1.9437824 -4.8499041 0.29217559 399 0 0 0 66.970879
3.7892942 -4.74298 0.1131754 339 0 0 0 66.970879
9.8966455 -26.005129 17.00824 16 0 0 0 66.970879
3.8587842 -4.8300772 0.42014471 224 0 0 0 66.970879
2.4996393 -4.814023 0.23595192 465 0 0 0 66.970879
1.984529 -3.8225789 -0.22406144 518 0 0 0 66.970879
2.659023 -3.3179383 -0.53799671 554 0 0 0 66.970879
1.7325791 -4.3241048 0.036988147 465 0 0 0 66.970879
2.9511309 -3.6897833 -0.36732337 575 0 0 0 66.970879
4.7625985 -12.037544 3.9763222 57 0 0 0 66.970879
3.9915574 -7.7451124 3.518744 87 0 0 0 66.970879
3.3327782 -8.3585806 1.8256284 95 0 0 0 66.970879
2.0598671 -5.1441159 0.58067077 397 0 0 0 66.970879
7.8179607 -9.7678642 2.0559113 13 0 0 0 66.970879
3.1057835 -4.7810683 0.17682114 384 0 0 0 66.970879
10.442263 -27.396727 14.060242 16 0 0 0 67.056892
2.6183467 -3.3085306 -0.53355235 566 0 0 0 67.056892
1.9583083 -3.8293526 -0.22369725 507 0 0 0 67.056892
2.1899638 -3.4109678 -0.45745957 627 0 0 0 67.056892
12.993561 -25.778961 17.015617 9 0 0 0 67.056892
2.9160979 -3.6921735 -0.36561155 563 0 0 0 67.056892
7.0758381 -11.022282 2.9676254 35 0 0 0 67.056892
2.5385118 -4.9673276 0.5130347 478 0 0 0 67.056892
3.1181848 -4.8634038 0.46143293 277 0 0 0 67.056892
3.2914531 -8.4044361 1.8311054 22 0 0 0 67.056892
3.7514572 -4.7551451 0.11299703 359 0 0 0 67.056892
10.082318 -26.718834 15.517337 7 0 0 0 67.056892
2.0304542 -5.1622133 0.58126044 439 0 0 0 67.056892
1.9088552 -4.8487325 0.29148683 464 0 0 0 67.056892
2.4142737 -3.7620509 -0.28772104 623 0 0 0 67.056892
13.400013 -26.516068 15.543608 6 0 0 0 67.056892
3.2823308 -4.1596937 -0.15617108 425 0 0 0 67.056892
4.1805425 -8.2175074 3.2005074 28 0 0 0 67.056892
2.4627695 -4.8150368 0.23536003 504 0 0 0 67.056892
4.1547699 -8.1456909 2.1965964 126 0 0 0 67.056892
3.0596726 -4.7739396 0.17605293 455 0 0 0 67.056892
4.6813664 -12.047819 3.9701965 57 0 0 0 67.056892
3.8018978 -4.8191681 0.41740492 241 0 0 0 67.056892
1.7001417 -4.3197708 0.036985353 526 0 0 0 67.056892
3.9864085 -7.8530483 3.5563178 82 0 0 0 67.056892
4.1393218 -8.1224375 2.6687117 133 0 0 0 67.056892
7.7970381 -9.8652296 2.0661328 8 0 0 0 67.056892
2.713398 -4.2301054 -0.08421994 439 0 0 0 67.056892
10.871744 -28.300072 12.707918 9 0 0 0 67.056892
2.1997688 -4.3030124 -0.020849466 501 0 0 0 67.056892
4.1420345 -8.1137133 1.7229027 88 0 0 0 67.056892
9.7147818 -26.006199 16.969687 9 0 0 0 67.056892
1.5378666 -3.9085023 -0.16933802 579 0 0 0 67.056892
4.0577126 -8.0704651 1.7086614 93 0 0 0 67.165955
4.6032596 -12.065594 3.966696 62 0 0 0 67.165955
2.1573148 -3.4058897 -0.45478228 646 0 0 0 67.165955
3.6663377 -4.706255 0.11183764 452 0 0 0 67.165955
3.0680339 -4.8504133 0.45863003 215 0 0 0 67.165955
4.0876818 -8.1442499 2.667599 138 0 0 0 67.165955
1.5080814 -3.9029639 -0.16855085 675 0 0 0 67.165955
2.5035036 -4.9739113 0.51217878 534 0 0 0 67.165955
12.822111 -25.831957 16.998371 10 0 0 0 67.165955
1.6674616 -4.31427 0.036982387 518 0 0 0 67.165955
4.1020894 -8.1658144 2.1952131 93 0 0 0 67.165955
3.0143008 -4.767271 0.17530949 386 0 0 0 67.165955
1.994071 -5.1625104 0.57998282 279 0 0 0 67.165955
4.0108089 -8.0226431 3.6214204 26 0 0 0 67.165955
9.5406265 -26.026052 16.944157 10 0 0 0 67.165955
13.227582 -26.578745 15.532496 7 0 0 0 67.165955
9.9096336 -26.757116 15.503984 8 0 0 0 67.165955
1.9320792 -3.8359485 -0.22333305 497 0 0 0 67.165955
2.8744147 -3.6856256 -0.36295822 559 0 0 0 67.165955
2.1647758 -4.2994623 -0.020623975 460 0 0 0 67.165955
2.4286804 -4.8211336 0.23499011 468 0 0 0 67.165955
7.0200796 -11.084452 2.9726582 51 0 0 0 67.165955
10.236019 -27.358915 14.00843 13 0 0 0 67.165955
3.2395642 -4.15767 -0.15514994 470 0 0 0 67.165955
3.743453 -4.8053808 0.4144783 209 0 0 0 67.165955
1.8740157 -4.8473153 0.29079804 438 0 0 0 67.165955
2.5766683 -3.2971869 -0.52883863 630 0 0 0 67.165955
2.3836792 -3.7649941 -0.28670302 660 0 0 0 67.165955
7.7624645 -9.9463577 2.0730002 12 0 0 0 67.165955
2.671895 -4.2221723 -0.083521523 459 0 0 0 67.165955
2.6390588 -4.2274609 -0.083208442 430 0 0 0 67.254013
7.7247791 -10.024302 2.0792289 13 0 0 0 67.254013
2.4698381 -4.9829311 0.51157963 557 0 0 0 67.254013
9.1723032 -25.844408 18.751894 4 0 0 0 67.254013
3.18051 -4.1338811 -0.15314414 505 0 0 0 67.254013
1.4794878 -3.9000082 -0.16791126 625 0 0 0 67.254013
1.6345577 -4.3075967 0.036979243 518 0 0 0 67.254013
3.6944418 -4.8029318 0.41248575 252 0 0 0 67.254013
12.642174 -25.866787 16.969967 12 0 0 0 67.254013
2.1153486 -3.3853855 -0.44991443 600 0 0 0 67.254013
1.8127322 -3.6580205 0.58520347 2 0 0 0 67.254013
2.1321321 -4.3001242 -0.020457823 476 0 0 0 67.254013
4.5261178 -12.085551 3.9640708 45 0 0 0 67.254013
13.411932 -27.284338 14.009375 9 0 0 0 67.254013
1.9581144 -5.1634855 0.57880348 247 0 0 0 67.254013
3.9915338 -8.0617313 1.7017235 134 0 0 0 67.254013
4.0614023 -8.2100163 2.2002852 92 0 0 0 67.254013
1.8346485 -4.833518 0.28946969 392 0 0 0 67.254013
1.9040679 -3.8387907 -0.22272605 559 0 0 0 67.254013
13.052547 -26.63553 15.518607 6 0 0 0 67.254013
2.0464742 -5.4102521 0.89246064 49 0 0 0 67.254013
2.9559052 -4.739018 0.17394653 436 0 0 0 67.254013
2.5430877 -3.2956634 -0.52587569 706 0 0 0 67.254013
4.0410385 -8.1760664 2.6698244 109 0 0 0 67.254013
2.3515556 -3.765166 -0.28546685 623 0 0 0 67.254013
6.9581375 -11.137248 2.9752841 31 0 0 0 67.254013
3.0297709 -4.8556075 0.45744988 248 0 0 0 67.254013
9.734457 -26.787678 15.486818 13 0 0 0 67.254013
3.9931734 -8.0935192 3.1334743 13 0 0 0 67.254013
3.9721701 -8.0687523 3.6310928 7 0 0 0 67.254013
2.843245 -3.6921344 -0.36175996 503 0 0 0 67.254013
2.3875003 -4.8126726 0.23402829 437 0 0 0 67.254013
9.3634148 -26.035913 16.912895 7 0 0 0 67.254013
3.6239908 -4.7112174 0.11155735 424 0 0 0 67.254013
2.1021953 -4.3059382 -0.02036288 484 0 0 0 67.361023
1.4499391 -3.894042 -0.16712409 610 0 0 0 67.361023
2.8121042 -3.6984 -0.36056167 533 0 0 0 67.361023
9.185874 -26.042973 16.880594 5 0 0 0 67.361023
9.8490543 -27.342453 13.937187 10 0 0 0 67.361023
4.0160213 -8.2525253 2.6865134 92 0 0 0 67.361023
2.9899924 -4.8579674 0.45604843 291 0 0 0 67.361023
4.0058355 -8.2242851 2.1975186 80 0 0 0 67.361023
7.7188268 -10.12637 2.7438827 32 0 0 0 67.361023
2.0004773 -5.3884068 0.88701719 151 0 0 0 67.361023
2.5837283 -4.1958957 -0.081859782 530 0 0 0 67.361023
3.6582675 -4.8167629 0.4118008 226 0 0 0 67.361023
2.4409659 -5.0015731 0.511922 549 0 0 0 67.361023
2.311677 -3.752346 -0.28313991 599 0 0 0 67.361023
6.9019537 -11.199671 2.980536 45 0 0 0 67.361023
9.5625257 -26.826206 15.474896 15 0 0 0 67.361023
12.479282 -25.682604 9.8540249 4 0 0 0 67.361023
2.343883 -4.7985015 0.23284453 366 0 0 0 67.361023
7.7001705 -10.120232 2.0891309 11 0 0 0 67.361023
3.5817218 -4.7158375 0.11127706 481 0 0 0 67.361023
2.510823 -3.2954299 -0.52318215 668 0 0 0 67.361023
1.6028483 -4.303493 0.036976624 541 0 0 0 67.361023
12.446223 -25.866991 16.91975 11 0 0 0 67.361023
1.9378734 -5.206172 0.58204663 320 0 0 0 67.361023
4.4469237 -12.09963 3.9596951 34 0 0 0 67.361023
13.234371 -27.345675 13.998928 14 0 0 0 67.361023
4.6963987 -7.5960865 3.4801271 50 0 0 0 67.361023
3.9437168 -8.0896063 1.7024537 76 0 0 0 67.361023
1.7920272 -4.8100643 0.28764933 384 0 0 0 67.361023
1.8725879 -3.8342597 -0.22163345 575 0 0 0 67.361023
3.1345527 -4.1262469 -0.15190418 521 0 0 0 67.361023
2.9131567 -4.7349248 0.17330222 409 0 0 0 67.361023
1.4194885 -3.8850472 -0.16618931 552 0 0 0 67.450882
3.583178 -4.7784023 0.40706843 305 0 0 0 67.450882
2.2746329 -3.7434423 -0.2811766 552 0 0 0 67.450882
10.01042 -28.099525 12.50416 3 0 0 0 67.450882
1.5733155 -4.3047962 0.036975056 482 0 0 0 67.450882
1.9076029 -5.2226372 0.58253801 309 0 0 0 67.450882
4.3696752 -12.118591 3.9570699 41 0 0 0 67.450882
4.5962987 -7.5371566 3.4404559 128 0 0 0 67.450882
3.8876224 -8.1003571 1.6997151 102 0 0 0 67.450882
1.8390716 -3.8249903 -0.22023734 548 0 0 0 67.450882
2.8716071 -4.7321959 0.17270747 390 0 0 0 67.450882
9.667572 -27.364103 13.917758 8 0 0 0 67.450882
2.0688002 -4.304338 -0.020172993 539 0 0 0 67.450882
7.6700683 -10.19152 2.7486763 45 0 0 0 67.450882
2.9580588 -4.8728118 0.45575339 330 0 0 0 67.450882
3.543129 -4.7249198 0.11107321 455 0 0 0 67.450882
12.273252 -25.913277 16.900475 11 0 0 0 67.450882
12.680211 -26.700026 15.464437 7 0 0 0 67.450882
7.6693401 -10.20913 2.0975955 13 0 0 0 67.450882
13.037414 -27.365671 13.968006 12 0 0 0 67.450882
2.7821887 -3.7060173 -0.35953459 507 0 0 0 67.450882
2.552747 -4.203124 -0.08161895 529 0 0 0 67.450882
2.4780624 -3.2941329 -0.52035391 510 0 0 0 67.450882
2.4106624 -5.017354 0.51200759 416 0 0 0 67.450882
3.0918047 -4.1222048 -0.15084657 461 0 0 0 67.450882
1.7562933 -4.8040891 0.28676376 393 0 0 0 67.450882
2.3026965 -4.7884798 0.23184574 390 0 0 0 67.450882
4.0084829 -8.3670969 2.7154415 35 0 0 0 67.450882
3.9064779 -8.1469383 2.1707737 108 0 0 0 67.450882
6.8422251 -11.25682 2.9844749 46 0 0 0 67.450882
1.9650025 -5.3940759 0.8859874 201 0 0 0 67.450882
3.833981 -8.1232395 2.1583235 201 0 0 0 67.554817
9.4912176 -27.399044 13.905668 16 0 0 0 67.554817
12.499628 -26.741997 15.444066 10 0 0 0 67.554817
4.2901273 -12.130748 3.9524026 51 0 0 0 67.554817
1.7223899 -4.8025565 0.2861242 416 0 0 0 67.554817
12.848425 -27.400736 13.945441 13 0 0 0 67.554817
2.5186937 -4.2049842 -0.081233621 496 0 0 0 67.554817
7.6184683 -10.25331 2.7526364 60 0 0 0 67.554817
2.3781264 -5.0284491 0.51166523 453 0 0 0 67.554817
3.827764 -8.1027241 1.6953332 78 0 0 0 67.554817
12.137397 -25.77906 9.8331995 7 0 0 0 67.554817
6.7820549 -11.313656 2.9884136 41 0 0 0 67.554817
3.0557597 -4.1266336 -0.15019011 498 0 0 0 67.554817
4.5216103 -7.5180554 3.4191778 157 0 0 0 67.554817
3.5057487 -4.7353144 0.11089484 417 0 0 0 67.554817
2.0303698 -4.2916455 -0.019840689 525 0 0 0 67.554817
9.2078047 -26.869194 15.433411 7 0 0 0 67.554817
3.5520108 -4.7978907 0.40688163 310 0 0 0 67.554817
2.2664273 -4.7880688 0.23125386 362 0 0 0 67.554817
2.9229836 -4.8823128 0.45501578 307 0 0 0 67.554817
1.3915685 -3.8824053 -0.16559894 590 0 0 0 67.554817
1.924531 -5.3855453 0.88275075 196 0 0 0 67.554817
13.199624 -28.098524 12.468704 11 0 0 0 67.554817
9.7875938 -28.016724 12.440485 6 0 0 0 67.554817
1.8117218 -3.828084 -0.21969104 631 0 0 0 67.554817
1.8768669 -5.2379899 0.58293116 304 0 0 0 67.554817
2.4560332 -3.3068879 -0.51994985 539 0 0 0 67.554817
2.8353324 -4.7377157 0.17236054 406 0 0 0 67.554817
2.7505078 -3.7110045 -0.35825074 462 0 0 0 67.554817
1.5448422 -4.308723 0.036974009 514 0 0 0 67.554817
7.6382957 -10.298822 2.1062198 12 0 0 0 67.554817
8.8488712 -26.104429 16.848812 13 0 0 0 67.554817
2.250596 -3.7556174 -0.28103116 649 0 0 0 67.554817
12.089259 -25.934982 16.865982 10 0 0 0 67.554817
12.293448 -26.727196 15.391748 6 0 0 0 67.648254
2.2067168 -3.7341456 -0.2780498 502 0 0 0 67.648254
1.786512 -3.8355095 -0.21944824 524 0 0 0 67.648254
2.7996066 -4.7438297 0.17203838 422 0 0 0 67.648254
3.7914464 -8.1624956 2.1624737 175 0 0 0 67.648254
3.767194 -8.1028795 1.6905862 98 0 0 0 67.648254
1.6862468 -4.7941957 0.28514022 387 0 0 0 67.648254
6.7298841 -11.384458 2.9960725 24 0 0 0 67.648254
4.4159365 -7.4453716 3.3740966 164 0 0 0 67.648254
12.675488 -27.469156 13.940427 7 0 0 0 67.648254
4.2096539 -12.139674 3.9468601 57 0 0 0 67.648254
1.8476675 -5.2578554 0.58381563 438 0 0 0 67.648254
11.896837 -25.936607 16.819317 15 0 0 0 67.648254
1.5140523 -4.3058605 0.03697174 500 0 0 0 67.648254
2.4298449 -3.3138988 -0.51860309 545 0 0 0 67.648254
3.4607115 -4.7349286 0.11055084 413 0 0 0 67.648254
13.016059 -28.155396 12.458287 12 0 0 0 67.648254
2.2306721 -4.7882991 0.23069897 407 0 0 0 67.648254
9.0310068 -26.890192 15.413383 7 0 0 0 67.648254
4.3900256 -7.4105411 2.8748465 108 0 0 0 67.648254
1.3657275 -3.8852191 -0.16530375 507 0 0 0 67.648254
8.6783018 -26.127453 16.829014 13 0 0 0 67.648254
9.3246622 -27.461889 13.908258 9 0 0 0 67.648254
2.4806483 -4.1996975 -0.080655627 499 0 0 0 67.648254
7.6093526 -10.3925 2.1156425 11 0 0 0 67.648254
1.9947073 -4.2840829 -0.019579593 528 0 0 0 67.648254
2.71417 -3.709306 -0.35628214 475 0 0 0 67.648254
7.5796971 -10.332993 2.7613902 56 0 0 0 67.648254
1.8858773 -5.3813877 0.88024974 164 0 0 0 67.648254
2.8889167 -4.8932848 0.45442569 323 0 0 0 67.648254
3.501323 -4.7905726 0.40463999 362 0 0 0 67.648254
2.34218 -5.0321083 0.51063812 532 0 0 0 67.648254
3.0203664 -4.1315832 -0.14957014 479 0 0 0 67.648254
2.3058631 -5.0346103 0.50952548 391 0 0 0 67.751167
2.9873643 -4.1394973 -0.14909604 486 0 0 0 67.751167
12.360208 -27.223799 13.777459 6 0 0 0 67.751167
7.5402346 -10.412584 2.770144 56 0 0 0 67.751167
4.3626375 -7.459444 3.3683262 185 0 0 0 67.751167
5.439095 -11.90976 3.8202651 16 0 0 0 67.751167
1.811148 -5.256865 0.58253801 320 0 0 0 67.751167
8.5080481 -26.150181 16.809736 11 0 0 0 67.751167
4.1280003 -12.144449 3.940151 55 0 0 0 67.751167
11.725415 -25.98241 16.802071 8 0 0 0 67.751167
7.5708756 -10.474204 2.1226697 7 0 0 0 67.751167
1.4797614 -4.292387 0.036967549 567 0 0 0 67.751167
2.4007623 -3.3166969 -0.51658291 519 0 0 0 67.751167
2.6721301 -3.6992204 -0.35345763 513 0 0 0 67.751167
1.3389254 -3.8850303 -0.16486096 542 0 0 0 67.751167
12.816918 -28.177277 12.43299 7 0 0 0 67.751167
3.4099665 -4.7260561 0.11007944 374 0 0 0 67.751167
2.1924999 -4.7828217 0.22992213 408 0 0 0 67.751167
8.85952 -26.925898 15.402415 13 0 0 0 67.751167
3.4485257 -4.7795753 0.40214926 419 0 0 0 67.751167
4.3325033 -7.4168396 2.8670008 164 0 0 0 67.751167
2.8523178 -4.8997126 0.4534668 325 0 0 0 67.751167
3.7063577 -8.1017036 1.6856565 137 0 0 0 67.751167
12.109851 -26.759327 15.36721 11 0 0 0 67.751167
2.4487977 -4.2044716 -0.080366626 533 0 0 0 67.751167
1.9612982 -4.2807894 -0.019377839 540 0 0 0 67.751167
3.743314 -8.1900311 2.1636264 237 0 0 0 67.751167
2.1847665 -3.7493393 -0.27819523 587 0 0 0 67.751167
9.1545591 -27.514309 13.9061 12 0 0 0 67.751167
1.7558692 -3.830976 -0.21841633 582 0 0 0 67.751167
1.8489574 -5.3816352 0.87848431 187 0 0 0 67.751167
1.6522293 -4.7912364 0.28445145 396 0 0 0 67.751167
2.764415 -4.7505484 0.17174101 419 0 0 0 67.751167
6.670712 -11.444084 3.0008867 10 0 0 0 67.751167
3.7093575 -8.2492285 2.1730793 149 0 0 0 67.845375
11.881618 -26.689804 15.285261 5 0 0 0 67.845375
2.1532459 -4.7743239 0.2290343 403 0 0 0 67.845375
1.4524331 -4.2985444 0.036967028 502 0 0 0 67.845375
2.9480083 -4.1382046 -0.14822078 448 0 0 0 67.845375
12.625585 -28.214722 12.415133 14 0 0 0 67.845375
2.1562576 -3.7531598 -0.27739537 514 0 0 0 67.845375
11.546185 -26.009758 16.773664 6 0 0 0 67.845375
2.369436 -3.3160362 -0.51402402 529 0 0 0 67.845375
2.4125042 -4.2012091 -0.079860881 483 0 0 0 67.845375
2.8137643 -4.9024162 0.45221287 354 0 0 0 67.845375
4.7886729 -8.3384171 1.695892 32 0 0 0 67.845375
3.3617795 -4.7200003 0.10965901 401 0 0 0 67.845375
2.6355164 -3.6960652 -0.35140347 486 0 0 0 67.845375
1.3121771 -3.8846591 -0.16441818 532 0 0 0 67.845375
2.7262633 -4.751811 0.17129494 426 0 0 0 67.845375
1.8124222 -5.3825703 0.87686598 208 0 0 0 67.845375
5.371428 -11.955175 3.8241591 45 0 0 0 67.845375
6.6052284 -11.49326 3.0030749 8 0 0 0 67.845375
8.9844437 -27.566532 13.904373 16 0 0 0 67.845375
4.3181825 -7.4884963 3.3694081 210 0 0 0 67.845375
4.3466039 -7.5469632 2.906543 95 0 0 0 67.845375
2.276566 -5.0522971 0.50986785 395 0 0 0 67.845375
1.618953 -4.7899327 0.28386107 355 0 0 0 67.845375
1.9308832 -4.2836285 -0.019259159 510 0 0 0 67.845375
12.168106 -27.243551 13.749462 16 0 0 0 67.845375
7.4887094 -10.476163 2.7747293 50 0 0 0 67.845375
3.6703014 -8.1547747 1.6918643 89 0 0 0 67.845375
4.0443287 -12.142327 3.9313998 50 0 0 0 67.845375
3.4104571 -4.788445 0.40121526 337 0 0 0 67.845375
1.72576 -3.827121 -0.21744514 625 0 0 0 67.845375
1.7782203 -5.2659936 0.58234149 383 0 0 0 67.845375
8.6919813 -26.973059 15.398601 6 0 0 0 67.845375
7.349473 -22.183764 8.4546366 13 0 0 0 67.845375
3.3747036 -4.8002954 0.40053031 379 0 0 0 67.945724
1.6969796 -3.825778 -0.21665603 569 0 0 0 67.945724
2.116612 -4.7710056 0.22836845 367 0 0 0 67.945724
3.3091998 -4.7069845 0.10913664 412 0 0 0 67.945724
4.3077135 -7.5867033 2.9115641 112 0 0 0 67.945724
3.6205935 -8.1780405 1.6920468 103 0 0 0 67.945724
8.5218153 -27.011633 15.390493 6 0 0 0 67.945724
7.172255 -22.102285 8.406805 11 0 0 0 67.945724
2.7762671 -4.9065676 0.45110649 362 0 0 0 67.945724
1.5848109 -4.7855577 0.28312308 373 0 0 0 67.945724
4.3053317 -7.5732369 3.395375 132 0 0 0 67.945724
1.901724 -4.2889977 -0.019176083 481 0 0 0 67.945724
3.9611361 -12.140547 3.9229405 58 0 0 0 67.945724
1.7496346 -5.2881403 0.58352083 435 0 0 0 67.945724
7.4468327 -10.553887 2.7830663 53 0 0 0 67.945724
8.8156776 -27.622858 13.905236 14 0 0 0 67.945724
2.5658238 -3.6453154 -0.34438503 584 0 0 0 67.945724
8.1620979 -26.174397 16.75972 4 0 0 0 67.945724
1.4247699 -4.3035793 0.036966328 527 0 0 0 67.945724
3.802387 -8.5966244 2.2572334 168 0 0 0 67.945724
1.286428 -3.8869498 -0.16412298 582 0 0 0 67.945724
2.3422008 -3.3207886 -0.5124079 546 0 0 0 67.945724
1.7768767 -5.3860769 0.87568909 212 0 0 0 67.945724
4.7500381 -8.3899384 1.7003264 69 0 0 0 67.945724
2.6926277 -4.7606173 0.17107192 431 0 0 0 67.945724
6.5432391 -11.548855 3.0070138 9 0 0 0 67.945724
2.3778198 -4.2002711 -0.079427376 433 0 0 0 67.945724
2.2479465 -5.0716352 0.51038134 305 0 0 0 67.945724
2.915097 -4.1455822 -0.14774668 427 0 0 0 67.945724
11.375685 -26.05563 16.75794 5 0 0 0 67.945724
2.1287668 -3.758508 -0.27674091 499 0 0 0 67.945724
12.331059 -28.016401 12.2946 11 0 0 0 67.945724
9.0687895 -28.160677 12.401895 7 0 0 0 67.945724
5.291369 -11.972974 3.8194306 50 0 0 0 67.945724
3.2603242 -4.6984344 0.10869072 423 0 0 0 68.041214
11.191455 -26.068714 16.721928 6 0 0 0 68.041214
2.1027496 -3.7662733 -0.27630463 476 0 0 0 68.041214
8.8983259 -28.223711 12.405368 12 0 0 0 68.041214
2.5473824 -3.6667218 -0.34498414 544 0 0 0 68.041214
1.3890576 -4.2837114 0.036961094 546 0 0 0 68.041214
4.2916794 -7.6676798 2.9322767 174 0 0 0 68.041214
1.6658844 -3.818738 -0.21550274 608 0 0 0 68.041214
12.139008 -28.045538 12.274511 7 0 0 0 68.041214
11.451187 -26.596699 15.150533 14 0 0 0 68.041214
3.7600508 -8.6438837 2.2634585 118 0 0 0 68.041214
2.6507149 -4.754344 0.17042761 492 0 0 0 68.041214
3.319607 -4.7839947 0.39772823 261 0 0 0 68.041214
4.6773458 -8.3810644 1.6928221 52 0 0 0 68.041214
2.0812998 -4.7701659 0.22781356 432 0 0 0 68.041214
2.8839138 -4.1551766 -0.14738199 414 0 0 0 68.041214
7.9956088 -26.20521 16.747736 6 0 0 0 68.041214
2.2159886 -5.0835066 0.51021022 331 0 0 0 68.041214
1.7437949 -5.3968782 0.87568909 217 0 0 0 68.041214
3.573487 -8.2073135 1.6935074 49 0 0 0 68.041214
2.3471336 -4.2060509 -0.079186544 446 0 0 0 68.041214
8.641716 -27.662655 13.898328 13 0 0 0 68.041214
2.7354259 -4.9043465 0.44948375 567 0 0 0 68.041214
2.3172581 -3.3285873 -0.51133049 552 0 0 0 68.041214
1.7193066 -5.3054018 0.58420873 392 0 0 0 68.041214
1.8677722 -4.2831731 -0.018950593 461 0 0 0 68.041214
6.4751077 -11.593898 3.0083268 11 0 0 0 68.041214
7.400372 -10.625873 2.7899442 47 0 0 0 68.041214
7.0270972 -22.116295 8.3956108 17 0 0 0 68.041214
4.2656198 -7.6117172 3.4007847 172 0 0 0 68.041214
5.2170386 -12.003453 3.8188744 29 0 0 0 68.041214
1.2591556 -3.8843222 -0.1635818 548 0 0 0 68.041214
1.5489299 -4.7752461 0.28208992 402 0 0 0 68.041214
3.8792837 -12.141847 3.9156477 58 0 0 0 68.041214
5.1395135 -12.026406 3.8160927 39 0 0 0 68.14003
2.3140583 -4.207232 -0.078825302 418 0 0 0 68.14003
6.4080811 -11.641104 3.0102961 8 0 0 0 68.14003
1.3569814 -4.2740502 0.036957778 556 0 0 0 68.14003
2.285584 -3.3263979 -0.50863689 591 0 0 0 68.14003
8.7249804 -28.277779 12.405368 15 0 0 0 68.14003
2.1820059 -5.0905981 0.50961107 344 0 0 0 68.14003
1.7112455 -5.4093618 0.8759833 227 0 0 0 68.14003
7.3510928 -10.694459 2.7959886 49 0 0 0 68.14003
3.218452 -4.6993666 0.10839769 408 0 0 0 68.14003
8.4694443 -27.707397 13.894442 8 0 0 0 68.14003
1.5129323 -4.7637229 0.28100756 438 0 0 0 68.14003
11.951427 -28.083622 12.258887 11 0 0 0 68.14003
2.5220222 -3.6781721 -0.34455621 533 0 0 0 68.14003
1.2331766 -3.8853133 -0.16323741 549 0 0 0 68.14003
1.8315979 -4.2715802 -0.018653894 493 0 0 0 68.14003
1.6906425 -5.3281798 0.58548635 389 0 0 0 68.14003
6.8711367 -22.094324 8.3711853 18 0 0 0 68.14003
4.2201877 -7.6401968 3.4018667 133 0 0 0 68.14003
3.6623814 -8.5419731 1.2907465 5 0 0 0 68.14003
2.6041684 -4.7389741 0.16953549 497 0 0 0 68.14003
2.0627809 -3.7485166 -0.27375957 571 0 0 0 68.14003
2.699039 -4.9096756 0.44852486 312 0 0 0 68.14003
11.018554 -26.106724 16.702652 9 0 0 0 68.14003
2.842005 -4.1488714 -0.14632438 431 0 0 0 68.14003
2.0417409 -4.7589717 0.22685175 447 0 0 0 68.14003
4.2940702 -7.7836633 2.9661701 80 0 0 0 68.14003
1.6380901 -3.8187988 -0.21483503 585 0 0 0 68.14003
3.7130668 -8.6811056 2.2671475 108 0 0 0 68.14003
4.4928942 -8.1678486 1.6450671 114 0 0 0 68.14003
3.5222864 -8.2272778 1.6931423 36 0 0 0 68.14003
11.255986 -26.591368 15.107938 5 0 0 0 68.14003
11.654279 -27.438662 13.737344 6 0 0 0 68.14003
3.7969928 -12.140776 3.9077718 64 0 0 0 68.14003
3.2885005 -4.8018017 0.39754143 247 0 0 0 68.14003
4.1718912 -7.6634898 3.4007847 122 0 0 0 68.237312
1.6579176 -5.3384528 0.58548635 369 0 0 0 68.237312
3.7185042 -12.151041 3.903688 83 0 0 0 68.237312
1.3280523 -4.2737036 0.036956206 558 0 0 0 68.237312
5.0645075 -12.055059 3.8152583 38 0 0 0 68.237312
8.5491734 -28.323715 12.402281 17 0 0 0 68.237312
7.3007011 -10.762031 2.8018243 56 0 0 0 68.237312
2.7958105 -4.1355829 -0.14497501 450 0 0 0 68.237312
2.1534393 -5.1103172 0.51021022 312 0 0 0 68.237312
1.8022441 -4.2753682 -0.018558949 596 0 0 0 68.237312
1.208719 -3.8908997 -0.16313902 602 0 0 0 68.237312
11.482199 -27.50127 13.733165 10 0 0 0 68.237312
6.711875 -22.058676 8.3420124 11 0 0 0 68.237312
3.4923418 -8.2976665 1.7030015 26 0 0 0 68.237312
1.6791949 -5.4235387 0.87657177 214 0 0 0 68.237312
7.6557283 -26.240723 16.709181 12 0 0 0 68.237312
2.2334049 -5.2999539 0.81112748 20 0 0 0 68.237312
8.2933302 -27.738968 13.884511 11 0 0 0 68.237312
2.5560079 -4.719697 0.16854423 423 0 0 0 68.237312
2.0016212 -4.7456317 0.22581595 502 0 0 0 68.237312
4.5864263 -8.4534273 2.1870782 121 0 0 0 68.237312
4.3971539 -8.1112299 1.6285233 89 0 0 0 68.237312
2.6679132 -4.9243903 0.44837734 405 0 0 0 68.237312
11.771719 -28.139299 12.251447 9 0 0 0 68.237312
3.1683013 -4.6875305 0.10791355 441 0 0 0 68.237312
1.4786209 -4.7567062 0.28017119 449 0 0 0 68.237312
1.615792 -3.8315368 -0.21501713 633 0 0 0 68.237312
10.849571 -26.153145 16.689465 8 0 0 0 68.237312
2.0288122 -3.7409351 -0.2720871 589 0 0 0 68.237312
2.4860229 -3.6737616 -0.34250203 608 0 0 0 68.237312
3.2472508 -4.8045163 0.3962338 318 0 0 0 68.237312
11.078991 -26.627199 15.089418 5 0 0 0 68.237312
2.2462504 -3.3124566 -0.50405788 545 0 0 0 68.237312
3.672936 -8.7351179 2.2752171 118 0 0 0 68.237312
2.2801049 -4.206408 -0.078415886 500 0 0 0 68.237312
4.2557511 -7.8273835 2.9727604 129 0 0 0 68.237312
1.5968417 -3.8524425 -0.21574554 632 0 0 0 68.336128
4.143744 -7.7242885 3.4162924 113 0 0 0 68.336128
2.4562511 -3.6781685 -0.34138933 632 0 0 0 68.336128
11.310133 -27.563641 13.729404 13 0 0 0 68.336128
2.0025313 -3.7471547 -0.27157807 649 0 0 0 68.336128
1.9613595 -4.7310562 0.22474317 419 0 0 0 68.336128
6.5584116 -22.039038 8.3192835 15 0 0 0 68.336128
1.7598901 -4.2475519 -0.018060494 491 0 0 0 68.336128
2.1250942 -5.1307974 0.51089489 415 0 0 0 68.336128
2.7454555 -4.1152306 -0.1433339 450 0 0 0 68.336128
2.518532 -4.7194138 0.16809818 431 0 0 0 68.336128
10.671975 -26.177727 16.663088 14 0 0 0 68.336128
1.6187502 -5.3275819 0.58332425 427 0 0 0 68.336128
3.1928146 -4.7869687 0.39343175 420 0 0 0 68.336128
2.2443662 -4.2017989 -0.07791014 487 0 0 0 68.336128
10.891915 -26.637249 15.057009 22 0 0 0 68.336128
3.6210864 -12.09758 3.8794765 41 0 0 0 68.336128
3.6267049 -8.7754745 2.2798283 113 0 0 0 68.336128
7.2448621 -10.82207 2.8057845 45 0 0 0 68.336128
1.4447442 -4.7504039 0.27938402 456 0 0 0 68.336128
4.9864101 -12.076141 3.8121986 36 0 0 0 68.336128
8.3702574 -28.358829 12.394948 18 0 0 0 68.336128
3.1245146 -4.684412 0.10756955 440 0 0 0 68.336128
1.3009291 -4.2789025 0.036955681 563 0 0 0 68.336128
2.6367087 -4.9389081 0.44822982 452 0 0 0 68.336128
7.4903593 -26.272429 16.699802 15 0 0 0 68.336128
4.4939961 -8.4056807 2.1678216 137 0 0 0 68.336128
4.3319845 -8.109375 1.6228951 104 0 0 0 68.336128
2.2129846 -5.3428526 0.81542057 91 0 0 0 68.336128
1.6453103 -5.4318471 0.87627751 180 0 0 0 68.336128
1.1833652 -3.8934662 -0.16289303 554 0 0 0 68.336128
11.596014 -28.204132 12.24847 9 0 0 0 68.336128
2.2082748 -3.2998071 -0.49974817 521 0 0 0 68.336128
3.4650488 -8.3761721 1.714504 7 0 0 0 68.336128
4.2134709 -7.8642297 2.9768403 135 0 0 0 68.336128
2.210166 -4.1995645 -0.077476636 467 0 0 0 68.432381
1.1545992 -3.8843832 -0.16205665 537 0 0 0 68.432381
3.5427544 -12.105803 3.8751011 56 0 0 0 68.432381
4.9067998 -12.09316 3.8080263 58 0 0 0 68.432381
1.4127139 -4.7496085 0.27889201 459 0 0 0 68.432381
2.4816215 -4.7197342 0.1676769 396 0 0 0 68.432381
1.9762508 -3.7531931 -0.27106908 658 0 0 0 68.432381
10.720666 -26.684662 15.04636 13 0 0 0 68.432381
1.5618684 -3.8344393 -0.21392453 526 0 0 0 68.432381
1.6085709 -5.4304619 0.87451214 319 0 0 0 68.432381
3.5768201 -8.8074789 2.2823644 95 0 0 0 68.432381
11.13128 -27.608929 13.717704 12 0 0 0 68.432381
4.3395858 -8.2379742 2.1183674 132 0 0 0 68.432381
1.7296437 -4.2480845 -0.017929947 470 0 0 0 68.432381
2.1625912 -5.3131957 0.80911511 180 0 0 0 68.432381
4.1006279 -7.7578154 3.419899 111 0 0 0 68.432381
6.3972912 -21.990351 8.2860394 13 0 0 0 68.432381
8.1927671 -28.398132 12.389932 8 0 0 0 68.432381
3.1661227 -4.8106399 0.3937431 259 0 0 0 68.432381
7.1896381 -10.88346 2.8101614 56 0 0 0 68.432381
7.9272699 -27.751059 13.840902 6 0 0 0 68.432381
2.603106 -4.9488144 0.44771349 488 0 0 0 68.432381
3.0814352 -4.6817689 0.1072383 434 0 0 0 68.432381
10.499292 -26.213116 16.64432 10 0 0 0 68.432381
2.4199495 -3.6723595 -0.33924958 472 0 0 0 68.432381
2.70314 -4.1061091 -0.14220335 477 0 0 0 68.432381
1.583757 -5.3297844 0.58253801 391 0 0 0 68.432381
4.2738862 -8.1201067 1.6198251 86 0 0 0 68.432381
1.2729346 -4.2810545 0.036954634 555 0 0 0 68.432381
11.423086 -28.275614 12.248842 8 0 0 0 68.432381
1.9266342 -4.7291212 0.22418828 430 0 0 0 68.432381
7.320765 -26.288294 16.681047 9 0 0 0 68.432381
4.1682391 -7.8958135 2.979037 127 0 0 0 68.432381
2.0905657 -5.1363583 0.51021022 327 0 0 0 68.432381
1.3824257 -4.7543516 0.27869523 407 0 0 0 68.530945
1.1259893 -3.8750942 -0.16122028 602 0 0 0 68.530945
8.0040922 -28.397257 12.367935 15 0 0 0 68.530945
1.9490536 -3.7572792 -0.27041462 631 0 0 0 68.530945
2.0619714 -5.1564894 0.51089489 567 0 0 0 68.530945
7.1355348 -10.947039 2.8151636 53 0 0 0 68.530945
4.1395135 -7.949122 3.4923892 49 0 0 0 68.530945
1.537569 -3.8420973 -0.21380313 595 0 0 0 68.530945
13.545992 -25.842649 16.714436 5 0 0 0 68.530945
3.0319784 -4.6687069 0.10675416 375 0 0 0 68.530945
4.231164 -8.1460667 2.5678413 72 0 0 0 68.530945
2.3821855 -3.6637368 -0.33685303 463 0 0 0 68.530945
4.1741023 -8.0499487 1.6010643 128 0 0 0 68.530945
3.5439937 -8.8825808 2.2959673 29 0 0 0 68.530945
11.253485 -28.355524 12.253306 11 0 0 0 68.530945
2.5653536 -4.9505248 0.44653332 388 0 0 0 68.530945
4.1254067 -7.9321923 2.9831166 103 0 0 0 68.530945
4.2777233 -8.2427931 2.1128967 156 0 0 0 68.530945
3.4465525 -12.050989 3.8508894 33 0 0 0 68.530945
7.1503625 -26.299774 16.660206 6 0 0 0 68.530945
1.8916352 -4.7260113 0.22359641 452 0 0 0 68.530945
2.1733186 -4.1917434 -0.076898642 516 0 0 0 68.530945
2.6702828 -4.1108789 -0.14169277 498 0 0 0 68.530945
1.5510243 -5.3394017 0.58253801 407 0 0 0 68.530945
6.2419071 -21.957708 8.2592402 11 0 0 0 68.530945
1.6972272 -4.2428365 -0.017728193 534 0 0 0 68.530945
10.557055 -26.750765 15.046824 9 0 0 0 68.530945
10.95029 -27.647989 13.703496 16 0 0 0 68.530945
2.4392872 -4.7091265 0.16695824 392 0 0 0 68.530945
4.8268127 -12.108765 3.8035758 75 0 0 0 68.530945
3.1262288 -4.814065 0.39256001 240 0 0 0 68.530945
1.2421627 -4.2734246 0.036951844 555 0 0 0 68.530945
10.325632 -26.244967 16.624031 11 0 0 0 68.530945
2.1277404 -5.3208451 0.80831015 231 0 0 0 68.530945
1.5771503 -5.4468789 0.87554193 281 0 0 0 68.530945
4.2181854 -8.2515078 2.1085203 67 0 0 0 68.627708
10.384388 -26.79355 15.034786 9 0 0 0 68.627708
2.3440814 -3.6539507 -0.33437088 462 0 0 0 68.627708
6.0934606 -21.946651 8.240921 8 0 0 0 68.627708
3.0928667 -4.8272715 0.39212412 340 0 0 0 68.627708
4.1613517 -8.1332607 2.5558457 132 0 0 0 68.627708
6.7737126 -24.611526 10.704294 16 0 0 0 68.627708
7.2824206 -27.086109 15.240763 8 0 0 0 68.627708
3.3738325 -12.076516 3.8523481 44 0 0 0 68.627708
10.142035 -26.24995 16.587509 7 0 0 0 68.627708
1.9177991 -3.7531788 -0.26910573 648 0 0 0 68.627708
2.3962686 -4.6963968 0.16619003 374 0 0 0 68.627708
1.8549176 -4.7180009 0.22281957 440 0 0 0 68.627708
2.5313041 -4.9590654 0.44594324 463 0 0 0 68.627708
11.083332 -28.43442 12.257771 4 0 0 0 68.627708
6.9827232 -26.320053 16.645618 5 0 0 0 68.627708
2.6326227 -4.1078243 -0.14085399 440 0 0 0 68.627708
2.1448309 -4.199657 -0.076754145 548 0 0 0 68.627708
10.760674 -27.663858 13.678424 11 0 0 0 68.627708
1.6664044 -4.2410736 -0.017573908 483 0 0 0 68.627708
1.5431594 -5.4545507 0.87524772 272 0 0 0 68.627708
2.0903394 -5.3218107 0.80656606 230 0 0 0 68.627708
1.3411821 -4.7204809 0.2765305 507 0 0 0 68.627708
4.7447176 -12.118477 3.7974565 78 0 0 0 68.627708
1.2129031 -4.2703872 0.036949921 558 0 0 0 68.627708
7.0883241 -11.021881 2.8230836 34 0 0 0 68.627708
1.097537 -3.8656011 -0.16038391 627 0 0 0 68.627708
1.5165986 -5.3430753 0.58194834 366 0 0 0 68.627708
2.0288351 -5.1653352 0.51055253 497 0 0 0 68.627708
4.0801206 -7.9641166 2.9856274 108 0 0 0 68.627708
3.4975934 -8.9249945 2.3012702 13 0 0 0 68.627708
4.1049151 -8.0367947 1.59356 110 0 0 0 68.627708
1.5088489 -3.8384557 -0.21295333 577 0 0 0 68.627708
2.9811821 -4.652688 0.10623179 380 0 0 0 68.627708
13.369248 -25.890572 16.692091 8 0 0 0 68.627708
4.1119399 -8.0158691 3.5104215 12 0 0 0 68.627708
8.6056337 -22.02186 8.1642065 7 0 0 0 68.627708
4.0493274 -8.0495071 1.5911722 93 0 0 0 68.728577
2.5977676 -4.1086888 -0.14019753 438 0 0 0 68.728577
1.9992557 -5.1832638 0.51106608 322 0 0 0 68.728577
6.6175423 -24.633917 10.69619 11 0 0 0 68.728577
2.3120403 -3.6531022 -0.33283025 446 0 0 0 68.728577
1.5109824 -5.4686828 0.8759833 222 0 0 0 68.728577
1.6363877 -4.2409577 -0.017443361 467 0 0 0 68.728577
10.215376 -26.845165 15.028304 6 0 0 0 68.728577
1.4784328 -3.8299513 -0.21180002 547 0 0 0 68.728577
3.0536005 -4.8309655 0.39100331 326 0 0 0 68.728577
6.8148909 -26.33844 16.630508 13 0 0 0 68.728577
7.0425577 -11.099858 2.8318374 24 0 0 0 68.728577
1.8205309 -4.7153115 0.22226468 412 0 0 0 68.728577
30.904837 -48.249466 21.552675 16 0 0 0 68.728577
2.3548446 -4.6859975 0.16549616 416 0 0 0 68.728577
4.6609616 -12.123156 3.7899463 59 0 0 0 68.728577
1.0719225 -3.8655272 -0.16003951 596 0 0 0 68.728577
1.478721 -5.3340631 0.58008111 357 0 0 0 68.728577
13.203446 -25.958963 16.683651 10 0 0 0 68.728577
2.9355004 -4.6438332 0.1058241 427 0 0 0 68.728577
8.487627 -22.11927 8.1808023 20 0 0 0 68.728577
4.0743642 -8.0746241 3.0173237 62 0 0 0 68.728577
1.1842641 -4.2690787 0.036948353 605 0 0 0 68.728577
10.909649 -28.50449 12.258887 7 0 0 0 68.728577
1.3097818 -4.7199616 0.2760877 491 0 0 0 68.728577
3.2885802 -12.056391 3.8395131 41 0 0 0 68.728577
2.053721 -5.3243675 0.80509031 192 0 0 0 68.728577
4.1092005 -8.1543379 2.554513 143 0 0 0 68.728577
4.1231694 -8.1892033 2.0864191 83 0 0 0 68.728577
2.1167772 -4.208272 -0.076633729 487 0 0 0 68.728577
13.543817 -26.697462 15.199643 10 0 0 0 68.728577
9.9664097 -26.273815 16.563669 11 0 0 0 68.728577
1.8862206 -3.7479458 -0.26772413 612 0 0 0 68.728577
2.499485 -4.9718304 0.44572198 371 0 0 0 68.728577
2.0838201 -4.2068458 -0.076248392 465 0 0 0 68.825089
13.366197 -26.752934 15.184271 7 0 0 0 68.825089
2.3140821 -4.6761637 0.16482706 399 0 0 0 68.825089
1.9684733 -5.1982284 0.51132286 346 0 0 0 68.825089
1.6000541 -4.2238045 -0.017099191 525 0 0 0 68.825089
13.022148 -25.996027 16.655846 6 0 0 0 68.825089
2.4680469 -4.9852858 0.44557446 480 0 0 0 68.825089
2.5656424 -4.1135221 -0.13972344 464 0 0 0 68.825089
4.5858088 -12.14973 3.7893901 69 0 0 0 68.825089
8.3350763 -22.126692 8.1645317 14 0 0 0 68.825089
7.1989865 -27.764376 13.755412 7 0 0 0 68.825089
1.4810141 -5.4912181 0.87804294 208 0 0 0 68.825089
10.33809 -27.574352 13.570615 8 0 0 0 68.825089
1.1533263 -4.2588949 0.036945209 604 0 0 0 68.825089
1.2779145 -4.7173076 0.27554652 446 0 0 0 68.825089
1.0460883 -3.864321 -0.15964593 614 0 0 0 68.825089
6.6491842 -26.364035 16.620609 8 0 0 0 68.825089
2.0150428 -5.3211155 0.8028096 232 0 0 0 68.825089
3.1992681 -12.019039 3.8214273 47 0 0 0 68.825089
6.4608846 -24.653534 10.687314 13 0 0 0 68.825089
4.0299449 -8.1277962 2.0647554 94 0 0 0 68.825089
10.056979 -26.924778 15.038027 10 0 0 0 68.825089
1.7901462 -4.7226558 0.22211671 435 0 0 0 68.825089
1.857877 -3.7487237 -0.26685154 612 0 0 0 68.825089
9.7905731 -26.295708 16.539322 7 0 0 0 68.825089
4.058661 -8.1785345 2.5542464 129 0 0 0 68.825089
6.9862461 -11.161934 2.8366313 14 0 0 0 68.825089
1.4481781 -3.8212187 -0.21064672 498 0 0 0 68.825089
2.2832594 -3.6570723 -0.33180317 496 0 0 0 68.825089
30.609201 -48.43977 21.553379 16 0 0 0 68.825089
3.0122962 -4.8309712 0.38963342 443 0 0 0 68.825089
1.4436181 -5.3343925 0.57919657 321 0 0 0 68.825089
4.0547323 -8.1598473 3.0396056 64 0 0 0 68.825089
3.9915524 -8.0574245 1.5879316 101 0 0 0 68.825089
2.8895118 -4.6337457 0.10540366 447 0 0 0 68.825089
1.938972 -5.2167454 0.511922 317 0 0 0 68.92646
2.9684958 -4.8263998 0.38795218 313 0 0 0 68.92646
3.9247642 -8.0463371 1.5811095 101 0 0 0 68.92646
13.185256 -26.800827 15.165282 8 0 0 0 68.92646
3.9722948 -8.1365852 2.0608165 91 0 0 0 68.92646
1.7545093 -4.7157574 0.22141385 448 0 0 0 68.92646
1.9740638 -5.3110886 0.79958981 279 0 0 0 68.92646
12.840124 -26.030289 16.627047 8 0 0 0 68.92646
8.1653748 -22.086069 8.1310158 18 0 0 0 68.92646
9.6112938 -26.306719 16.508888 10 0 0 0 68.92646
2.8536999 -4.6394587 0.10522529 432 0 0 0 68.92646
2.2550387 -3.6616759 -0.33086166 492 0 0 0 68.92646
4.0200233 -8.2161312 3.0512171 59 0 0 0 68.92646
1.5685271 -4.2185483 -0.016909303 537 0 0 0 68.92646
1.2476654 -4.7202325 0.27530053 436 0 0 0 68.92646
1.121533 -4.2446265 0.036941372 508 0 0 0 68.92646
5.9039898 -23.692392 13.270886 10 0 0 0 68.92646
2.436101 -4.9976459 0.44535318 382 0 0 0 68.92646
2.0452666 -4.1934915 -0.075549982 538 0 0 0 68.92646
2.2779059 -4.6749949 0.16440579 457 0 0 0 68.92646
7.0207515 -27.77742 13.7403 16 0 0 0 68.92646
6.9289246 -11.222902 2.8412166 16 0 0 0 68.92646
4.0177078 -8.2223368 2.5601108 114 0 0 0 68.92646
9.880599 -26.95602 15.021359 10 0 0 0 68.92646
3.1131861 -11.991231 3.8065505 49 0 0 0 68.92646
1.8234756 -3.7367446 -0.26496091 603 0 0 0 68.92646
10.142347 -27.565647 13.535514 7 0 0 0 68.92646
6.3010354 -24.659643 10.673036 11 0 0 0 68.92646
1.4219178 -3.8225493 -0.21016112 557 0 0 0 68.92646
1.4098406 -5.3393016 0.57880348 321 0 0 0 68.92646
4.5028291 -12.155122 3.7824361 53 0 0 0 68.92646
2.5314639 -4.1147103 -0.13910346 416 0 0 0 68.92646
1.4495643 -5.5088096 0.87936705 350 0 0 0 68.92646
4.4245515 -12.172591 3.7793765 65 0 0 0 69.021698
8.0022907 -22.0602 8.1033564 7 0 0 0 69.021698
1.3953532 -3.8227642 -0.20961483 565 0 0 0 69.021698
2.2413995 -4.6726575 0.16395973 461 0 0 0 69.021698
9.7078152 -26.996122 15.010247 11 0 0 0 69.021698
12.66803 -26.083597 16.611158 7 0 0 0 69.021698
6.8491015 -27.815596 13.738141 14 0 0 0 69.021698
1.9110254 -5.2397757 0.51294911 341 0 0 0 69.021698
6.8741674 -11.2886 2.8470523 7 0 0 0 69.021698
3.863806 -8.0462828 1.5765046 98 0 0 0 69.021698
5.7304983 -23.612862 13.206511 9 0 0 0 69.021698
6.1435857 -24.673672 10.662616 8 0 0 0 69.021698
2.8158548 -4.6414862 0.10499597 436 0 0 0 69.021698
2.9274509 -4.8257418 0.38658229 337 0 0 0 69.021698
1.3745642 -5.3382163 0.57782072 360 0 0 0 69.021698
2.4088402 -5.0196929 0.44594324 339 0 0 0 69.021698
13.003843 -26.846708 15.145841 10 0 0 0 69.021698
2.4973679 -4.1156344 -0.13848348 499 0 0 0 69.021698
1.5354099 -4.2083688 -0.016660076 582 0 0 0 69.021698
3.9028573 -8.120348 2.0507507 164 0 0 0 69.021698
1.7918812 -3.7298803 -0.26350662 540 0 0 0 69.021698
1.7176529 -4.7048459 0.22056301 402 0 0 0 69.021698
2.3599296 -4.9132853 0.70400745 5 0 0 0 69.021698
1.9360021 -5.308207 0.79744327 275 0 0 0 69.021698
3.0308564 -11.975801 3.7957575 26 0 0 0 69.021698
3.9872301 -8.2885275 2.572906 88 0 0 0 69.021698
9.9387712 -27.532509 13.48913 9 0 0 0 69.021698
1.2189293 -4.7287664 0.27534974 461 0 0 0 69.021698
2.015173 -4.1969485 -0.07530915 522 0 0 0 69.021698
2.2242656 -3.6618111 -0.32949221 559 0 0 0 69.021698
1.0957178 -4.2523966 0.036941543 606 0 0 0 69.021698
1.4196798 -5.5329266 0.88172096 199 0 0 0 69.021698
9.4319582 -26.31571 16.477945 7 0 0 0 69.021698
4.5598402 -7.5122013 3.3283563 18 0 0 0 69.121536
1.3678293 -3.8199787 -0.20888641 581 0 0 0 69.121536
2.1910198 -3.6574311 -0.3276948 596 0 0 0 69.121536
5.5088673 -23.32338 13.025784 6 0 0 0 69.121536
6.8103085 -11.339791 2.849345 18 0 0 0 69.121536
9.2583055 -26.338942 16.456642 11 0 0 0 69.121536
2.8880613 -4.8273335 0.38539919 283 0 0 0 69.121536
6.6673579 -27.811489 13.715689 15 0 0 0 69.121536
2.7780926 -4.6432247 0.10476663 429 0 0 0 69.121536
1.5085472 -4.2148867 -0.016624471 589 0 0 0 69.121536
12.819294 -26.88493 15.122783 7 0 0 0 69.121536
1.8983843 -5.3059916 0.79543084 283 0 0 0 69.121536
2.9472282 -11.953314 3.7829225 42 0 0 0 69.121536
4.3388071 -12.168751 3.7699194 36 0 0 0 69.121536
9.7429609 -27.517611 13.452358 5 0 0 0 69.121536
13.095977 -27.52714 13.598134 9 0 0 0 69.121536
1.1886703 -4.7313142 0.27510375 458 0 0 0 69.121536
1.9770023 -4.1830196 -0.07461074 523 0 0 0 69.121536
1.0696049 -4.2590394 0.036941543 566 0 0 0 69.121536
1.3849818 -5.5386553 0.88127959 268 0 0 0 69.121536
1.6766132 -4.6814313 0.21923128 554 0 0 0 69.121536
2.204581 -4.6691446 0.16348888 486 0 0 0 69.121536
7.8537827 -22.072361 8.0900145 11 0 0 0 69.121536
2.4623313 -4.1145792 -0.13779056 442 0 0 0 69.121536
1.878503 -5.2504649 0.51286352 392 0 0 0 69.121536
3.8349884 -8.1134939 1.5848618 50 0 0 0 69.121536
1.7655528 -3.7335908 -0.26292488 596 0 0 0 69.121536
3.8525412 -8.143261 2.0505319 143 0 0 0 69.121536
2.3758659 -5.0298696 0.44557446 475 0 0 0 69.121536
4.0010366 -8.4496078 2.6147568 41 0 0 0 69.121536
5.9853315 -24.683111 10.650653 11 0 0 0 69.121536
1.3378966 -5.3311095 0.57624829 318 0 0 0 69.121536
2.3432777 -5.0407352 0.44527942 395 0 0 0 69.217537
6.4855127 -27.804443 13.692373 12 0 0 0 69.217537
2.4714551 -5.3117604 0.75423813 28 0 0 0 69.217537
5.1777544 -22.887178 14.347445 9 0 0 0 69.217537
1.352849 -5.5547361 0.88245654 407 0 0 0 69.217537
1.3403922 -3.8169994 -0.20815802 586 0 0 0 69.217537
6.7555447 -11.406615 2.8555977 14 0 0 0 69.217537
12.637796 -26.92836 15.103341 7 0 0 0 69.217537
13.179805 -28.211452 12.067157 8 0 0 0 69.217537
9.0833197 -26.35696 16.432802 9 0 0 0 69.217537
9.8278732 -28.244505 12.01224 6 0 0 0 69.217537
7.7016883 -22.072819 8.0727682 9 0 0 0 69.217537
1.6452056 -4.6840882 0.21893534 475 0 0 0 69.217537
1.9458208 -4.1832862 -0.074297652 555 0 0 0 69.217537
5.8085322 -24.61253 10.604731 9 0 0 0 69.217537
1.8436105 -5.2543721 0.51217878 386 0 0 0 69.217537
3.763113 -8.0895185 1.5758224 7 0 0 0 69.217537
1.86415 -5.3128653 0.79476005 312 0 0 0 69.217537
1.158426 -4.7336688 0.27485776 538 0 0 0 69.217537
1.7379848 -3.7344058 -0.26212502 620 0 0 0 69.217537
4.5266318 -7.5617313 3.3378518 22 0 0 0 69.217537
3.8016791 -8.1649771 2.0500941 215 0 0 0 69.217537
4.260571 -12.185171 3.7668595 43 0 0 0 69.217537
2.8599067 -4.8475432 0.38558599 291 0 0 0 69.217537
2.4213157 -4.1029172 -0.13666001 485 0 0 0 69.217537
2.1645222 -4.6581025 0.16281979 407 0 0 0 69.217537
1.0405897 -4.2538686 0.03693945 644 0 0 0 69.217537
2.157912 -3.6527817 -0.3258974 574 0 0 0 69.217537
2.7378781 -4.640367 0.1044736 421 0 0 0 69.217537
9.5694618 -27.564001 13.44609 7 0 0 0 69.217537
1.300657 -5.3208542 0.57438099 385 0 0 0 69.217537
1.4790108 -4.213686 -0.016493924 685 0 0 0 69.217537
2.8657792 -11.937692 3.7724211 44 0 0 0 69.217537
3.9503367 -8.4766197 2.6155565 43 0 0 0 69.217537
12.907072 -27.564781 13.577391 11 0 0 0 69.217537
9.3966398 -27.611877 13.441075 8 0 0 0 69.315842
9.1833639 -27.093847 14.968116 12 0 0 0 69.315842
2.8301089 -4.8650002 0.38558599 330 0 0 0 69.315842
12.718963 -27.602802 13.557461 9 0 0 0 69.315842
3.7511017 -8.1872625 2.0498753 233 0 0 0 69.315842
6.6947942 -11.463902 2.8595579 7 0 0 0 69.315842
1.8074437 -5.2542806 0.51115167 403 0 0 0 69.315842
1.8318385 -5.3251405 0.79489422 271 0 0 0 69.315842
1.1242492 -4.7193165 0.2737754 426 0 0 0 69.315842
13.001781 -28.281622 12.062829 11 0 0 0 69.315842
4.1754422 -12.1811 3.7576807 33 0 0 0 69.315842
1.9126318 -4.178782 -0.073864155 556 0 0 0 69.315842
2.6912754 -4.6259508 0.10401494 352 0 0 0 69.315842
1.3149948 -3.8194902 -0.20779382 537 0 0 0 69.315842
5.2218032 -23.027826 11.328427 9 0 0 0 69.315842
1.4492203 -4.2113371 -0.016351508 604 0 0 0 69.315842
2.3843064 -5.2076931 0.73810565 102 0 0 0 69.315842
1.6066649 -4.6657519 0.21782556 450 0 0 0 69.315842
5.1676049 -23.144745 12.889882 16 0 0 0 69.315842
2.3800349 -4.0900435 -0.135493 476 0 0 0 69.315842
8.9084606 -26.373823 16.408962 6 0 0 0 69.315842
2.3106458 -5.0513906 0.44498438 396 0 0 0 69.315842
2.1309521 -3.6582012 -0.32512709 563 0 0 0 69.315842
1.0116783 -4.2485023 0.036937356 602 0 0 0 69.315842
3.7146358 -8.1151438 1.576334 5 0 0 0 69.315842
2.1250975 -4.647655 0.16217549 422 0 0 0 69.315842
7.5553942 -22.088346 8.0613794 9 0 0 0 69.315842
4.488708 -7.6038785 3.3441818 40 0 0 0 69.315842
1.3244613 -5.5869894 0.88613451 323 0 0 0 69.315842
2.7815828 -11.908484 3.7578359 42 0 0 0 69.315842
12.432317 -26.918751 15.054964 8 0 0 0 69.315842
5.6611209 -24.663891 10.611676 7 0 0 0 69.315842
1.2589723 -5.2909846 0.57054818 366 0 0 0 69.315842
1.7108885 -3.7359304 -0.26139784 594 0 0 0 69.315842
12.117199 -26.164272 16.517813 10 0 0 0 69.315842
8.6594963 -25.905262 20.10272 5 0 0 0 69.315842
3.8906198 -8.4840517 2.6104918 50 0 0 0 69.315842
1.5709702 -4.6546936 0.21701173 460 0 0 0 69.414909
9.4469795 -28.262623 11.969831 6 0 0 0 69.414909
2.3548939 -4.1045704 -0.135493 522 0 0 0 69.414909
1.2912147 -3.8265412 -0.20773312 574 0 0 0 69.414909
5.0751643 -23.03565 11.31677 11 0 0 0 69.414909
2.7020967 -11.897346 3.7490849 32 0 0 0 69.414909
1.4214337 -4.2144656 -0.016280301 566 0 0 0 69.414909
12.801483 -28.302229 12.037945 9 0 0 0 69.414909
11.936996 -26.195475 16.491001 10 0 0 0 69.414909
2.3616781 -5.2430406 0.74091661 205 0 0 0 69.414909
2.0912116 -4.6487536 0.16185333 449 0 0 0 69.414909
8.7342796 -26.391172 16.386135 7 0 0 0 69.414909
12.265436 -26.99128 15.053155 6 0 0 0 69.414909
1.8812124 -4.1776757 -0.073526993 477 0 0 0 69.414909
0.98604411 -4.256578 0.036937706 665 0 0 0 69.414909
4.0948086 -12.189191 3.7523956 27 0 0 0 69.414909
7.3884592 -22.041052 8.0275373 12 0 0 0 69.414909
4.3605638 -7.4912744 3.2833414 122 0 0 0 69.414909
3.719635 -8.2519369 2.0601602 149 0 0 0 69.414909
1.7713476 -5.2539434 0.51012462 393 0 0 0 69.414909
5.4988246 -24.649542 10.590837 8 0 0 0 69.414909
6.6340823 -11.521719 2.8637264 12 0 0 0 69.414909
2.7912776 -4.8666835 0.38446516 515 0 0 0 69.414909
1.6846579 -3.7390823 -0.26081613 532 0 0 0 69.414909
8.5046453 -25.970924 20.112789 6 0 0 0 69.414909
1.2231066 -5.2840695 0.56907398 414 0 0 0 69.414909
12.498437 -27.567999 13.502551 11 0 0 0 69.414909
9.0096807 -27.127815 14.956078 9 0 0 0 69.414909
2.0990536 -3.654783 -0.32350087 678 0 0 0 69.414909
2.653897 -4.6267581 0.10378561 422 0 0 0 69.414909
4.979073 -22.96213 12.771146 8 0 0 0 69.414909
5.408812 -11.989643 3.6668911 43 0 0 0 69.414909
9.2302017 -27.678495 13.445672 7 0 0 0 69.414909
1.8016641 -5.3437915 0.79596752 258 0 0 0 69.414909
1.2912699 -5.5998297 0.88687009 219 0 0 0 69.414909
2.2775624 -5.0609255 0.44461557 441 0 0 0 69.414909
