# .PCD v0.7 - Point Cloud Data file format
VERSION 0.7
FIELDS x y z intensity normal_x normal_y normal_z curvature
SIZE 4 4 4 4 4 4 4 4
TYPE F F F F F F F F
COUNT 1 1 1 1 1 1 1 1
WIDTH 1132
HEIGHT 1
VIEWPOINT 0 0 0 1 0 0 0
POINTS 1132
DATA ascii
2.2780001 0.449 1.739 42 0 0 0 72.459969
2.411 0.58899999 1.747 33 0 0 0 72.464912
2.563 0.74699998 1.767 34 0 0 0 72.469856
2.1289999 0.35499999 1.724 41 0 0 0 72.474808
2.263 0.49900001 1.732 39 0 0 0 72.479752
2.398 0.64399999 1.745 34 0 0 0 72.484703
2.533 0.80199999 1.758 34 0 0 0 72.489647
2.1270001 0.403 1.723 43 0 0 0 72.494591
2.256 0.55000001 1.732 43 0 0 0 72.499542
2.3829999 0.699 1.743 34 0 0 0 72.504486
2.5120001 0.86199999 1.756 34 0 0 0 72.50943
2.122 0.44999999 1.721 45 0 0 0 72.514381
2.244 0.60100001 1.728 40 0 0 0 72.519325
2.362 0.75199997 1.737 32 0 0 0 72.524269
2.4820001 0.91600001 1.749 33 0 0 0 72.529221
2.1129999 0.49700001 1.717 44 0 0 0 72.534164
2.233 0.65200001 1.727 39 0 0 0 72.539124
2.346 0.80699998 1.7359999 34 0 0 0 72.544067
2.451 0.97000003 1.742 33 0 0 0 72.549011
2.102 0.54299998 1.711 39 0 0 0 72.553963
2.22 0.70300001 1.725 42 0 0 0 72.558907
2.3239999 0.85900003 1.7309999 34 0 0 0 72.563858
2.418 1.023 1.735 33 0 0 0 72.568802
2.092 0.58999997 1.7079999 40 0 0 0 72.573746
2.2019999 0.75199997 1.719 42 0 0 0 72.578697
2.3 0.91000003 1.726 32 0 0 0 72.583641
2.392 1.0779999 1.733 33 0 0 0 72.588585
2.0840001 0.63800001 1.707 44 0 0 0 72.593536
2.184 0.801 1.715 44 0 0 0 72.59848
2.2739999 0.96100003 1.721 33 0 0 0 72.603424
2.3599999 1.13 1.728 33 0 0 0 72.608376
2.072 0.68400002 1.704 41 0 0 0 72.613319
2.168 0.85100001 1.7130001 41 0 0 0 72.618271
2.25 1.012 1.717 31 0 0 0 72.623215
2.3210001 1.178 1.7180001 34 0 0 0 72.628159
2.059 0.73100001 1.7 41 0 0 0 72.63311
2.1459999 0.89899999 1.707 36 0 0 0 72.638054
2.2160001 1.059 1.707 31 0 0 0 72.643005
2.2839999 1.227 1.711 32 0 0 0 72.647949
2.0450001 0.778 1.696 41 0 0 0 72.652893
2.1240001 0.94599998 1.702 35 0 0 0 72.657845
2.1860001 1.1059999 1.7 31 0 0 0 72.662788
2.2509999 1.278 1.7079999 32 0 0 0 72.667732
2.0280001 0.824 1.691 39 0 0 0 72.672691
2.102 0.99400002 1.698 31 0 0 0 72.677635
2.1630001 1.1569999 1.7 32 0 0 0 72.682579
2.2090001 1.322 1.698 33 0 0 0 72.687531
2.013 0.87 1.689 41 0 0 0 72.692474
2.0810001 1.0420001 1.6950001 31 0 0 0 72.697426
2.128 1.202 1.692 32 0 0 0 72.70237
2.1760001 1.372 1.696 32 0 0 0 72.707314
1.9960001 0.91600001 1.6849999 41 0 0 0 72.712265
2.0480001 1.0829999 1.684 31 0 0 0 72.717209
2.096 1.247 1.686 45 0 0 0 72.72216
2.1359999 1.416 1.691 34 0 0 0 72.727104
1.976 0.96100003 1.6799999 39 0 0 0 72.732048
2.0280001 1.133 1.684 35 0 0 0 72.737
2.062 1.2920001 1.6799999 36 0 0 0 72.741943
2.0910001 1.457 1.681 56 0 0 0 72.746887
1.957 1.006 1.676 39 0 0 0 72.809181
1.999 1.177 1.678 34 0 0 0 72.814125
2.0239999 1.334 1.671 30 0 0 0 72.819069
2.0550001 1.5039999 1.679 70 0 0 0 72.82402
1.933 1.05 1.669 35 0 0 0 72.828964
1.9680001 1.219 1.67 30 0 0 0 72.833923
1.993 1.3789999 1.67 30 0 0 0 72.838867
2 1.536 1.663 35 0 0 0 72.843811
1.915 1.096 1.668 39 0 0 0 72.848763
1.934 1.26 1.661 33 0 0 0 72.853706
1.954 1.42 1.661 30 0 0 0 72.858658
1.9529999 1.572 1.654 30 0 0 0 72.863602
1.8890001 1.1390001 1.661 34 0 0 0 72.868546
1.904 1.303 1.656 30 0 0 0 72.873497
1.9119999 1.457 1.652 29 0 0 0 72.878441
1.9 1.603 1.64 30 0 0 0 72.883385
1.864 1.182 1.656 35 0 0 0 72.888336
1.865 1.339 1.6440001 30 0 0 0 72.89328
1.868 1.492 1.641 29 0 0 0 72.898224
1.857 1.64 1.635 30 0 0 0 72.903175
1.8380001 1.225 1.651 33 0 0 0 72.908119
1.835 1.382 1.641 29 0 0 0 72.913071
1.831 1.5319999 1.636 29 0 0 0 72.918015
1.807 1.6720001 1.625 32 0 0 0 72.922958
1.811 1.267 1.645 34 0 0 0 72.92791
1.8 1.421 1.6339999 29 0 0 0 72.932854
1.791 1.5700001 1.63 29 0 0 0 72.937805
1.763 1.7079999 1.62 30 0 0 0 72.942749
1.784 1.3099999 1.641 33 0 0 0 72.947693
1.7690001 1.4630001 1.631 30 0 0 0 72.952644
1.747 1.604 1.622 30 0 0 0 72.957588
1.711 1.7359999 1.609 31 0 0 0 72.96254
1.756 1.352 1.637 34 0 0 0 72.967491
1.734 1.501 1.626 31 0 0 0 72.972435
1.706 1.6390001 1.6160001 29 0 0 0 72.977379
1.661 1.7640001 1.6 32 0 0 0 72.98233
1.725 1.392 1.631 32 0 0 0 72.987274
1.696 1.538 1.619 28 0 0 0 72.992226
1.6619999 1.671 1.608 30 0 0 0 72.997169
1.617 1.7970001 1.597 32 0 0 0 73.002113
1.6950001 1.433 1.627 32 0 0 0 73.007065
1.655 1.571 1.61 30 0 0 0 73.012009
1.62 1.705 1.602 35 0 0 0 73.01696
1.566 1.823 1.5880001 35 0 0 0 73.021904
1.658 1.4680001 1.617 28 0 0 0 73.026848
1.6210001 1.61 1.607 33 0 0 0 73.031799
1.573 1.733 1.5930001 33 0 0 0 73.036743
1.512 1.8430001 1.575 33 0 0 0 73.041687
1.6289999 1.51 1.615 30 0 0 0 73.046638
1.58 1.643 1.599 32 0 0 0 73.051582
1.528 1.762 1.585 35 0 0 0 73.056526
1.4630001 1.869 1.569 34 0 0 0 73.061478
1.596 1.55 1.61 34 0 0 0 73.066422
1.5319999 1.668 1.585 36 0 0 0 73.071373
1.484 1.793 1.58 39 0 0 0 73.076317
1.414 1.8940001 1.563 35 0 0 0 73.081261
1.559 1.586 1.603 33 0 0 0 73.08622
1.493 1.7029999 1.581 37 0 0 0 73.091164
1.4349999 1.817 1.5700001 38 0 0 0 73.096115
1.3660001 1.919 1.558 37 0 0 0 73.101059
1.523 1.622 1.598 34 0 0 0 73.106003
1.454 1.7359999 1.577 37 0 0 0 73.110954
1.3839999 1.837 1.558 39 0 0 0 73.115898
1.317 1.942 1.553 44 0 0 0 73.120842
1.483 1.655 1.589 33 0 0 0 73.125793
1.414 1.77 1.573 35 0 0 0 73.130737
1.342 1.868 1.556 46 0 0 0 73.135681
1.267 1.962 1.546 39 0 0 0 73.140633
1.446 1.691 1.585 33 0 0 0 73.145576
1.372 1.8 1.568 41 0 0 0 73.150528
1.298 1.896 1.553 43 0 0 0 73.155472
1.214 1.977 1.5369999 35 0 0 0 73.160416
1.408 1.726 1.579 34 0 0 0 73.165367
1.3279999 1.8279999 1.561 46 0 0 0 73.170311
1.248 1.916 1.544 38 0 0 0 73.175262
1.161 1.989 1.526 40 0 0 0 73.180206
1.364 1.7539999 1.569 40 0 0 0 73.18515
1.279 1.849 1.549 39 0 0 0 73.190102
1.2 1.936 1.536 34 0 0 0 73.195045
1.11 2.006 1.52 41 0 0 0 73.199989
1.322 1.784 1.562 37 0 0 0 73.204941
1.238 1.881 1.5470001 33 0 0 0 73.209885
1.148 1.951 1.525 35 0 0 0 73.214828
1.0549999 2.0120001 1.507 39 0 0 0 73.219788
1.281 1.816 1.556 33 0 0 0 73.224731
1.187 1.897 1.534 33 0 0 0 73.229683
1.098 1.9680001 1.516 30 0 0 0 73.234627
1.008 2.0320001 1.505 44 0 0 0 73.239571
1.238 1.845 1.549 34 0 0 0 73.244522
1.143 1.923 1.529 32 0 0 0 73.249466
1.0470001 1.9809999 1.506 37 0 0 0 73.254417
0.95499998 2.04 1.4960001 46 0 0 0 73.259361
1.193 1.8710001 1.54 33 0 0 0 73.264305
1.092 1.937 1.516 37 0 0 0 73.269257
0.99800003 1.997 1.499 33 0 0 0 73.2742
0.90399998 2.05 1.489 42 0 0 0 73.279144
1.147 1.895 1.5319999 34 0 0 0 73.133881
1.046 1.961 1.511 32 0 0 0 73.138832
0.94999999 2.0139999 1.493 37 0 0 0 73.143776
0.852 2.056 1.479 39 0 0 0 73.14872
1.099 1.9170001 1.522 34 0 0 0 73.153671
0.99400002 1.971 1.497 32 0 0 0 73.158615
0.90200001 2.0309999 1.489 49 0 0 0 73.163567
0.801 2.0610001 1.47 40 0 0 0 73.16851
1.051 1.937 1.511 32 0 0 0 73.173454
0.94999999 1.998 1.497 35 0 0 0 73.178406
0.852 2.0420001 1.4809999 37 0 0 0 73.18335
0.75300002 2.073 1.4680001 40 0 0 0 73.188293
1.006 1.964 1.507 33 0 0 0 73.193245
0.903 2.017 1.4910001 40 0 0 0 73.198189
0.80199999 2.052 1.473 38 0 0 0 73.203133
0.70200002 2.0799999 1.461 37 0 0 0 73.208092
0.95899999 1.985 1.498 35 0 0 0 73.213036
0.852 2.027 1.48 37 0 0 0 73.217987
0.75099999 2.059 1.464 41 0 0 0 73.222931
0.65100002 2.0799999 1.452 47 0 0 0 73.227875
0.912 2.0079999 1.493 38 0 0 0 73.232826
0.80400002 2.0450001 1.475 38 0 0 0 73.23777
0.70300001 2.072 1.46 41 0 0 0 73.242722
0.60000002 2.079 1.442 42 0 0 0 73.247665
0.86199999 2.0250001 1.483 38 0 0 0 73.252609
0.755 2.0599999 1.469 39 0 0 0 73.257561
0.653 2.079 1.4529999 44 0 0 0 73.262505
0.55199999 2.085 1.439 39 0 0 0 73.267448
0.815 2.046 1.478 36 0 0 0 73.2724
0.70499998 2.0699999 1.461 36 0 0 0 73.277344
0.60299999 2.0840001 1.4450001 40 0 0 0 73.282288
0.50199997 2.0810001 1.429 41 0 0 0 73.287239
0.76499999 2.0599999 1.469 34 0 0 0 73.292183
0.65600002 2.082 1.454 43 0 0 0 73.297134
0.55299997 2.086 1.436 38 0 0 0 73.302078
0.45300001 2.0810001 1.423 41 0 0 0 73.307022
0.71600002 2.0810001 1.464 34 0 0 0 73.311974
0.60500002 2.0880001 1.4450001 36 0 0 0 73.316917
0.50300002 2.0880001 1.428 40 0 0 0 73.321869
0.40400001 2.0780001 1.415 42 0 0 0 73.326813
0.66600001 2.096 1.457 38 0 0 0 73.331757
0.55299997 2.0899999 1.433 35 0 0 0 73.336716
0.45300001 2.0880001 1.418 41 0 0 0 73.34166
0.35600001 2.075 1.408 39 0 0 0 73.346603
0.61400002 2.1040001 1.447 36 0 0 0 73.351555
0.50400001 2.099 1.427 34 0 0 0 73.356499
0.40400001 2.0899999 1.4119999 39 0 0 0 73.361443
0.308 2.0680001 1.399 43 0 0 0 73.366394
0.56300002 2.1159999 1.439 38 0 0 0 73.371338
0.45500001 2.108 1.4220001 38 0 0 0 73.376289
0.35600001 2.095 1.408 42 0 0 0 73.381233
0.26100001 2.066 1.395 45 0 0 0 73.386177
0.51099998 2.1229999 1.429 36 0 0 0 73.391129
0.40400001 2.1110001 1.414 38 0 0 0 73.396072
0.30700001 2.096 1.403 43 0 0 0 73.401024
0.214 2.0639999 1.39 44 0 0 0 73.405968
0.461 2.1359999 1.424 37 0 0 0 73.410912
0.354 2.1140001 1.4069999 36 0 0 0 73.415863
0.25799999 2.0899999 1.393 42 0 0 0 73.420807
0.168 2.059 1.385 40 0 0 0 73.425751
0.40799999 2.1400001 1.414 37 0 0 0 73.430702
0.30399999 2.1129999 1.397 39 0 0 0 73.435646
0.20999999 2.085 1.385 42 0 0 0 73.44059
0.122 2.0569999 1.382 44 0 0 0 73.445541
0.35600001 2.148 1.408 37 0 0 0 73.450485
0.25400001 2.118 1.393 38 0 0 0 73.455437
0.163 2.0899999 1.3839999 41 0 0 0 73.460381
0.077 2.049 1.376 43 0 0 0 73.465324
0.30399999 2.1489999 1.397 38 0 0 0 73.470284
0.205 2.1199999 1.388 42 0 0 0 73.475227
0.115 2.0840001 1.377 42 0 0 0 73.480179
0.030999999 2.039 1.37 44 0 0 0 73.485123
0.252 2.1570001 1.392 38 0 0 0 73.490067
0.155 2.1259999 1.385 41 0 0 0 73.495018
0.067000002 2.0769999 1.37 43 0 0 0 73.499962
-0.012 2.0239999 1.3609999 49 0 0 0 73.504906
0.2 2.158 1.3839999 41 0 0 0 73.509857
0.105 2.119 1.375 39 0 0 0 73.514801
0.02 2.075 1.3660001 44 0 0 0 73.519745
-0.056000002 2.0090001 1.352 45 0 0 0 73.524696
0.148 2.1659999 1.381 39 0 0 0 73.52964
0.056000002 2.119 1.3710001 39 0 0 0 73.534592
-0.026000001 2.0650001 1.359 41 0 0 0 73.539536
-0.098999999 1.9809999 1.335 38 0 0 0 73.544479
0.096000001 2.1700001 1.376 41 0 0 0 73.549431
0.0070000002 2.1070001 1.359 40 0 0 0 73.554375
-0.071999997 2.0420001 1.3430001 35 0 0 0 73.559326
-0.142 1.976 1.334 41 0 0 0 73.56427
0.044 2.1670001 1.367 39 0 0 0 73.569214
-0.041999999 2.0999999 1.351 40 0 0 0 73.574165
-0.117 2.0320001 1.337 38 0 0 0 73.579109
-0.185 1.965 1.331 39 0 0 0 73.584053
-0.0070000002 2.158 1.357 38 0 0 0 73.589005
-0.090000004 2.0940001 1.346 41 0 0 0 73.593948
-0.163 2.02 1.33 38 0 0 0 73.598892
-0.226 1.951 1.325 40 0 0 0 73.603851
-0.059999999 2.1570001 1.351 42 0 0 0 74.014587
-0.138 2.079 1.335 38 0 0 0 74.019531
-0.207 2.006 1.322 39 0 0 0 74.024475
-0.26800001 1.937 1.3200001 39 0 0 0 74.029427
-0.111 2.145 1.339 37 0 0 0 74.03437
-0.18700001 2.0710001 1.329 39 0 0 0 74.039314
-0.25099999 1.993 1.316 37 0 0 0 74.044266
-0.308 1.916 1.311 40 0 0 0 74.04921
-0.162 2.1340001 1.329 38 0 0 0 74.054161
-0.235 2.0680001 1.327 40 0 0 0 74.059105
-0.296 1.984 1.313 39 0 0 0 74.064049
-0.34900001 1.908 1.311 43 0 0 0 74.069
-0.214 2.1270001 1.323 39 0 0 0 74.073944
-0.28200001 2.0550001 1.3200001 40 0 0 0 74.078896
-0.34 1.972 1.309 40 0 0 0 74.083839
-0.389 1.892 1.306 42 0 0 0 74.088783
-0.26499999 2.1210001 1.318 40 0 0 0 74.093735
-0.32800001 2.0380001 1.3099999 41 0 0 0 74.098679
-0.38299999 1.957 1.303 41 0 0 0 74.103622
-0.42699999 1.869 1.2970001 43 0 0 0 74.108574
-0.31600001 2.109 1.309 39 0 0 0 74.113518
-0.375 2.026 1.3049999 45 0 0 0 74.118462
-0.426 1.943 1.299 44 0 0 0 74.123413
-0.46599999 1.855 1.295 45 0 0 0 74.128357
-0.366 2.098 1.303 42 0 0 0 74.133308
-0.42199999 2.0150001 1.301 43 0 0 0 74.138252
-0.46700001 1.921 1.291 44 0 0 0 74.143204
-0.505 1.839 1.2920001 44 0 0 0 74.148155
-0.41600001 2.086 1.2970001 40 0 0 0 74.153099
-0.46700001 1.997 1.294 44 0 0 0 74.158051
-0.509 1.909 1.288 42 0 0 0 74.162994
-0.54100001 1.817 1.285 44 0 0 0 74.167938
-0.465 2.069 1.288 38 0 0 0 74.17289
-0.514 1.985 1.291 41 0 0 0 74.177834
-0.55000001 1.8890001 1.2819999 41 0 0 0 74.182777
-0.57700002 1.795 1.279 43 0 0 0 74.187729
-0.51599997 2.0610001 1.286 42 0 0 0 74.192673
-0.56 1.972 1.288 42 0 0 0 74.197617
-0.59100002 1.873 1.279 40 0 0 0 74.202568
-0.61299998 1.773 1.273 45 0 0 0 74.207512
-0.56599998 2.0469999 1.281 42 0 0 0 74.212463
-0.602 1.946 1.277 45 0 0 0 74.217407
-0.62900001 1.846 1.2690001 44 0 0 0 74.222351
-0.64899999 1.7539999 1.27 49 0 0 0 74.227303
-0.61400002 2.029 1.274 41 0 0 0 74.232246
-0.64200002 1.9170001 1.265 35 0 0 0 74.237198
-0.667 1.823 1.262 44 0 0 0 74.242142
-0.68400002 1.732 1.265 47 0 0 0 74.247086
-0.662 2.01 1.268 40 0 0 0 74.252037
-0.68599999 1.9 1.261 35 0 0 0 74.256981
-0.70700002 1.8049999 1.2589999 43 0 0 0 74.261925
-0.72000003 1.714 1.263 49 0 0 0 74.266876
-0.70899999 1.989 1.261 43 0 0 0 74.271828
-0.727 1.875 1.253 37 0 0 0 74.276772
-0.74400002 1.781 1.253 45 0 0 0 74.281723
-0.75199997 1.688 1.257 49 0 0 0 74.286667
-0.75599998 1.967 1.2539999 42 0 0 0 74.291618
-0.76999998 1.855 1.249 40 0 0 0 74.296562
-0.78399998 1.763 1.251 46 0 0 0 74.301506
-0.78500003 1.665 1.252 48 0 0 0 74.306458
-0.80199999 1.944 1.247 45 0 0 0 74.311401
-0.81099999 1.832 1.243 39 0 0 0 74.316353
-0.81599998 1.729 1.239 46 0 0 0 74.321297
-0.82099998 1.647 1.252 47 0 0 0 74.326241
-0.84799999 1.9220001 1.242 44 0 0 0 74.331192
-0.85000002 1.8049999 1.2359999 42 0 0 0 74.336136
-0.85600001 1.7130001 1.24 49 0 0 0 74.34108
-0.85100001 1.619 1.2460001 47 0 0 0 74.346031
-0.89300001 1.898 1.237 48 0 0 0 74.350975
-0.89300001 1.7869999 1.235 43 0 0 0 74.355919
-0.89099997 1.688 1.235 45 0 0 0 74.36087
-0.884 1.599 1.244 49 0 0 0 74.365814
-0.94 1.877 1.233 45 0 0 0 74.370766
-0.93300003 1.762 1.23 40 0 0 0 74.37571
-0.926 1.6619999 1.2309999 45 0 0 0 74.380653
-0.91500002 1.574 1.24 54 0 0 0 74.385605
-0.98400003 1.851 1.228 50 0 0 0 74.390549
-0.97299999 1.739 1.227 39 0 0 0 74.395508
-0.96200001 1.64 1.229 47 0 0 0 74.400452
-0.94800001 1.552 1.24 57 0 0 0 74.405396
-1.028 1.826 1.224 47 0 0 0 74.410347
-1.013 1.715 1.225 41 0 0 0 74.415291
-0.99900001 1.618 1.228 47 0 0 0 74.420235
-0.97799999 1.527 1.237 59 0 0 0 74.425186
-1.073 1.801 1.221 50 0 0 0 74.43013
-1.052 1.689 1.221 43 0 0 0 74.435074
-1.033 1.5930001 1.226 46 0 0 0 74.440025
-1.008 1.502 1.233 47 0 0 0 74.444969
-1.113 1.7690001 1.214 50 0 0 0 74.449921
-1.0880001 1.659 1.216 44 0 0 0 74.454865
-1.067 1.566 1.222 50 0 0 0 74.459808
-1.038 1.478 1.232 48 0 0 0 74.46476
-1.147 1.728 1.201 39 0 0 0 74.469704
-1.123 1.6289999 1.21 43 0 0 0 74.474655
-1.098 1.536 1.217 48 0 0 0 74.479599
-1.0650001 1.449 1.227 48 0 0 0 74.484543
-1.186 1.6950001 1.1950001 41 0 0 0 74.339287
-1.16 1.6 1.206 42 0 0 0 74.344231
-1.1289999 1.508 1.214 54 0 0 0 74.349182
-1.091 1.419 1.222 45 0 0 0 74.354126
-1.227 1.6670001 1.192 43 0 0 0 74.35907
-1.192 1.566 1.2 47 0 0 0 74.364021
-1.16 1.479 1.21 54 0 0 0 74.368965
-1.117 1.39 1.217 50 0 0 0 74.373917
-1.262 1.6289999 1.184 44 0 0 0 74.37886
-1.227 1.536 1.196 44 0 0 0 74.383804
-1.1900001 1.449 1.206 50 0 0 0 74.388763
-1.1440001 1.364 1.216 53 0 0 0 74.393707
-1.301 1.597 1.1799999 45 0 0 0 74.398659
-1.2589999 1.503 1.191 48 0 0 0 74.403603
-1.22 1.419 1.2029999 48 0 0 0 74.408546
-1.169 1.335 1.212 51 0 0 0 74.413498
-1.341 1.568 1.179 45 0 0 0 74.418442
-1.293 1.472 1.188 49 0 0 0 74.423386
-1.25 1.39 1.201 51 0 0 0 74.428337
-1.194 1.306 1.2079999 50 0 0 0 74.433281
-1.376 1.5319999 1.174 46 0 0 0 74.438225
-1.326 1.4400001 1.186 52 0 0 0 74.443176
-1.275 1.355 1.194 49 0 0 0 74.44812
-1.217 1.275 1.2029999 50 0 0 0 74.453072
-1.411 1.4960001 1.17 45 0 0 0 74.458015
-1.3559999 1.405 1.181 47 0 0 0 74.462959
-1.303 1.324 1.192 46 0 0 0 74.467911
-1.242 1.248 1.202 48 0 0 0 74.472855
-1.448 1.462 1.168 46 0 0 0 74.477806
-1.388 1.373 1.179 45 0 0 0 74.48275
-1.33 1.293 1.189 54 0 0 0 74.487694
-1.2690001 1.221 1.202 49 0 0 0 74.492645
-1.478 1.4220001 1.1619999 51 0 0 0 74.497589
-1.415 1.336 1.174 52 0 0 0 74.502533
-1.3559999 1.26 1.186 45 0 0 0 74.507484
-1.291 1.191 1.2 49 0 0 0 74.512428
-1.513 1.385 1.159 52 0 0 0 74.51738
-1.447 1.303 1.173 49 0 0 0 74.522331
-1.382 1.229 1.184 47 0 0 0 74.527275
-1.312 1.159 1.1950001 48 0 0 0 74.532227
-1.551 1.352 1.16 48 0 0 0 74.53717
-1.476 1.2690001 1.171 46 0 0 0 74.542114
-1.41 1.198 1.183 48 0 0 0 74.547066
-1.337 1.132 1.196 49 0 0 0 74.55201
-1.58 1.312 1.156 48 0 0 0 74.556961
-1.505 1.233 1.168 47 0 0 0 74.561905
-1.437 1.1670001 1.183 45 0 0 0 74.566849
-1.359 1.101 1.194 45 0 0 0 74.5718
-1.615 1.276 1.156 46 0 0 0 74.576744
-1.533 1.198 1.1670001 47 0 0 0 74.581688
-1.461 1.132 1.181 44 0 0 0 74.586639
-1.382 1.072 1.193 44 0 0 0 74.591583
-1.64 1.232 1.15 45 0 0 0 74.596527
-1.558 1.16 1.164 51 0 0 0 74.601479
-1.487 1.101 1.181 42 0 0 0 74.606422
-1.404 1.0420001 1.193 44 0 0 0 74.611374
-1.673 1.194 1.15 38 0 0 0 74.616318
-1.5829999 1.122 1.161 42 0 0 0 74.621262
-1.507 1.064 1.177 38 0 0 0 74.626213
-1.4220001 1.0089999 1.1900001 40 0 0 0 74.631157
-1.699 1.152 1.147 36 0 0 0 74.636108
-1.6109999 1.087 1.1619999 38 0 0 0 74.641052
-1.531 1.03 1.176 38 0 0 0 74.646004
-1.442 0.97799999 1.188 38 0 0 0 74.650955
-1.725 1.109 1.1440001 33 0 0 0 74.655899
-1.6289999 1.044 1.156 32 0 0 0 74.660843
-1.5549999 0.99699998 1.177 37 0 0 0 74.665794
-1.461 0.94599998 1.187 34 0 0 0 74.670738
-1.744 1.062 1.137 32 0 0 0 74.675682
-1.654 1.007 1.155 31 0 0 0 74.680634
-1.571 0.958 1.1720001 27 0 0 0 74.685577
-1.484 0.917 1.189 32 0 0 0 74.690529
-1.772 1.022 1.138 28 0 0 0 74.695473
-1.675 0.96700001 1.152 25 0 0 0 74.700417
-1.59 0.92199999 1.169 26 0 0 0 74.705368
-1.499 0.88300002 1.1849999 31 0 0 0 74.710312
-1.791 0.97500002 1.132 29 0 0 0 74.715263
-1.688 0.92299998 1.145 24 0 0 0 74.720207
-1.607 0.88499999 1.1670001 23 0 0 0 74.725151
-1.521 0.852 1.187 26 0 0 0 74.730103
-1.817 0.93400002 1.133 30 0 0 0 74.735046
-1.714 0.88599998 1.147 24 0 0 0 74.73999
-1.627 0.84899998 1.166 24 0 0 0 74.744942
-1.534 0.81800002 1.183 25 0 0 0 74.749886
-1.835 0.88800001 1.1289999 31 0 0 0 74.754829
-1.733 0.84500003 1.145 27 0 0 0 74.759781
-1.643 0.81099999 1.164 22 0 0 0 74.764725
-1.55 0.78399998 1.182 28 0 0 0 74.769676
-1.862 0.84600002 1.131 32 0 0 0 74.774628
-1.753 0.80500001 1.145 28 0 0 0 74.779572
-1.666 0.77700001 1.1670001 25 0 0 0 74.784523
-1.569 0.75199997 1.183 27 0 0 0 74.789467
-1.881 0.80000001 1.1289999 34 0 0 0 74.794418
-1.779 0.76700002 1.149 30 0 0 0 74.799362
-1.687 0.741 1.169 29 0 0 0 74.804306
-1.582 0.71799999 1.181 29 0 0 0 74.809258
-1.904 0.75599998 1.131 38 0 0 0 74.824463
-1.798 0.727 1.149 29 0 0 0 74.829407
-1.697 0.70099998 1.163 28 0 0 0 74.834358
-1.599 0.68400002 1.181 30 0 0 0 74.839302
-1.924 0.71100003 1.131 38 0 0 0 74.844246
-1.8099999 0.68300003 1.145 31 0 0 0 74.849197
-1.711 0.662 1.1619999 29 0 0 0 74.854141
-1.612 0.64999998 1.1799999 30 0 0 0 74.859085
-1.938 0.66299999 1.128 16 0 0 0 74.864037
-1.829 0.64200002 1.147 29 0 0 0 74.86898
-1.729 0.62599999 1.164 30 0 0 0 74.87394
-1.628 0.616 1.181 33 0 0 0 74.878883
-1.733 0.58399999 1.156 28 0 0 0 74.893723
-1.6390001 0.58099997 1.179 31 0 0 0 74.898674
-1.73 0.54000002 1.146 2 0 0 0 74.913513
-1.65 0.546 1.177 31 0 0 0 74.918457
-1.653 0.50800002 1.171 15 0 0 0 74.93824
-1.666 0.47299999 1.171 1 0 0 0 74.958031
-2.039 -0.55299997 1.163 52 0 0 0 75.291313
-1.9400001 -0.47 1.169 9 0 0 0 75.296265
-1.7640001 -0.30899999 1.179 1 0 0 0 75.306152
-2.029 -0.602 1.166 64 0 0 0 75.311104
-1.933 -0.51499999 1.1720001 42 0 0 0 75.316048
-1.86 -0.43700001 1.1849999 38 0 0 0 75.320992
-1.783 -0.352 1.193 15 0 0 0 75.325943
-2.0179999 -0.64999998 1.169 58 0 0 0 75.330887
-1.9349999 -0.56300002 1.1799999 45 0 0 0 75.335838
-1.857 -0.47999999 1.189 49 0 0 0 75.340782
-1.781 -0.39199999 1.196 48 0 0 0 75.345726
-2.0090001 -0.69999999 1.174 64 0 0 0 75.350677
-1.923 -0.60799998 1.181 45 0 0 0 75.355621
-1.847 -0.52100003 1.189 53 0 0 0 75.360573
-1.781 -0.433 1.199 57 0 0 0 75.365517
-1.992 -0.74599999 1.175 63 0 0 0 75.370461
-1.911 -0.65200001 1.183 53 0 0 0 75.37542
-1.842 -0.565 1.193 56 0 0 0 75.380363
-1.774 -0.472 1.2 60 0 0 0 75.385307
-1.978 -0.79400003 1.179 58 0 0 0 75.390259
-1.9 -0.69700003 1.1849999 54 0 0 0 75.395203
-1.835 -0.60699999 1.1950001 58 0 0 0 75.400146
-1.768 -0.51200002 1.2 57 0 0 0 75.405098
-1.964 -0.84200001 1.183 60 0 0 0 75.410042
-1.8890001 -0.74199998 1.189 51 0 0 0 75.414993
-1.826 -0.64999998 1.197 61 0 0 0 75.419937
-1.762 -0.55199999 1.202 60 0 0 0 75.424881
-1.9450001 -0.88800001 1.1849999 57 0 0 0 75.429832
-1.876 -0.787 1.191 54 0 0 0 75.434776
-1.819 -0.69400001 1.202 59 0 0 0 75.439728
-1.757 -0.59299999 1.204 62 0 0 0 75.444672
-1.928 -0.935 1.189 57 0 0 0 75.449615
-1.864 -0.83200002 1.1950001 47 0 0 0 75.454567
-1.8049999 -0.73500001 1.202 59 0 0 0 75.459511
-1.752 -0.634 1.2079999 62 0 0 0 75.464455
-1.9170001 -0.98500001 1.197 58 0 0 0 75.469406
-1.848 -0.87599999 1.198 45 0 0 0 75.47435
-1.795 -0.778 1.205 56 0 0 0 75.479294
-1.743 -0.67400002 1.209 59 0 0 0 75.484245
-1.8940001 -1.029 1.199 55 0 0 0 75.489189
-1.845 -0.926 1.209 65 0 0 0 75.494141
-1.7869999 -0.82200003 1.21 58 0 0 0 75.499084
-1.737 -0.71600002 1.2130001 60 0 0 0 75.504028
-1.875 -1.076 1.204 54 0 0 0 75.508987
-1.831 -0.97100002 1.215 61 0 0 0 75.513931
-1.776 -0.86500001 1.215 53 0 0 0 75.518883
-1.726 -0.75599998 1.214 58 0 0 0 75.523827
-1.858 -1.124 1.211 58 0 0 0 75.52877
-1.813 -1.015 1.2180001 59 0 0 0 75.533722
-1.76 -0.90600002 1.216 57 0 0 0 75.538666
-1.719 -0.79799998 1.2180001 55 0 0 0 75.54361
-1.832 -1.1670001 1.2130001 54 0 0 0 75.548561
-1.791 -1.057 1.22 59 0 0 0 75.553505
-1.74 -0.94599998 1.215 56 0 0 0 75.558449
-1.707 -0.83899999 1.22 58 0 0 0 75.5634
-1.806 -1.209 1.215 54 0 0 0 75.568344
-1.77 -1.099 1.222 58 0 0 0 75.573296
-1.729 -0.99000001 1.222 59 0 0 0 75.578239
-1.692 -0.87800002 1.22 57 0 0 0 75.583183
-1.78 -1.252 1.219 56 0 0 0 75.588135
-1.752 -1.1440001 1.227 59 0 0 0 75.593079
-1.712 -1.0319999 1.224 53 0 0 0 75.59803
-1.682 -0.921 1.224 63 0 0 0 75.602974
-1.755 -1.296 1.224 56 0 0 0 75.607918
-1.727 -1.1849999 1.228 54 0 0 0 75.612869
-1.7 -1.077 1.232 56 0 0 0 75.617813
-1.6670001 -0.96100003 1.226 63 0 0 0 75.622757
-1.726 -1.336 1.226 55 0 0 0 75.627708
-1.709 -1.229 1.235 55 0 0 0 75.632652
-1.679 -1.117 1.233 54 0 0 0 75.637604
-1.654 -1.003 1.23 63 0 0 0 75.642555
-1.7 -1.38 1.232 52 0 0 0 75.647499
-1.684 -1.27 1.238 53 0 0 0 75.652451
-1.6619999 -1.16 1.238 52 0 0 0 75.657394
-1.641 -1.045 1.234 66 0 0 0 75.662338
-1.676 -1.424 1.239 52 0 0 0 75.66729
-1.663 -1.314 1.244 53 0 0 0 75.672234
-1.6440001 -1.202 1.243 47 0 0 0 75.677185
-1.628 -1.0880001 1.239 62 0 0 0 75.682129
-1.65 -1.4680001 1.247 52 0 0 0 75.687073
-1.641 -1.358 1.251 52 0 0 0 75.692024
-1.627 -1.247 1.25 46 0 0 0 75.696968
-1.6160001 -1.133 1.2460001 56 0 0 0 75.701912
-1.622 -1.512 1.253 53 0 0 0 75.958702
-1.617 -1.401 1.257 48 0 0 0 75.963654
-1.603 -1.286 1.251 49 0 0 0 75.968597
-1.596 -1.1720001 1.247 50 0 0 0 75.973549
-1.59 -1.551 1.257 55 0 0 0 75.978493
-1.589 -1.4400001 1.26 52 0 0 0 75.983437
-1.579 -1.326 1.2539999 52 0 0 0 75.988396
-1.575 -1.212 1.248 47 0 0 0 75.99334
-1.557 -1.589 1.262 52 0 0 0 75.998291
-1.5599999 -1.479 1.263 53 0 0 0 76.003235
-1.564 -1.373 1.2640001 63 0 0 0 76.008179
-1.557 -1.2539999 1.253 43 0 0 0 76.01313
-1.525 -1.628 1.268 54 0 0 0 76.018074
-1.534 -1.521 1.2690001 61 0 0 0 76.023018
-1.538 -1.413 1.268 56 0 0 0 76.027969
-1.539 -1.2970001 1.258 45 0 0 0 76.032913
-1.495 -1.67 1.276 62 0 0 0 76.037857
-1.505 -1.5599999 1.274 53 0 0 0 76.042809
-1.513 -1.454 1.272 56 0 0 0 76.047752
-1.52 -1.34 1.263 41 0 0 0 76.052704
-1.4579999 -1.706 1.279 51 0 0 0 76.057648
-1.474 -1.598 1.279 50 0 0 0 76.062592
-1.494 -1.501 1.2819999 51 0 0 0 76.067543
-1.493 -1.377 1.263 40 0 0 0 76.072487
-1.423 -1.742 1.284 46 0 0 0 76.077438
-1.443 -1.637 1.284 51 0 0 0 76.082382
-1.4630001 -1.5369999 1.284 50 0 0 0 76.087326
-1.4859999 -1.433 1.28 53 0 0 0 76.092278
-1.392 -1.784 1.294 47 0 0 0 76.097221
-1.409 -1.673 1.2869999 51 0 0 0 76.102165
-1.4349999 -1.576 1.288 48 0 0 0 76.107117
-1.459 -1.472 1.2819999 50 0 0 0 76.112061
-1.349 -1.812 1.294 44 0 0 0 76.117004
-1.378 -1.712 1.293 45 0 0 0 76.121964
-1.405 -1.614 1.291 53 0 0 0 76.126907
-1.433 -1.512 1.285 48 0 0 0 76.131859
-1.3150001 -1.852 1.304 47 0 0 0 76.136803
-1.344 -1.748 1.298 48 0 0 0 76.141747
-1.373 -1.651 1.294 49 0 0 0 76.146698
-1.409 -1.5549999 1.29 48 0 0 0 76.151642
-1.276 -1.8839999 1.309 46 0 0 0 76.156593
-1.308 -1.7819999 1.302 43 0 0 0 76.161537
-1.342 -1.689 1.299 45 0 0 0 76.166481
-1.3789999 -1.592 1.2920001 44 0 0 0 76.171432
-1.233 -1.9119999 1.311 45 0 0 0 76.176376
-1.275 -1.822 1.3099999 50 0 0 0 76.18132
-1.311 -1.728 1.304 47 0 0 0 76.186272
-1.351 -1.633 1.296 51 0 0 0 76.191216
-1.197 -1.949 1.3200001 47 0 0 0 76.196159
-1.238 -1.855 1.314 45 0 0 0 76.201111
-1.278 -1.766 1.309 45 0 0 0 76.206055
-1.321 -1.6720001 1.3 49 0 0 0 76.211006
-1.155 -1.979 1.325 43 0 0 0 76.21595
-1.201 -1.89 1.3200001 43 0 0 0 76.220894
-1.244 -1.802 1.314 44 0 0 0 76.225845
-1.29 -1.712 1.304 47 0 0 0 76.230789
-1.113 -2.0079999 1.33 44 0 0 0 76.235741
-1.164 -1.925 1.326 44 0 0 0 76.240685
-1.21 -1.839 1.319 45 0 0 0 76.245628
-1.256 -1.747 1.306 44 0 0 0 76.250587
-1.073 -2.0420001 1.339 42 0 0 0 76.255531
-1.126 -1.96 1.3329999 47 0 0 0 76.260475
-1.175 -1.875 1.325 45 0 0 0 76.265427
-1.23 -1.795 1.317 45 0 0 0 76.27037
-1.03 -2.0699999 1.345 39 0 0 0 76.275314
-1.086 -1.99 1.337 42 0 0 0 76.280266
-1.141 -1.916 1.3329999 46 0 0 0 76.28521
-1.194 -1.831 1.319 45 0 0 0 76.290161
-0.98799998 -2.1010001 1.353 45 0 0 0 76.295105
-1.0470001 -2.0250001 1.345 43 0 0 0 76.300049
-1.103 -1.95 1.337 44 0 0 0 76.305
-1.161 -1.8710001 1.324 42 0 0 0 76.309944
-0.94499999 -2.1300001 1.36 47 0 0 0 76.314896
-1.006 -2.056 1.351 43 0 0 0 76.319839
-1.0650001 -1.985 1.3430001 41 0 0 0 76.324783
-1.125 -1.909 1.329 42 0 0 0 76.329735
-0.903 -2.1619999 1.37 51 0 0 0 76.334679
-0.96499997 -2.089 1.358 42 0 0 0 76.339622
-1.026 -2.0190001 1.349 44 0 0 0 76.344574
-1.09 -1.949 1.336 43 0 0 0 76.349518
-0.85699999 -2.1860001 1.375 48 0 0 0 76.354462
-0.92500001 -2.1259999 1.369 45 0 0 0 76.359413
-0.98799998 -2.059 1.358 43 0 0 0 76.364357
-1.05 -1.983 1.339 43 0 0 0 76.369308
-0.81099999 -2.2119999 1.383 46 0 0 0 76.374252
-0.88200003 -2.155 1.375 55 0 0 0 76.379204
-0.94599998 -2.089 1.362 40 0 0 0 76.384155
-1.0140001 -2.0250001 1.347 42 0 0 0 76.389099
-0.76599997 -2.24 1.392 44 0 0 0 76.394051
-0.838 -2.184 1.382 43 0 0 0 76.398994
-0.90700001 -2.1300001 1.373 44 0 0 0 76.403938
-0.97600001 -2.0650001 1.354 41 0 0 0 76.40889
-0.72000003 -2.267 1.401 48 0 0 0 76.413834
-0.792 -2.2119999 1.388 46 0 0 0 76.418777
-0.86299998 -2.1589999 1.377 43 0 0 0 76.423729
-0.93699998 -2.108 1.364 40 0 0 0 76.428673
-0.67199999 -2.2869999 1.4069999 45 0 0 0 76.327599
-0.74900001 -2.244 1.398 45 0 0 0 76.332542
-0.81900001 -2.191 1.383 44 0 0 0 76.337486
-0.89600003 -2.1459999 1.3710001 48 0 0 0 76.342438
-0.62300003 -2.303 1.41 43 0 0 0 76.347382
-0.70200002 -2.27 1.405 39 0 0 0 76.352333
-0.77600002 -2.2279999 1.3940001 45 0 0 0 76.357277
-0.85100001 -2.1789999 1.375 39 0 0 0 76.362221
-0.57599998 -2.332 1.4220001 39 0 0 0 76.367172
-0.65399998 -2.293 1.41 45 0 0 0 76.372124
-0.73299998 -2.2679999 1.406 50 0 0 0 76.377068
-0.80900002 -2.2190001 1.385 38 0 0 0 76.382019
-0.52700001 -2.3510001 1.429 42 0 0 0 76.386963
-0.60699999 -2.322 1.419 36 0 0 0 76.391907
-0.68300003 -2.2869999 1.406 39 0 0 0 76.396858
-0.76499999 -2.2579999 1.393 41 0 0 0 76.401802
-0.47799999 -2.3729999 1.438 39 0 0 0 76.406754
-0.55800003 -2.346 1.426 38 0 0 0 76.411697
-0.639 -2.3269999 1.419 38 0 0 0 76.416641
-0.72000003 -2.299 1.404 44 0 0 0 76.421593
-0.426 -2.382 1.4400001 39 0 0 0 76.426537
-0.509 -2.372 1.4349999 38 0 0 0 76.431488
-0.59100002 -2.358 1.428 36 0 0 0 76.436432
-0.67199999 -2.3329999 1.411 36 0 0 0 76.441376
-0.377 -2.4070001 1.452 39 0 0 0 76.446327
-0.46000001 -2.3970001 1.444 38 0 0 0 76.451271
-0.54100001 -2.3859999 1.4349999 37 0 0 0 76.456215
-0.62400001 -2.3699999 1.42 33 0 0 0 76.461166
-0.32600001 -2.418 1.457 42 0 0 0 76.46611
-0.40799999 -2.4130001 1.448 37 0 0 0 76.471054
-0.48899999 -2.408 1.439 36 0 0 0 76.476006
-0.574 -2.404 1.427 37 0 0 0 76.480949
-0.27399999 -2.431 1.4630001 45 0 0 0 76.485901
-0.35600001 -2.434 1.456 38 0 0 0 76.490845
-0.43700001 -2.4300001 1.444 37 0 0 0 76.495789
-0.52100003 -2.431 1.432 37 0 0 0 76.500748
-0.223 -2.454 1.476 41 0 0 0 76.505692
-0.30399999 -2.4519999 1.462 38 0 0 0 76.510643
-0.38499999 -2.457 1.4529999 36 0 0 0 76.515587
-0.46900001 -2.4630001 1.4400001 33 0 0 0 76.520531
-0.171 -2.4679999 1.485 39 0 0 0 76.525482
-0.252 -2.473 1.471 34 0 0 0 76.530426
-0.33199999 -2.487 1.464 39 0 0 0 76.53537
-0.41499999 -2.494 1.447 32 0 0 0 76.540321
-0.118 -2.48 1.493 39 0 0 0 76.545265
-0.198 -2.4949999 1.4809999 37 0 0 0 76.550209
-0.278 -2.5150001 1.474 34 0 0 0 76.555161
-0.36000001 -2.523 1.454 31 0 0 0 76.560104
-0.064999998 -2.4920001 1.5 39 0 0 0 76.565056
-0.145 -2.517 1.492 39 0 0 0 76.57
-0.223 -2.5320001 1.478 33 0 0 0 76.574944
-0.30500001 -2.562 1.4680001 31 0 0 0 76.579895
-0.012 -2.4979999 1.506 36 0 0 0 76.584839
-0.090000004 -2.5309999 1.498 36 0 0 0 76.58979
-0.168 -2.566 1.494 45 0 0 0 76.594734
-0.24699999 -2.5880001 1.475 48 0 0 0 76.599678
0.041000001 -2.5090001 1.515 42 0 0 0 76.60463
-0.034000002 -2.549 1.5089999 49 0 0 0 76.609573
-0.11 -2.5810001 1.498 38 0 0 0 76.614517
-0.18799999 -2.619 1.485 31 0 0 0 76.619469
0.094999999 -2.5150001 1.522 50 0 0 0 76.624413
0.021 -2.5599999 1.515 39 0 0 0 76.629356
-0.052000001 -2.6029999 1.507 32 0 0 0 76.634315
-0.12899999 -2.651 1.497 31 0 0 0 76.639259
0.149 -2.5179999 1.528 40 0 0 0 76.644211
0.077 -2.5680001 1.52 35 0 0 0 76.649155
0.0060000001 -2.628 1.5190001 33 0 0 0 76.654099
-0.067000002 -2.6830001 1.5089999 32 0 0 0 76.65905
0.20299999 -2.526 1.5369999 34 0 0 0 76.663994
0.13500001 -2.586 1.5319999 33 0 0 0 76.668945
0.066 -2.6429999 1.527 32 0 0 0 76.673889
-0.0040000002 -2.711 1.5190001 32 0 0 0 76.678833
0.25799999 -2.533 1.546 39 0 0 0 76.683784
0.192 -2.5929999 1.538 35 0 0 0 76.688728
0.126 -2.661 1.536 33 0 0 0 76.693672
0.057999998 -2.737 1.53 33 0 0 0 76.698624
0.31299999 -2.533 1.552 37 0 0 0 76.703568
0.25099999 -2.6099999 1.551 33 0 0 0 76.708511
0.18799999 -2.6819999 1.5470001 33 0 0 0 76.713463
0.124 -2.7639999 1.5420001 33 0 0 0 76.718407
0.368 -2.5339999 1.559 34 0 0 0 76.723358
0.30899999 -2.6159999 1.558 32 0 0 0 76.728302
0.25099999 -2.6960001 1.556 33 0 0 0 76.733246
0.191 -2.789 1.553 33 0 0 0 76.738197
0.42399999 -2.5420001 1.571 33 0 0 0 76.743141
0.37 -2.6289999 1.5700001 30 0 0 0 76.748093
0.31400001 -2.7160001 1.569 33 0 0 0 76.753036
0.259 -2.823 1.571 38 0 0 0 76.75798
0.47999999 -2.5450001 1.581 34 0 0 0 76.762939
0.43000001 -2.6359999 1.579 31 0 0 0 76.767883
0.38 -2.743 1.587 34 0 0 0 76.772827
0.32800001 -2.835 1.576 86 0 0 0 76.777779
0.53600001 -2.5439999 1.589 35 0 0 0 76.782722
0.491 -2.6440001 1.59 31 0 0 0 76.787666
0.44499999 -2.753 1.596 36 0 0 0 76.792618
0.39399999 -2.825 1.571 114 0 0 0 76.797562
0.59299999 -2.5480001 1.601 36 0 0 0 76.332664
0.55299997 -2.6530001 1.601 32 0 0 0 76.337608
0.51300001 -2.7690001 1.608 55 0 0 0 76.34256
0.46000001 -2.8099999 1.563 111 0 0 0 76.347504
0.64899999 -2.5439999 1.607 34 0 0 0 76.352448
0.61500001 -2.6589999 1.613 31 0 0 0 76.357399
0.579 -2.7720001 1.614 91 0 0 0 76.362343
0.52499998 -2.793 1.556 116 0 0 0 76.367294
0.70599997 -2.54 1.6160001 33 0 0 0 76.372238
0.67799997 -2.665 1.624 32 0 0 0 76.377182
0.64300001 -2.7639999 1.615 113 0 0 0 76.382133
0.59100002 -2.78 1.551 107 0 0 0 76.387077
0.76200002 -2.536 1.625 33 0 0 0 76.392021
0.741 -2.6659999 1.6339999 35 0 0 0 76.396973
0.70499998 -2.747 1.612 121 0 0 0 76.401917
0.65600002 -2.7679999 1.548 106 0 0 0 76.40686
0.81800002 -2.5280001 1.632 34 0 0 0 76.411819
0.80299997 -2.6630001 1.642 38 0 0 0 76.416763
0.76800001 -2.734 1.6109999 114 0 0 0 76.421715
0.72000003 -2.7460001 1.541 98 0 0 0 76.426659
0.87300003 -2.5150001 1.636 34 0 0 0 76.431602
0.86799997 -2.668 1.656 42 0 0 0 76.436554
0.83099997 -2.7190001 1.61 109 0 0 0 76.441498
0.78600001 -2.7349999 1.54 111 0 0 0 76.446449
0.93199998 -2.5150001 1.65 35 0 0 0 76.451393
0.93199998 -2.6630001 1.663 52 0 0 0 76.456337
0.89300001 -2.701 1.609 114 0 0 0 76.461288
0.85299999 -2.721 1.539 113 0 0 0 76.466232
0.98900002 -2.5050001 1.658 34 0 0 0 76.471176
0.995 -2.655 1.671 58 0 0 0 76.476128
0.95700002 -2.688 1.6109999 107 0 0 0 76.481071
0.91799998 -2.704 1.536 108 0 0 0 76.486015
1.048 -2.4990001 1.669 33 0 0 0 76.490967
1.058 -2.6470001 1.679 84 0 0 0 76.495911
1.02 -2.6700001 1.6109999 118 0 0 0 76.500862
0.98199999 -2.6830001 1.533 111 0 0 0 76.505806
1.103 -2.483 1.675 33 0 0 0 76.51075
1.1210001 -2.6359999 1.687 83 0 0 0 76.515701
1.084 -2.655 1.614 111 0 0 0 76.520645
1.05 -2.6700001 1.535 111 0 0 0 76.525597
1.16 -2.47 1.683 33 0 0 0 76.53054
1.183 -2.619 1.691 94 0 0 0 76.535484
1.149 -2.642 1.618 111 0 0 0 76.540443
1.1160001 -2.652 1.535 107 0 0 0 76.545387
1.212 -2.448 1.686 35 0 0 0 76.550331
1.245 -2.6059999 1.699 89 0 0 0 76.555283
1.212 -2.622 1.6210001 103 0 0 0 76.560226
1.181 -2.631 1.535 108 0 0 0 76.56517
1.271 -2.438 1.698 34 0 0 0 76.570122
1.308 -2.5899999 1.706 98 0 0 0 76.575066
1.278 -2.608 1.626 114 0 0 0 76.580017
1.252 -2.6210001 1.541 106 0 0 0 76.584961
1.326 -2.4189999 1.704 34 0 0 0 76.589905
1.37 -2.5710001 1.711 89 0 0 0 76.594856
1.345 -2.592 1.632 111 0 0 0 76.5998
1.321 -2.6029999 1.545 100 0 0 0 76.604752
1.382 -2.3989999 1.71 34 0 0 0 76.609695
1.438 -2.562 1.724 104 0 0 0 76.614639
1.4119999 -2.576 1.6390001 105 0 0 0 76.619591
1.3890001 -2.5840001 1.548 109 0 0 0 76.624535
1.437 -2.378 1.717 35 0 0 0 76.629478
1.502 -2.5439999 1.733 92 0 0 0 76.63443
1.479 -2.559 1.647 106 0 0 0 76.639374
1.459 -2.566 1.554 100 0 0 0 76.644318
1.4960001 -2.362 1.728 35 0 0 0 76.649269
1.569 -2.53 1.745 105 0 0 0 76.654213
1.549 -2.543 1.656 111 0 0 0 76.659164
1.5319999 -2.5510001 1.562 106 0 0 0 76.664108
1.551 -2.3410001 1.737 35 0 0 0 76.66906
1.632 -2.5090001 1.7539999 112 0 0 0 76.674011
1.618 -2.527 1.666 128 0 0 0 76.678955
1.603 -2.5309999 1.568 112 0 0 0 76.683907
1.604 -2.3150001 1.742 57 0 0 0 76.68885
1.61 -2.359 1.6720001 67 0 0 0 76.693794
1.628 -2.4200001 1.617 43 0 0 0 76.698746
1.663 -2.493 1.566 66 0 0 0 76.70369
1.663 -2.2969999 1.7539999 52 0 0 0 76.708633
1.664 -2.3269999 1.673 99 0 0 0 76.713585
1.655 -2.342 1.587 104 0 0 0 76.718529
1.647 -2.3440001 1.492 99 0 0 0 76.723473
1.717 -2.2690001 1.76 42 0 0 0 76.728424
1.7359999 -2.319 1.692 102 0 0 0 76.733368
1.724 -2.3239999 1.598 104 0 0 0 76.738319
1.7180001 -2.326 1.502 112 0 0 0 76.743263
1.775 -2.247 1.771 37 0 0 0 76.748207
1.8 -2.2969999 1.7029999 102 0 0 0 76.753159
1.791 -2.302 1.608 109 0 0 0 76.758102
1.7920001 -2.309 1.515 107 0 0 0 76.763054
1.826 -2.2149999 1.775 37 0 0 0 76.767998
1.87 -2.283 1.721 105 0 0 0 76.772942
1.8660001 -2.29 1.626 102 0 0 0 76.777893
1.868 -2.2920001 1.528 106 0 0 0 76.782837
1.877 -2.1830001 1.78 37 0 0 0 76.787781
1.942 -2.267 1.739 109 0 0 0 76.792732
1.939 -2.2709999 1.641 104 0 0 0 76.797684
1.941 -2.27 1.541 103 0 0 0 76.802628
1.928 -2.1500001 1.785 38 0 0 0 76.977463
2.0120001 -2.2490001 1.757 113 0 0 0 76.982414
2.01 -2.2490001 1.655 95 0 0 0 76.987358
2.0209999 -2.253 1.557 95 0 0 0 76.992302
1.982 -2.1199999 1.794 38 0 0 0 76.997253
2.0829999 -2.2279999 1.774 109 0 0 0 77.002197
2.089 -2.2320001 1.675 100 0 0 0 77.007149
2.099 -2.2309999 1.572 104 0 0 0 77.012093
2.0309999 -2.0840001 1.798 37 0 0 0 77.017036
2.194 -2.2449999 1.823 42 0 0 0 77.021996
2.2939999 -2.3399999 1.7920001 125 0 0 0 77.026939
2.3069999 -2.336 1.681 131 0 0 0 77.031891
2.085 -2.052 1.806 38 0 0 0 77.036835
2.2539999 -2.2079999 1.831 38 0 0 0 77.041779
2.3789999 -2.3180001 1.813 112 0 0 0 77.04673
2.3989999 -2.3169999 1.704 110 0 0 0 77.051674
2.132 -2.0120001 1.809 38 0 0 0 77.056618
2.3150001 -2.1700001 1.8380001 43 0 0 0 77.061569
2.4719999 -2.302 1.84 106 0 0 0 77.066513
2.4920001 -2.293 1.726 110 0 0 0 77.071457
2.1830001 -1.976 1.816 38 0 0 0 77.076408
2.375 -2.131 1.847 39 0 0 0 77.081352
2.5569999 -2.2739999 1.8609999 104 0 0 0 77.086304
2.5869999 -2.27 1.75 111 0 0 0 77.091248
2.237 -1.941 1.826 41 0 0 0 77.096191
2.424 -2.082 1.848 42 0 0 0 77.101143
2.645 -2.2460001 1.8839999 81 0 0 0 77.106087
2.6930001 -2.2509999 1.781 113 0 0 0 77.111038
2.28 -1.898 1.827 39 0 0 0 77.115982
2.4820001 -2.0380001 1.854 40 0 0 0 77.120926
2.73 -2.2130001 1.905 58 0 0 0 77.125877
2.79 -2.2219999 1.806 108 0 0 0 77.130821
2.3199999 -1.851 1.827 39 0 0 0 77.135765
2.5339999 -1.99 1.858 40 0 0 0 77.140717
2.7969999 -2.1630001 1.913 49 0 0 0 77.14566
2.8959999 -2.1949999 1.836 89 0 0 0 77.150604
2.3610001 -1.803 1.827 39 0 0 0 77.155563
2.586 -1.9400001 1.8609999 38 0 0 0 77.160507
2.852 -2.102 1.913 38 0 0 0 77.165459
3.0020001 -2.164 1.865 99 0 0 0 77.170403
2.4100001 -1.763 1.835 40 0 0 0 77.175346
2.6400001 -1.891 1.867 42 0 0 0 77.180298
2.9159999 -2.0469999 1.92 41 0 0 0 77.185242
3.1199999 -2.1370001 1.902 94 0 0 0 77.190193
2.447 -1.712 1.8329999 39 0 0 0 77.195137
2.697 -1.844 1.877 41 0 0 0 77.200081
2.9690001 -1.985 1.921 39 0 0 0 77.205032
3.2290001 -2.1010001 1.933 101 0 0 0 77.209976
2.4949999 -1.669 1.84 39 0 0 0 77.21492
2.7490001 -1.7920001 1.882 40 0 0 0 77.219872
3.029 -1.926 1.928 37 0 0 0 77.224815
3.346 -2.0650001 1.97 73 0 0 0 77.229759
2.5350001 -1.622 1.8430001 38 0 0 0 77.234711
2.799 -1.739 1.888 41 0 0 0 77.239655
3.079 -1.8609999 1.929 37 0 0 0 77.244606
3.448 -2.016 1.997 50 0 0 0 77.24955
2.5810001 -1.576 1.85 39 0 0 0 77.254494
2.858 -1.6900001 1.899 40 0 0 0 77.259445
3.1389999 -1.8 1.937 38 0 0 0 77.264389
3.493 -1.932 1.992 37 0 0 0 77.269341
2.6199999 -1.525 1.853 38 0 0 0 77.274284
2.901 -1.631 1.901 40 0 0 0 77.279228
3.1930001 -1.735 1.941 39 0 0 0 77.284187
3.5580001 -1.857 1.998 30 0 0 0 77.289131
2.6619999 -1.475 1.857 39 0 0 0 77.294075
2.944 -1.5700001 1.902 41 0 0 0 77.299026
3.2520001 -1.671 1.949 38 0 0 0 77.30397
3.6129999 -1.778 2.0009999 32 0 0 0 77.308914
2.698 -1.423 1.859 40 0 0 0 77.313866
2.984 -1.508 1.903 40 0 0 0 77.31881
3.303 -1.602 1.955 36 0 0 0 77.323761
3.671 -1.699 2.006 35 0 0 0 77.328705
2.7449999 -1.375 1.868 40 0 0 0 77.333649
3.023 -1.4450001 1.903 39 0 0 0 77.3386
3.3540001 -1.533 1.96 38 0 0 0 77.343544
3.723 -1.6160001 2.01 36 0 0 0 77.348495
2.7850001 -1.322 1.873 40 0 0 0 77.353439
3.0669999 -1.385 1.909 37 0 0 0 77.358383
3.402 -1.462 1.964 37 0 0 0 77.363335
3.7880001 -1.539 2.0209999 34 0 0 0 77.368279
2.8169999 -1.266 1.874 40 0 0 0 77.373222
3.1159999 -1.325 1.918 36 0 0 0 77.378174
3.457 -1.392 1.974 33 0 0 0 77.383118
3.848 -1.457 2.03 32 0 0 0 77.388062
2.8529999 -1.211 1.877 42 0 0 0 77.393013
3.154 -1.2589999 1.92 36 0 0 0 77.397957
3.493 -1.3150001 1.973 35 0 0 0 77.402908
3.8989999 -1.3710001 2.036 34 0 0 0 77.40786
2.905 -1.161 1.891 45 0 0 0 77.412804
3.1930001 -1.193 1.923 37 0 0 0 77.417755
3.5350001 -1.238 1.976 35 0 0 0 77.422699
3.9330001 -1.277 2.0320001 33 0 0 0 77.42765
2.9690001 -1.114 1.913 22 0 0 0 77.432594
3.2279999 -1.126 1.926 40 0 0 0 77.437538
3.569 -1.1569999 1.976 33 0 0 0 77.44249
3.9760001 -1.187 2.0369999 34 0 0 0 77.447433
2.9949999 -1.053 1.9119999 10 0 0 0 77.92984
3.279 -1.063 1.938 51 0 0 0 77.934792
3.599 -1.077 1.975 33 0 0 0 77.939735
4.0149999 -1.095 2.039 31 0 0 0 77.944687
3.0079999 -0.98699999 1.903 40 0 0 0 77.949631
3.2909999 -0.98699999 1.927 40 0 0 0 77.954575
3.6400001 -0.99900001 1.9809999 36 0 0 0 77.959526
4.046 -1.001 2.04 28 0 0 0 77.96447
3.0739999 -0.93800002 1.928 9 0 0 0 77.969421
3.325 -0.91799998 1.933 39 0 0 0 77.974365
3.6689999 -0.917 1.9809999 31 0 0 0 77.979309
4.0809999 -0.90700001 2.043 30 0 0 0 77.984261
3.073 -0.86699998 1.9119999 28 0 0 0 77.989204
3.352 -0.847 1.933 38 0 0 0 77.994148
3.7030001 -0.83499998 1.9859999 32 0 0 0 77.999107
4.1030002 -0.81 2.04 27 0 0 0 78.004051
3.069 -0.796 1.8940001 39 0 0 0 78.008995
3.375 -0.77399999 1.932 36 0 0 0 78.013947
3.7360001 -0.75199997 1.99 33 0 0 0 78.01889
4.1300001 -0.713 2.0420001 25 0 0 0 78.023842
3.1010001 -0.73400003 1.899 40 0 0 0 78.028786
3.3940001 -0.69800001 1.929 34 0 0 0 78.03373
3.756 -0.667 1.988 34 0 0 0 78.038681
4.152 -0.61500001 2.0420001 24 0 0 0 78.043625
3.1259999 -0.67000002 1.901 44 0 0 0 78.048576
3.4170001 -0.625 1.931 34 0 0 0 78.05352
3.7720001 -0.57999998 1.985 35 0 0 0 78.058464
4.1739998 -0.51800001 2.043 23 0 0 0 78.063416
3.1389999 -0.60399997 1.896 41 0 0 0 78.068359
3.4349999 -0.54900002 1.929 34 0 0 0 78.073303
3.7850001 -0.49399999 1.982 35 0 0 0 78.078255
4.1799998 -0.417 2.0380001 17 0 0 0 78.083199
3.154 -0.53799999 1.8940001 39 0 0 0 78.088142
3.461 -0.47600001 1.934 34 0 0 0 78.093094
3.803 -0.40799999 1.983 31 0 0 0 78.098038
4.1950002 -0.31900001 2.039 16 0 0 0 78.102989
3.1760001 -0.47299999 1.896 40 0 0 0 78.107933
3.48 -0.40000001 1.9349999 34 0 0 0 78.112877
3.816 -0.32100001 1.982 27 0 0 0 78.117828
4.2059999 -0.22 2.039 24 0 0 0 78.122772
3.2 -0.40599999 1.9 37 0 0 0 78.127731
3.4890001 -0.322 1.931 33 0 0 0 78.132675
3.8210001 -0.233 1.978 31 0 0 0 78.137619
4.2069998 -0.12 2.0350001 25 0 0 0 78.14257
3.204 -0.33700001 1.892 34 0 0 0 78.147514
3.5009999 -0.244 1.9299999 33 0 0 0 78.152458
3.819 -0.14300001 1.971 30 0 0 0 78.15741
4.1960001 -0.018999999 2.026 28 0 0 0 78.162354
3.2320001 -0.27000001 1.9 37 0 0 0 78.167297
3.516 -0.167 1.931 32 0 0 0 78.172249
3.822 -0.056000002 1.9680001 29 0 0 0 78.177193
4.1950002 0.079999998 2.023 28 0 0 0 78.182144
3.237 -0.20100001 1.895 37 0 0 0 78.187088
3.5179999 -0.088 1.926 31 0 0 0 78.192032
3.8210001 0.030999999 1.964 28 0 0 0 78.196983
4.1789999 0.17900001 2.0150001 30 0 0 0 78.201927
3.233 -0.131 1.885 34 0 0 0 78.206879
3.5380001 -0.0099999998 1.932 32 0 0 0 78.211823
3.822 0.12 1.961 28 0 0 0 78.216766
4.1690001 0.27700001 2.0109999 30 0 0 0 78.221718
3.2460001 -0.061999999 1.886 32 0 0 0 78.226662
3.5320001 0.067000002 1.925 33 0 0 0 78.231606
3.813 0.207 1.956 30 0 0 0 78.236557
4.1440001 0.375 2 27 0 0 0 78.241501
3.2509999 0.0070000002 1.8839999 32 0 0 0 78.246445
3.53 0.146 1.921 33 0 0 0 78.251404
3.816 0.29499999 1.957 27 0 0 0 78.256348
4.1339998 0.472 1.999 32 0 0 0 78.261299
3.2539999 0.077 1.88 33 0 0 0 78.266243
3.5339999 0.226 1.921 32 0 0 0 78.271187
3.8039999 0.384 1.951 31 0 0 0 78.276138
4.1059999 0.56900001 1.989 32 0 0 0 78.281082
3.27 0.149 1.885 32 0 0 0 78.286034
3.5209999 0.30500001 1.9119999 33 0 0 0 78.290977
3.7880001 0.47 1.9450001 32 0 0 0 78.295921
4.0900002 0.66600001 1.9859999 34 0 0 0 78.300873
3.2650001 0.22 1.878 33 0 0 0 78.305817
3.5179999 0.384 1.91 33 0 0 0 78.31076
3.7739999 0.55699998 1.9400001 31 0 0 0 78.315712
4.0640001 0.75999999 1.98 36 0 0 0 78.320656
3.256 0.28999999 1.87 33 0 0 0 78.3256
3.5109999 0.463 1.9069999 34 0 0 0 78.330551
3.7579999 0.64399999 1.936 33 0 0 0 78.335495
4.0250001 0.852 1.969 34 0 0 0 78.340446
3.2609999 0.361 1.872 34 0 0 0 78.34539
3.507 0.542 1.906 34 0 0 0 78.350334
3.7320001 0.72799999 1.927 30 0 0 0 78.355286
3.99 0.94300002 1.961 30 0 0 0 78.360229
3.256 0.433 1.867 34 0 0 0 78.365181
3.4909999 0.62 1.9 34 0 0 0 78.370125
3.7119999 0.81300002 1.923 32 0 0 0 78.375069
3.9619999 1.035 1.957 31 0 0 0 78.380028
3.2520001 0.50400001 1.865 33 0 0 0 78.384972
3.477 0.699 1.895 34 0 0 0 78.389915
3.691 0.898 1.919 27 0 0 0 78.394867
3.9159999 1.124 1.946 31 0 0 0 78.399811
3.25 0.57700002 1.864 33 0 0 0 78.313057
3.4549999 0.77600002 1.887 34 0 0 0 78.318001
3.6500001 0.97799999 1.906 30 0 0 0 78.322945
3.8800001 1.2130001 1.9400001 28 0 0 0 78.327896
3.24 0.64899999 1.86 34 0 0 0 78.33284
3.437 0.85299999 1.883 34 0 0 0 78.337791
3.6210001 1.0599999 1.899 32 0 0 0 78.342735
3.835 1.299 1.931 29 0 0 0 78.347679
3.2290001 0.72100002 1.855 33 0 0 0 78.352631
3.4230001 0.93199998 1.881 34 0 0 0 78.357574
3.5899999 1.142 1.893 33 0 0 0 78.362518
3.7850001 1.382 1.921 25 0 0 0 78.36747
3.2279999 0.796 1.857 33 0 0 0 78.372414
3.402 1.0089999 1.877 34 0 0 0 78.377357
3.5539999 1.221 1.886 32 0 0 0 78.382309
3.7290001 1.461 1.908 27 0 0 0 78.387253
3.2049999 0.86400002 1.848 32 0 0 0 78.392204
3.3740001 1.084 1.87 33 0 0 0 78.397156
3.5239999 1.302 1.882 32 0 0 0 78.4021
3.684 1.545 1.902 27 0 0 0 78.407051
3.1930001 0.93699998 1.846 31 0 0 0 78.411995
3.3499999 1.16 1.8660001 33 0 0 0 78.416946
3.4809999 1.378 1.873 30 0 0 0 78.42189
3.6270001 1.622 1.891 27 0 0 0 78.426834
3.1789999 1.01 1.844 31 0 0 0 78.431786
3.3199999 1.235 1.859 34 0 0 0 78.436729
3.4460001 1.4579999 1.868 30 0 0 0 78.441673
3.575 1.701 1.883 27 0 0 0 78.446625
3.1589999 1.081 1.839 32 0 0 0 78.451569
3.2869999 1.308 1.852 34 0 0 0 78.456512
3.408 1.535 1.863 33 0 0 0 78.461464
3.517 1.776 1.873 26 0 0 0 78.466408
3.1370001 1.152 1.834 30 0 0 0 78.471359
3.253 1.381 1.844 32 0 0 0 78.476303
3.362 1.608 1.855 31 0 0 0 78.481247
3.4449999 1.842 1.8559999 32 0 0 0 78.486198
3.1159999 1.224 1.829 31 0 0 0 78.491142
3.207 1.447 1.831 31 0 0 0 78.496094
3.3069999 1.677 1.842 30 0 0 0 78.501038
3.3870001 1.914 1.849 32 0 0 0 78.505981
3.089 1.2920001 1.823 32 0 0 0 78.510933
3.171 1.518 1.825 32 0 0 0 78.515877
3.2579999 1.747 1.834 28 0 0 0 78.520821
3.3069999 1.972 1.829 31 0 0 0 78.52578
3.062 1.362 1.818 32 0 0 0 78.530724
3.132 1.5880001 1.818 31 0 0 0 78.535667
3.194 1.808 1.818 32 0 0 0 78.540619
3.2449999 2.039 1.8200001 30 0 0 0 78.545563
3.0250001 1.427 1.807 32 0 0 0 78.550514
3.0880001 1.655 1.809 30 0 0 0 78.555458
3.138 1.874 1.808 33 0 0 0 78.560402
3.1800001 2.1040001 1.8099999 32 0 0 0 78.565353
2.9920001 1.495 1.799 32 0 0 0 78.570297
3.0409999 1.72 1.798 30 0 0 0 78.575249
3.0769999 1.9349999 1.795 30 0 0 0 78.580193
3.096 2.154 1.79 36 0 0 0 78.585136
2.957 1.561 1.791 31 0 0 0 78.590088
2.9890001 1.781 1.786 30 0 0 0 78.595032
3.013 1.994 1.781 32 0 0 0 78.599976
3.0339999 2.2179999 1.783 32 0 0 0 78.604927
2.9189999 1.626 1.783 32 0 0 0 78.609871
2.9400001 1.844 1.776 31 0 0 0 78.614815
2.95 2.0510001 1.768 31 0 0 0 78.619766
2.95 2.2639999 1.7640001 28 0 0 0 78.62471
2.8800001 1.6900001 1.774 31 0 0 0 78.629662
2.8929999 1.908 1.7690001 32 0 0 0 78.634605
2.892 2.1099999 1.76 29 0 0 0 78.639549
2.8800001 2.3169999 1.7539999 29 0 0 0 78.644501
2.8410001 1.753 1.767 30 0 0 0 78.649445
2.845 1.97 1.762 30 0 0 0 78.654404
2.8180001 2.158 1.742 31 0 0 0 78.659348
2.8 2.362 1.738 29 0 0 0 78.664291
2.806 1.821 1.763 31 0 0 0 78.669243
2.78 2.02 1.745 31 0 0 0 78.674187
2.757 2.2130001 1.732 32 0 0 0 78.679131
2.7249999 2.4100001 1.726 29 0 0 0 78.684082
2.767 1.885 1.757 32 0 0 0 78.689026
2.7249999 2.0780001 1.734 31 0 0 0 78.69397
2.697 2.27 1.724 32 0 0 0 78.698921
2.6559999 2.461 1.7180001 31 0 0 0 78.703865
2.714 1.943 1.744 31 0 0 0 78.708817
2.677 2.1400001 1.729 33 0 0 0 78.71376
2.6210001 2.312 1.707 31 0 0 0 78.718704
2.5799999 2.5050001 1.705 32 0 0 0 78.723656
2.6689999 2.003 1.7359999 33 0 0 0 78.7286
2.6159999 2.191 1.717 31 0 0 0 78.733551
2.5610001 2.365 1.7 31 0 0 0 78.738495
2.5090001 2.55 1.696 32 0 0 0 78.743439
2.6170001 2.059 1.725 33 0 0 0 78.74839
2.55 2.237 1.702 31 0 0 0 78.753334
2.493 2.4119999 1.689 33 0 0 0 78.758278
2.428 2.585 1.682 31 0 0 0 78.763229
2.566 2.115 1.715 32 0 0 0 78.768173
2.51 2.3050001 1.705 33 0 0 0 78.773117
2.428 2.4579999 1.6799999 30 0 0 0 78.778069
2.3510001 2.622 1.671 36 0 0 0 78.783012
2.5209999 2.175 1.71 32 0 0 0 78.318832
2.4449999 2.3510001 1.692 35 0 0 0 78.323776
2.359 2.5020001 1.67 33 0 0 0 78.32872
2.2709999 2.6530001 1.6569999 30 0 0 0 78.333672
2.4679999 2.2309999 1.701 32 0 0 0 78.338615
2.3870001 2.4030001 1.6849999 34 0 0 0 78.343567
2.2839999 2.5369999 1.655 29 0 0 0 78.348511
2.181 2.671 1.635 30 0 0 0 78.353455
2.414 2.2839999 1.692 32 0 0 0 78.358406
2.309 2.434 1.664 30 0 0 0 78.36335
2.2060001 2.5669999 1.638 30 0 0 0 78.368294
2.102 2.698 1.623 31 0 0 0 78.373245
