# .PCD v0.7 - Point Cloud Data file format
VERSION 0.7
FIELDS x y z intensity normal_x normal_y normal_z curvature
SIZE 4 4 4 4 4 4 4 4
TYPE F F F F F F F F
COUNT 1 1 1 1 1 1 1 1
WIDTH 913
HEIGHT 1
VIEWPOINT 0 0 0 1 0 0 0
POINTS 913
DATA ascii
-14.37804 -17.053148 2.5232401 26 0 0 0 88.151039
-13.841388 -11.081115 1.5569859 47 0 0 0 88.151039
-12.854313 -10.298139 0.64486742 23 0 0 0 88.151039
-5.3744326 -4.3000498 -1.0619637 200 0 0 0 88.151039
-3.6703036 -3.5466452 -1.3664029 276 0 0 0 88.242943
-3.6428571 -2.8713536 -1.4254774 377 0 0 0 88.242943
-15.320802 -9.8547258 1.8324335 7 0 0 0 88.242943
-3.4543166 -4.0756235 -1.2322545 423 0 0 0 88.242943
-5.3945189 -4.262094 -1.0606984 199 0 0 0 88.242943
-2.7084754 -3.2198458 -1.415442 655 0 0 0 88.242943
-15.111291 -9.6825905 3.6105134 5 0 0 0 88.242943
-6.1140618 -7.1655602 -0.77062726 83 0 0 0 88.242943
-10.016276 -11.726616 0.23232511 23 0 0 0 88.242943
-6.898963 -6.646183 -0.66024506 68 0 0 0 88.242943
-14.993274 -9.5810719 4.5054893 27 0 0 0 88.242943
-7.7376056 -6.1206703 -0.56210041 91 0 0 0 88.242943
-7.5212121 -8.807045 -0.38545352 63 0 0 0 88.242943
-5.6901855 -5.4839449 -0.92939711 150 0 0 0 88.242943
-7.0503206 -4.5306129 -0.78723913 116 0 0 0 88.242943
-11.735909 -11.296683 1.2389411 24 0 0 0 88.242943
-5.1112781 -3.2718585 -1.1711088 232 0 0 0 88.242943
-2.4524844 -2.9286418 -1.4982456 442 0 0 0 88.242943
-4.7571502 -5.5865598 -0.95738399 240 0 0 0 88.242943
-5.9510002 -3.8175385 -1.0113552 179 0 0 0 88.242943
-13.006598 -10.289761 0.64908457 30 0 0 0 88.242943
-11.692899 -11.251351 0.43774176 25 0 0 0 88.242943
-4.4746156 -2.8581793 -1.2948037 250 0 0 0 88.242943
-8.6161251 -8.2970572 -0.25130928 63 0 0 0 88.242943
-2.9220166 -2.8319142 -1.5287756 382 0 0 0 88.242943
-3.5580747 -2.2550466 -1.4756482 395 0 0 0 88.242943
-3.2114434 -2.0245962 -1.5442786 350 0 0 0 88.242943
-11.510365 -13.474907 1.1400867 58 0 0 0 88.242943
-13.859882 -10.957047 1.5515937 27 0 0 0 88.242943
-14.341063 -16.799099 2.4989424 21 0 0 0 88.242943
-3.2581859 -3.1530559 -1.4550738 329 0 0 0 88.242943
-4.6612215 -3.6811688 -1.212044 195 0 0 0 88.242943
-6.3451691 -5.0170984 -0.85098749 125 0 0 0 88.242943
-4.8233571 -4.6537137 -1.1168753 219 0 0 0 88.242943
-3.9803531 -4.6836529 -1.1068418 348 0 0 0 88.242943
-3.0198405 -3.5764976 -1.3224282 487 0 0 0 88.242943
-15.118871 -9.7322502 0.92048854 5 0 0 0 88.242943
-4.1750698 -4.0284824 -1.2568797 290 0 0 0 88.242943
-11.682864 -11.253505 2.0302932 81 0 0 0 88.242943
-9.8040819 -7.7529826 -0.11184112 42 0 0 0 88.242943
-11.202615 -7.2100577 0.038500298 38 0 0 0 88.242943
-8.6463785 -5.5637612 -0.46890718 82 0 0 0 88.242943
-2.9462154 -2.3168771 -1.5672375 353 0 0 0 88.242943
-3.9728816 -2.5283163 -1.3948433 326 0 0 0 88.242943
-3.262109 -2.5682709 -1.5004872 410 0 0 0 88.242943
-4.0897875 -3.2273397 -1.3276657 327 0 0 0 88.242943
-7.5718398 -8.7569513 -0.38527119 72 0 0 0 88.346115
-6.375834 -4.9780707 -0.85098749 140 0 0 0 88.346115
-11.783335 -11.211708 2.0356708 238 0 0 0 88.346115
-3.0504708 -3.5681081 -1.3263506 540 0 0 0 88.346115
-4.6783209 -3.6482856 -1.2105982 232 0 0 0 88.346115
-15.216832 -9.6190424 3.6214671 9 0 0 0 88.346115
-13.133273 -10.259596 0.65208095 33 0 0 0 88.346115
-2.7373803 -3.2139452 -1.4203601 706 0 0 0 88.346115
-15.411226 -9.7797356 1.8359715 10 0 0 0 88.346115
-10.08019 -11.655863 0.23217222 19 0 0 0 88.346115
-2.9574749 -2.2965014 -1.5656559 335 0 0 0 88.346115
-2.9359684 -2.8107083 -1.5269716 356 0 0 0 88.346115
-13.853033 -10.814161 1.5435481 43 0 0 0 88.346115
-15.095253 -9.5163145 4.5184188 15 0 0 0 88.346115
-3.6843245 -3.5167389 -1.3634744 273 0 0 0 88.346115
-2.4716089 -2.9149513 -1.4989951 494 0 0 0 88.346115
-11.218791 -7.1234865 0.038494539 16 0 0 0 88.346115
-3.5710475 -2.2326729 -1.4753085 395 0 0 0 88.346115
-8.6574554 -8.2350779 -0.2509962 60 0 0 0 88.346115
-3.997225 -2.5094929 -1.3980576 321 0 0 0 88.346115
-5.9801607 -3.784658 -1.012385 169 0 0 0 88.346115
-4.8468266 -4.6192727 -1.1156838 200 0 0 0 88.346115
-9.8632898 -7.7019124 -0.11201914 46 0 0 0 88.346115
-4.1018863 -3.1962383 -1.3251214 287 0 0 0 88.346115
-3.26893 -2.5413013 -1.4963005 390 0 0 0 88.346115
-7.0779872 -4.487268 -0.78723913 95 0 0 0 88.346115
-4.5019088 -2.8368812 -1.2977352 289 0 0 0 88.346115
-8.6845694 -5.5132813 -0.46915317 59 0 0 0 88.346115
-4.0199246 -4.6718016 -1.1099632 338 0 0 0 88.346115
-4.7822747 -5.5467639 -0.95549846 110 0 0 0 88.346115
-6.1442289 -7.1120834 -0.76882988 85 0 0 0 88.346115
-6.9280515 -6.5927277 -0.65908164 76 0 0 0 88.346115
-4.186285 -3.99 -1.2527286 256 0 0 0 88.346115
-5.711504 -5.437295 -0.92732829 150 0 0 0 88.346115
-5.134573 -3.2425313 -1.1718926 208 0 0 0 88.346115
-3.2760983 -3.1316931 -1.4544458 328 0 0 0 88.346115
-3.6521335 -2.8425043 -1.422155 323 0 0 0 88.346115
-3.2191095 -2.0019252 -1.5419604 304 0 0 0 88.346115
-11.742149 -11.1608 0.43707266 29 0 0 0 88.346115
-14.141765 -13.445939 1.4774084 31 0 0 0 88.346115
-3.4919395 -4.0691051 -1.2368963 399 0 0 0 88.346115
-11.519686 -13.319496 1.1331127 50 0 0 0 88.346115
-14.382117 -16.639368 2.4884021 24 0 0 0 88.346115
-5.4120069 -4.2222309 -1.0589586 168 0 0 0 88.346115
-15.33357 -9.7116423 2.7317412 15 0 0 0 88.346115
-7.774229 -6.0724635 -0.56203973 119 0 0 0 88.346115
-11.792917 -11.07212 0.4364779 20 0 0 0 88.437248
-2.9678667 -2.2755158 -1.563679 300 0 0 0 88.437248
-4.8786669 -4.5928226 -1.1165349 223 0 0 0 88.437248
-3.2918935 -2.5269046 -1.4997894 361 0 0 0 88.437248
-4.5217004 -2.8107424 -1.2984681 318 0 0 0 88.437248
-4.6897669 -3.6111517 -1.2077066 262 0 0 0 88.437248
-4.0125475 -2.4849191 -1.3980576 330 0 0 0 88.437248
-4.8240438 -5.5262694 -0.95711464 111 0 0 0 88.437248
-14.323561 -16.367605 2.4612198 26 0 0 0 88.437248
-11.530167 -13.167484 1.1263877 53 0 0 0 88.437248
-3.0811114 -3.5594771 -1.3302729 554 0 0 0 88.437248
-4.0498066 -4.6485295 -1.1103303 334 0 0 0 88.437248
-3.2862756 -3.1030614 -1.4503639 327 0 0 0 88.437248
-8.6976213 -8.1722193 -0.25065905 54 0 0 0 88.437248
-13.843376 -10.670559 1.5353314 33 0 0 0 88.437248
-6.4078331 -4.9400697 -0.85120624 109 0 0 0 88.437248
-3.5878801 -2.2126975 -1.4766668 393 0 0 0 88.437248
-3.235261 -1.9845513 -1.5438923 331 0 0 0 88.437248
-11.856246 -11.143273 2.0364041 427 0 0 0 88.437248
-7.6254292 -8.7103271 -0.38527119 78 0 0 0 88.437248
-2.768785 -3.21067 -1.4265898 658 0 0 0 88.437248
-2.9558706 -2.7952027 -1.5284148 422 0 0 0 88.437248
-3.5155642 -4.0461349 -1.2364321 394 0 0 0 88.437248
-7.7900043 -6.0081854 -0.56040084 79 0 0 0 88.437248
-13.256902 -10.225821 0.6549294 26 0 0 0 88.437248
-5.4432869 -4.1931629 -1.0600657 204 0 0 0 88.437248
-3.7037289 -3.4920831 -1.3626757 258 0 0 0 88.437248
-2.4906576 -2.9011366 -1.4997447 478 0 0 0 88.437248
-14.076423 -13.22033 1.462435 48 0 0 0 88.437248
-3.6717732 -2.821785 -1.4230611 394 0 0 0 88.437248
-5.1685157 -3.219789 -1.1752237 206 0 0 0 88.437248
-5.9923668 -3.7410772 -1.0104725 161 0 0 0 88.437248
-5.736804 -5.3946691 -0.92598963 132 0 0 0 88.437248
-15.222527 -9.466548 4.5389113 8 0 0 0 88.437248
-4.117589 -3.1680598 -1.3238492 322 0 0 0 88.437248
-10.143612 -11.584767 0.23201934 30 0 0 0 88.437248
-6.9531107 -6.5357513 -0.65755457 86 0 0 0 88.437248
-6.175283 -7.0600057 -0.76720363 78 0 0 0 88.437248
-4.1993179 -3.9535384 -1.2492328 245 0 0 0 88.437248
-8.7292366 -5.4667859 -0.46979275 71 0 0 0 88.437248
-11.249578 -7.0465488 0.03849192 24 0 0 0 88.437248
-7.1045437 -4.4432254 -0.78714103 112 0 0 0 88.437248
-9.9143209 -7.6443005 -0.11207847 40 0 0 0 88.437248
-7.8211651 -5.9560399 -0.55997592 81 0 0 0 88.541183
-15.463654 -9.5563126 0.93022984 10 0 0 0 88.541183
-4.8894339 -4.5467 -1.1124499 203 0 0 0 88.541183
-3.6070111 -2.1940682 -1.4790437 432 0 0 0 88.541183
-4.0782533 -4.6235929 -1.1103303 298 0 0 0 88.541183
-3.3140566 -2.5117552 -1.5029294 374 0 0 0 88.541183
-8.760067 -5.4115458 -0.46964514 67 0 0 0 88.541183
-6.9835796 -6.4841442 -0.6566093 99 0 0 0 88.541183
-10.204551 -11.511088 0.23182823 19 0 0 0 88.541183
-2.9750113 -2.7789226 -1.5294973 406 0 0 0 88.541183
-2.7902992 -3.1957538 -1.4275734 500 0 0 0 88.541183
-8.7527304 -8.123457 -0.25082761 54 0 0 0 88.541183
-6.2105556 -7.0130348 -0.76617658 84 0 0 0 88.541183
-4.2335038 -3.9369986 -1.2522916 255 0 0 0 88.541183
-11.49882 -12.970301 1.1158644 50 0 0 0 88.541183
-4.5339041 -2.7798996 -1.2970023 323 0 0 0 88.541183
-4.1346407 -3.1409795 -1.3230859 296 0 0 0 88.541183
-3.6912959 -2.8009317 -1.4239672 376 0 0 0 88.541183
-5.7647057 -5.3546395 -0.92513776 152 0 0 0 88.541183
-14.109751 -13.089627 1.4576406 29 0 0 0 88.541183
-13.365503 -10.179407 0.65707499 22 0 0 0 88.541183
-6.005106 -3.6980088 -1.008707 180 0 0 0 88.541183
-3.3066428 -3.0841336 -1.4509919 357 0 0 0 88.541183
-5.4594836 -4.1525097 -1.0581678 157 0 0 0 88.541183
-11.324075 -6.9968481 0.038498379 16 0 0 0 88.541183
-3.7272027 -3.4712617 -1.3634744 287 0 0 0 88.541183
-11.851836 -10.991395 0.43618053 24 0 0 0 88.541183
-14.265512 -16.100914 2.434592 27 0 0 0 88.541183
-13.837238 -10.531106 1.5276282 37 0 0 0 88.541183
-11.906939 -11.05411 2.0334709 610 0 0 0 88.541183
-4.7094998 -3.5805309 -1.2070869 239 0 0 0 88.541183
-3.2465885 -1.9641844 -1.5435059 352 0 0 0 88.541183
-3.1149275 -3.5542109 -1.335596 599 0 0 0 88.541183
-6.4301157 -4.8946371 -0.85011238 149 0 0 0 88.541183
-4.0228252 -2.4572563 -1.3963044 355 0 0 0 88.541183
-7.1299796 -4.3985033 -0.78694481 127 0 0 0 88.541183
-7.6747522 -8.6588888 -0.38505235 66 0 0 0 88.541183
-2.9788446 -2.2550437 -1.5620974 385 0 0 0 88.541183
-5.1798229 -3.1828756 -1.1732643 204 0 0 0 88.541183
-9.9729719 -7.5924101 -0.1122565 37 0 0 0 88.541183
-3.5467551 -4.031786 -1.238753 387 0 0 0 88.541183
-2.5108476 -2.8885958 -1.5012437 509 0 0 0 88.541183
-4.8795295 -5.5210552 -0.961559 79 0 0 0 88.541183
-14.077299 -12.899728 1.4463552 24 0 0 0 88.633347
-3.5714269 -4.0099473 -1.238753 462 0 0 0 88.633347
-13.402954 -10.078586 0.65592819 12 0 0 0 88.633347
-3.142417 -3.5414884 -1.3381175 609 0 0 0 88.633347
-15.520294 -9.4602089 0.93013144 7 0 0 0 88.633347
-3.7434649 -3.4437599 -1.3616108 297 0 0 0 88.633347
-3.2569962 -1.9432799 -1.5427331 370 0 0 0 88.633347
-5.4714394 -4.10885 -1.0554792 153 0 0 0 88.633347
-7.0247045 -6.4425197 -0.65675473 94 0 0 0 88.633347
-4.1045809 -4.5962834 -1.1097796 352 0 0 0 88.633347
-3.3359814 -3.0734327 -1.4557018 342 0 0 0 88.633347
-2.5242314 -2.868268 -1.4986203 568 0 0 0 88.633347
-6.0209227 -3.6569808 -1.0075301 184 0 0 0 88.633347
-4.7376399 -3.556267 -1.2087393 219 0 0 0 88.633347
-10.022568 -7.5334778 -0.11230396 46 0 0 0 88.633347
-10.262964 -11.434866 0.2315989 25 0 0 0 88.633347
-13.901595 -10.446004 1.5276282 26 0 0 0 88.633347
-11.365086 -6.9261918 0.038498029 12 0 0 0 88.633347
-8.8090439 -8.0756779 -0.25104436 41 0 0 0 88.633347
-3.6050899 -2.1626859 -1.4725921 363 0 0 0 88.633347
-8.787138 -5.354053 -0.46930075 69 0 0 0 88.633347
-11.910208 -10.910364 0.43588316 32 0 0 0 88.633347
-14.264474 -15.902127 2.4179499 22 0 0 0 88.633347
-5.1473608 -5.7522874 -1.009235 134 0 0 0 88.633347
-6.2548008 -6.9762788 -0.76634777 76 0 0 0 88.633347
-4.2633314 -3.9162281 -1.2540394 206 0 0 0 88.633347
-7.7157192 -8.5982504 -0.38439593 68 0 0 0 88.633347
-3.3204043 -2.4846325 -1.4987427 396 0 0 0 88.633347
-2.9926252 -2.2367234 -1.5620974 343 0 0 0 88.633347
-11.500168 -12.812617 1.1085792 48 0 0 0 88.633347
-5.1766219 -3.137295 -1.1679738 249 0 0 0 88.633347
-4.5400939 -2.7454963 -1.2938266 288 0 0 0 88.633347
-7.1474853 -4.3489771 -0.78586566 105 0 0 0 88.633347
-4.0329142 -2.4295611 -1.394551 372 0 0 0 88.633347
-4.1615705 -3.1213555 -1.3256303 294 0 0 0 88.633347
-3.7129893 -2.7816603 -1.4257795 384 0 0 0 88.633347
-7.8551702 -5.9061379 -0.55979383 93 0 0 0 88.633347
-6.4608221 -4.8556876 -0.85022175 142 0 0 0 88.633347
-5.7959895 -5.3178253 -0.92489433 123 0 0 0 88.633347
-2.8035915 -3.1715007 -1.4242947 555 0 0 0 88.633347
-4.9056263 -4.50595 -1.1097265 194 0 0 0 88.633347
-11.974542 -10.980843 2.0334709 622 0 0 0 88.633347
-2.9913208 -2.7599838 -1.5291364 364 0 0 0 88.633347
-10.310737 -11.347262 0.23117846 19 0 0 0 88.735741
-3.6126287 -2.1371667 -1.4702152 357 0 0 0 88.735741
-14.222108 -15.660565 2.3947616 23 0 0 0 88.735741
-3.0092487 -2.2205014 -1.563679 285 0 0 0 88.735741
-13.964629 -10.359915 1.5275426 27 0 0 0 88.735741
-12.040957 -10.906495 2.0333488 665 0 0 0 88.735741
-4.0469241 -2.4042807 -1.3942589 342 0 0 0 88.735741
-2.5331378 -2.8430443 -1.4933735 510 0 0 0 88.735741
-4.7609439 -3.528296 -1.2091525 213 0 0 0 88.735741
-7.1748886 -4.3055515 -0.78596377 118 0 0 0 88.735741
-7.8912621 -5.8578281 -0.55979383 74 0 0 0 88.735741
-3.2712419 -1.9246645 -1.5438923 337 0 0 0 88.735741
-6.4960814 -4.8201003 -0.85098749 127 0 0 0 88.735741
-3.1595929 -3.5171454 -1.3361562 518 0 0 0 88.735741
-3.0006146 -2.7346697 -1.5251675 358 0 0 0 88.735741
-5.1752367 -5.7125216 -1.0077535 139 0 0 0 88.735741
-4.9339118 -4.4764271 -1.1098968 204 0 0 0 88.735741
-4.277884 -3.8814728 -1.2511991 230 0 0 0 88.735741
-6.2887788 -6.9281816 -0.76523507 80 0 0 0 88.735741
-3.328805 -2.459198 -1.4956026 371 0 0 0 88.735741
-11.509416 -12.665749 1.1021655 76 0 0 0 88.735741
-4.5543571 -2.7160952 -1.2930937 340 0 0 0 88.735741
-3.7230909 -2.7537217 -1.4230611 377 0 0 0 88.735741
-4.1821985 -3.0969133 -1.3261391 314 0 0 0 88.735741
-2.819845 -3.1507218 -1.4226552 631 0 0 0 88.735741
-5.8218899 -5.2761641 -0.9237991 123 0 0 0 88.735741
-14.060799 -12.726784 1.4368402 40 0 0 0 88.735741
-3.3519671 -3.0503504 -1.4544458 367 0 0 0 88.735741
-3.5848813 -3.9756861 -1.2348075 448 0 0 0 88.735741
-13.506263 -10.027136 0.65785182 19 0 0 0 88.735741
-8.8061304 -5.2917986 -0.46851358 62 0 0 0 88.735741
-11.967291 -10.828361 0.435561 25 0 0 0 88.735741
-7.7481647 -8.5285625 -0.38330182 74 0 0 0 88.735741
-8.8421249 -8.0067139 -0.25051454 68 0 0 0 88.735741
-7.0596671 -6.3952785 -0.65631843 85 0 0 0 88.735741
-11.423652 -6.8661194 0.038501345 12 0 0 0 88.735741
-5.5020995 -4.079318 -1.0565863 181 0 0 0 88.735741
-5.1932502 -3.1039617 -1.1673859 241 0 0 0 88.735741
-6.035614 -3.6153893 -1.006206 170 0 0 0 88.735741
-10.068604 -7.4718385 -0.11230396 48 0 0 0 88.735741
-4.1280875 -4.5659108 -1.1084943 287 0 0 0 88.735741
-3.7638113 -3.4200776 -1.3613445 243 0 0 0 88.735741
-7.7841067 -8.463213 -0.38242656 103 0 0 0 88.829437
-4.7698708 -3.4897702 -1.2058476 227 0 0 0 88.829437
-5.5310092 -4.048398 -1.0573771 171 0 0 0 88.829437
-3.7337596 -2.7263262 -1.4206449 354 0 0 0 88.829437
-3.0159509 -2.7149591 -1.5244459 338 0 0 0 88.829437
-5.2290874 -3.0820079 -1.1713048 289 0 0 0 88.829437
-7.0920849 -6.3458562 -0.65566397 104 0 0 0 88.829437
-13.445028 -9.8542709 0.65222895 7 0 0 0 88.829437
-7.9286661 -5.8104782 -0.55991524 89 0 0 0 88.829437
-3.6013319 -3.9450004 -1.2320224 462 0 0 0 88.829437
-10.107001 -7.4045987 -0.11219715 51 0 0 0 88.829437
-5.2061701 -5.67628 -1.0069455 160 0 0 0 88.829437
-3.3461025 -2.4403841 -1.4966493 389 0 0 0 88.829437
-4.9671578 -4.4513288 -1.1112584 182 0 0 0 88.829437
-4.308888 -3.8616621 -1.253384 239 0 0 0 88.829437
-11.509861 -12.511173 1.0950669 52 0 0 0 88.829437
-4.5734434 -2.6895757 -1.2938266 317 0 0 0 88.829437
-4.1987805 -3.0694807 -1.3253758 334 0 0 0 88.829437
-5.8504558 -5.2370329 -0.92319059 132 0 0 0 88.829437
-14.08286 -12.590422 1.4313082 32 0 0 0 88.829437
-16.263857 -9.6342211 1.9002451 35 0 0 0 88.829437
-3.7911835 -3.4027119 -1.3637406 318 0 0 0 88.829437
-6.0491705 -3.573252 -1.0047349 181 0 0 0 88.829437
-10.345634 -11.246262 0.23052868 21 0 0 0 88.829437
-11.418262 -6.767838 0.038491745 14 0 0 0 88.829437
-8.8851242 -7.9469781 -0.25032187 38 0 0 0 88.829437
-3.628922 -2.116859 -1.4715735 388 0 0 0 88.829437
-14.094646 -10.322902 1.5346466 31 0 0 0 88.829437
-3.1752956 -3.4913058 -1.3336349 515 0 0 0 88.829437
-6.5183191 -4.7748628 -0.850003 140 0 0 0 88.829437
-4.0657239 -2.3818247 -1.3957199 326 0 0 0 88.829437
-3.0250435 -2.2036185 -1.5648651 305 0 0 0 88.829437
-12.130584 -10.852921 2.0371375 561 0 0 0 88.829437
-8.8496017 -5.2442894 -0.46915317 77 0 0 0 88.829437
-3.2758143 -1.9003828 -1.5404147 311 0 0 0 88.829437
-2.5436954 -2.8198829 -1.4892511 529 0 0 0 88.829437
-4.163332 -4.5484667 -1.110514 181 0 0 0 88.829437
-3.3699143 -3.0290914 -1.4541318 315 0 0 0 88.829437
-7.2063088 -4.2644897 -0.78655243 139 0 0 0 88.829437
-2.8384893 -3.1326609 -1.4223274 583 0 0 0 88.829437
-6.3143091 -6.8711314 -0.76309532 100 0 0 0 88.829437
-14.229797 -15.477181 2.3802273 29 0 0 0 88.829437
-12.026798 -10.748732 0.43533796 22 0 0 0 88.829437
-5.23348 -5.6362448 -1.005464 128 0 0 0 88.931839
-5.8780174 -5.1970925 -0.92246044 144 0 0 0 88.931839
-4.2151833 -3.0419612 -1.3246125 315 0 0 0 88.931839
-4.7880216 -3.4581449 -1.2050215 245 0 0 0 88.931839
-14.201317 -10.267751 1.5392686 30 0 0 0 88.931839
-5.5549455 -4.0138059 -1.0572189 187 0 0 0 88.931839
-14.180918 -15.235383 2.3567061 42 0 0 0 88.931839
-3.2890134 -1.8811647 -1.5411875 331 0 0 0 88.931839
-8.8885107 -5.1939244 -0.46954677 68 0 0 0 88.931839
-3.1966581 -3.4717569 -1.3336349 539 0 0 0 88.931839
-7.8372521 -8.4167538 -0.38249952 56 0 0 0 88.931839
-2.8519037 -3.1089253 -1.4193765 530 0 0 0 88.931839
-10.390586 -11.156966 0.23008277 22 0 0 0 88.931839
-4.5881834 -2.6604888 -1.2933379 290 0 0 0 88.931839
-3.3701379 -2.4263806 -1.5008361 383 0 0 0 88.931839
-6.5442729 -4.7324467 -0.84956545 117 0 0 0 88.931839
-3.0346446 -2.698261 -1.5255283 353 0 0 0 88.931839
-11.476188 -12.322022 1.0849795 60 0 0 0 88.931839
-7.2409329 -4.2252121 -0.78753346 135 0 0 0 88.931839
-4.0719848 -2.3520422 -1.3927978 322 0 0 0 88.931839
-16.286579 -9.5131578 1.8961174 52 0 0 0 88.931839
-6.3346238 -6.8089247 -0.76035637 112 0 0 0 88.931839
-4.9958529 -4.4220729 -1.1115988 202 0 0 0 88.931839
-4.3259244 -3.8293309 -1.2514176 213 0 0 0 88.931839
-3.03478 -2.1823332 -1.5628883 369 0 0 0 88.931839
-3.7488713 -2.7022495 -1.4200407 393 0 0 0 88.931839
-11.457847 -6.6966395 0.038491398 13 0 0 0 88.931839
-2.5484307 -2.790544 -1.4817557 309 0 0 0 88.931839
-4.1938367 -4.5257177 -1.1112484 179 0 0 0 88.931839
-12.163477 -10.748713 2.0316377 175 0 0 0 88.931839
-3.618202 -3.9149766 -1.2294694 377 0 0 0 88.931839
-7.9657869 -5.7628899 -0.5600366 79 0 0 0 88.931839
-5.2546797 -3.0538111 -1.1728724 226 0 0 0 88.931839
-12.0543 -10.640996 0.43407413 18 0 0 0 88.931839
-6.0889244 -3.5465324 -1.0078243 196 0 0 0 88.931839
-8.9172344 -7.8777504 -0.24979204 62 0 0 0 88.931839
-13.601579 -9.8413048 0.65663105 11 0 0 0 88.931839
-3.3855963 -3.0058362 -1.4528759 312 0 0 0 88.931839
-3.652436 -2.1006591 -1.4759877 371 0 0 0 88.931839
-7.1278992 -6.2995791 -0.6553731 106 0 0 0 88.931839
-3.8054976 -3.3736324 -1.3613445 249 0 0 0 88.931839
-10.148194 -7.3395138 -0.11213782 50 0 0 0 88.931839
-14.017059 -12.377703 1.4172199 34 0 0 0 88.931839
-14.627686 -10.428417 3.3672068 19 0 0 0 89.023491
-11.449343 -6.5977349 0.038481448 15 0 0 0 89.023491
-3.042872 -2.1599474 -1.5601205 287 0 0 0 89.023491
-14.535787 -10.355227 4.2587185 28 0 0 0 89.023491
-4.3427258 -3.7969363 -1.2494513 242 0 0 0 89.023491
-11.479668 -12.175143 1.0784414 36 0 0 0 89.023491
-10.441694 -11.074817 0.22976425 26 0 0 0 89.023491
-3.8304784 -3.3540275 -1.3629419 300 0 0 0 89.023491
-6.1122856 -3.5100908 -1.0081186 166 0 0 0 89.023491
-4.0813565 -2.3241689 -1.3910446 316 0 0 0 89.023491
-14.779861 -10.54862 2.4907999 22 0 0 0 89.023491
-13.645445 -9.7460442 0.65589118 12 0 0 0 89.023491
-3.6652565 -2.0782087 -1.4759877 396 0 0 0 89.023491
-14.399476 -10.27709 1.5535623 28 0 0 0 89.023491
-12.312152 -10.738684 1.2424816 20 0 0 0 89.023491
-14.138474 -15.004174 2.3346274 26 0 0 0 89.023491
-3.4068322 -2.9875093 -1.4541318 361 0 0 0 89.023491
-5.8985796 -5.1511369 -0.92063498 141 0 0 0 89.023491
-4.8195057 -3.4360874 -1.2077066 246 0 0 0 89.023491
-4.2408566 -3.0210919 -1.3269024 345 0 0 0 89.023491
-6.357831 -6.7503533 -0.75804543 108 0 0 0 89.023491
-8.9623899 -7.8202586 -0.2496957 45 0 0 0 89.023491
-3.3053117 -1.8636717 -1.5435059 379 0 0 0 89.023491
-12.065863 -10.520191 0.43231466 18 0 0 0 89.023491
-3.1995554 -3.4324322 -1.3257903 354 0 0 0 89.023491
-4.2289305 -4.5077806 -1.1132681 141 0 0 0 89.023491
-4.6044211 -2.6322861 -1.2933379 314 0 0 0 89.023491
-6.5707607 -4.6904697 -0.84923726 145 0 0 0 89.023491
-7.257236 -4.1752391 -0.78645432 104 0 0 0 89.023491
-7.864748 -8.3430643 -0.38122308 56 0 0 0 89.023491
-8.9245386 -5.1417828 -0.46979275 67 0 0 0 89.023491
-5.5794692 -3.9796455 -1.0572189 184 0 0 0 89.023491
-3.3948905 -2.4127173 -1.5053718 321 0 0 0 89.023491
-5.2618532 -5.5975323 -1.004252 148 0 0 0 89.023491
-10.187341 -7.2730398 -0.11205474 39 0 0 0 89.023491
-3.7684877 -2.6814077 -1.4212489 336 0 0 0 89.023491
-3.0469377 -2.6758988 -1.5233635 342 0 0 0 89.023491
-2.865134 -3.0851436 -1.4164256 291 0 0 0 89.023491
-5.274169 -3.0219996 -1.1730683 228 0 0 0 89.023491
-3.6275234 -3.8770871 -1.2243636 232 0 0 0 89.023491
-5.0214081 -4.390039 -1.1112584 173 0 0 0 89.023491
-12.240418 -10.683665 2.0334709 77 0 0 0 89.023491
-2.5730669 -2.7830153 -1.4862529 256 0 0 0 89.023491
-16.348955 -9.4155302 1.8966088 45 0 0 0 89.023491
-8.0042458 -5.7162251 -0.56027943 82 0 0 0 89.023491
-7.1536436 -6.2445765 -0.65413696 85 0 0 0 89.023491
-5.6021681 -3.9441986 -1.0569026 161 0 0 0 89.128189
-14.550225 -10.250521 1.562806 36 0 0 0 89.128189
-5.294733 -5.5637059 -1.0039825 138 0 0 0 89.128189
-14.031294 -14.708639 2.3024523 37 0 0 0 89.128189
-3.8451521 -3.3254185 -1.3608121 287 0 0 0 89.128189
-5.9323301 -5.1167912 -0.92100006 145 0 0 0 89.128189
-4.838098 -3.4047608 -1.2070869 269 0 0 0 89.128189
-6.1345687 -3.4730082 -1.0082657 203 0 0 0 89.128189
-10.494949 -10.995353 0.2294967 32 0 0 0 89.128189
-4.2569408 -2.9933443 -1.3261391 334 0 0 0 89.128189
-8.9593935 -5.0889006 -0.46998954 65 0 0 0 89.128189
-7.1827598 -6.1927514 -0.65326434 110 0 0 0 89.128189
-7.8937058 -8.2715235 -0.38005608 71 0 0 0 89.128189
-3.3199074 -1.8451514 -1.5450515 324 0 0 0 89.128189
-3.0635884 -2.1465094 -1.5640744 278 0 0 0 89.128189
-10.234228 -7.2121229 -0.11209034 39 0 0 0 89.128189
-14.809476 -10.43319 2.4850311 24 0 0 0 89.128189
-8.0399847 -5.6675797 -0.56034011 87 0 0 0 89.128189
-3.6721952 -2.0524619 -1.4736108 406 0 0 0 89.128189
-3.4322777 -2.9727626 -1.4572717 374 0 0 0 89.128189
-13.938186 -12.006907 1.3947967 30 0 0 0 89.128189
-3.7926691 -2.6637156 -1.4242693 323 0 0 0 89.128189
-3.6499057 -3.8533447 -1.2238994 214 0 0 0 89.128189
-13.704988 -9.6621342 0.65589118 11 0 0 0 89.128189
-9.0147505 -7.7690344 -0.24984021 58 0 0 0 89.128189
-5.2772498 -2.9808896 -1.1695412 287 0 0 0 89.128189
-11.447883 -6.5036364 0.03847307 21 0 0 0 89.128189
-12.012004 -10.344203 0.42844883 11 0 0 0 89.128189
-4.4712505 -4.7075524 -1.171472 255 0 0 0 89.128189
-2.5919976 -2.7692032 -1.4873773 243 0 0 0 89.128189
-7.2766604 -4.1271915 -0.78576756 105 0 0 0 89.128189
-6.6042919 -4.6535001 -0.84989363 134 0 0 0 89.128189
-11.492119 -12.039515 1.0728374 45 0 0 0 89.128189
-5.0415368 -4.3533506 -1.1097265 182 0 0 0 89.128189
-4.1072097 -2.3056467 -1.3951355 317 0 0 0 89.128189
-2.8814189 -3.0647547 -1.415114 278 0 0 0 89.128189
-3.0597756 -2.6540985 -1.5215594 336 0 0 0 89.128189
-16.524099 -9.3818865 1.9099746 6 0 0 0 89.128189
-3.4034946 -2.3875334 -1.5025806 393 0 0 0 89.128189
-4.6230192 -2.6054146 -1.2940708 295 0 0 0 89.128189
-6.3908763 -6.7025661 -0.75701833 110 0 0 0 89.128189
-4.3681579 -3.7721312 -1.2501067 236 0 0 0 89.128189
-18.900385 -19.880169 5.8760757 1874 0 0 0 89.128189
-14.647177 -10.307343 3.3571649 20 0 0 0 89.128189
-3.2212157 -3.4134331 -1.3260704 255 0 0 0 89.128189
-14.535378 -10.221061 4.2402735 19 0 0 0 89.128189
-4.4850521 -4.6644497 -1.1674325 175 0 0 0 89.217537
-4.1170979 -2.2780831 -1.3936745 302 0 0 0 89.217537
-13.78042 -9.5892773 0.65663105 10 0 0 0 89.217537
-9.0515909 -7.704504 -0.24950305 59 0 0 0 89.217537
-14.555454 -10.102272 4.228054 15 0 0 0 89.217537
-5.2911587 -2.9460649 -1.1685616 265 0 0 0 89.217537
-2.8903894 -3.0367622 -1.4101959 284 0 0 0 89.217537
-3.6930199 -3.8512218 -1.2306299 218 0 0 0 89.217537
-3.8042421 -2.6371341 -1.4224571 310 0 0 0 89.217537
-5.0599046 -4.3153024 -1.1078542 190 0 0 0 89.217537
-12.052402 -10.250875 0.42770538 10 0 0 0 89.217537
-2.5923407 -2.7357683 -1.4776332 237 0 0 0 89.217537
-11.513747 -11.914959 1.0681672 52 0 0 0 89.217537
-7.9255562 -8.2035341 -0.37907138 69 0 0 0 89.217537
-11.463146 -6.4195824 0.038468186 19 0 0 0 89.217537
-7.3087945 -4.0863538 -0.78655243 103 0 0 0 89.217537
-6.1652613 -3.4406095 -1.009884 173 0 0 0 89.217537
-8.0655975 -5.6118684 -0.55967242 66 0 0 0 89.217537
-14.782909 -10.279321 2.4701395 23 0 0 0 89.217537
-10.555964 -10.92428 0.22938204 22 0 0 0 89.217537
-3.8618186 -3.2986331 -1.3594809 302 0 0 0 89.217537
-4.3793392 -3.7351284 -1.246611 237 0 0 0 89.217537
-14.574982 -10.108279 5.1651349 14 0 0 0 89.217537
-3.0774567 -2.1281939 -1.5644698 346 0 0 0 89.217537
-7.203155 -6.1336927 -0.6515919 108 0 0 0 89.217537
-3.0724609 -2.6322415 -1.5197554 331 0 0 0 89.217537
-4.6355295 -2.5751131 -1.2930937 291 0 0 0 89.217537
-4.8564878 -3.3733358 -1.2064673 237 0 0 0 89.217537
-5.9704156 -5.0860868 -0.9220953 145 0 0 0 89.217537
-4.2680788 -2.9622033 -1.3238492 326 0 0 0 89.217537
-5.6230211 -3.9074955 -1.05627 193 0 0 0 89.217537
-8.9817371 -5.0289478 -0.46949756 57 0 0 0 89.217537
-6.4318824 -6.6632261 -0.75701833 111 0 0 0 89.217537
-14.046702 -14.545075 2.2904699 36 0 0 0 89.217537
-6.6343527 -4.6140246 -0.85011238 124 0 0 0 89.217537
-5.328084 -5.5304003 -1.0038478 152 0 0 0 89.217537
-2.7902162 -2.3940127 -1.590494 328 0 0 0 89.217537
-19.103411 -19.848373 5.9010868 351 0 0 0 89.217537
-3.4461236 -2.9479449 -1.4553878 377 0 0 0 89.217537
-14.671387 -10.190351 3.3484011 10 0 0 0 89.217537
-14.705277 -10.225331 1.5724778 20 0 0 0 89.217537
-13.943232 -11.863001 1.3881583 32 0 0 0 89.217537
-3.2420995 -3.3936038 -1.3260704 242 0 0 0 89.217537
-3.4003627 -2.3543291 -1.494556 387 0 0 0 89.217537
-10.28978 -7.157186 -0.1122565 50 0 0 0 89.217537
-3.6822495 -2.028527 -1.4725921 384 0 0 0 89.217537
-3.3271244 -1.8225261 -1.5431194 323 0 0 0 89.217537
-4.396203 -3.7031591 -1.2448632 246 0 0 0 89.325058
-14.818742 -10.169915 2.4657121 20 0 0 0 89.325058
-2.9083121 -3.0182903 -1.409868 298 0 0 0 89.325058
-8.0916519 -5.5566216 -0.5590654 83 0 0 0 89.325058
-4.6495423 -2.5456889 -1.292605 340 0 0 0 89.325058
-10.6165 -10.852873 0.22926737 23 0 0 0 89.325058
-19.38048 -19.890474 5.9486074 192 0 0 0 89.325058
-6.1628637 -3.3898308 -1.0059118 203 0 0 0 89.325058
-3.408556 -2.3291886 -1.4917648 405 0 0 0 89.325058
-4.2805901 -2.932132 -1.3220682 273 0 0 0 89.325058
-6.0030303 -5.0506349 -0.92233872 128 0 0 0 89.325058
-11.536375 -11.792731 1.0636839 50 0 0 0 89.325058
-6.4705563 -6.6214986 -0.75676155 88 0 0 0 89.325058
-13.909538 -11.696279 2.2706919 5 0 0 0 89.325058
-3.4525402 -2.9169443 -1.4503639 388 0 0 0 89.325058
-5.0742269 -4.2740192 -1.1051309 161 0 0 0 89.325058
-5.3543029 -5.4898043 -1.0023664 139 0 0 0 89.325058
-10.326907 -7.089386 -0.11216155 42 0 0 0 89.325058
-14.637524 -10.0192 5.1654129 21 0 0 0 89.325058
-13.836529 -9.5028439 0.65652007 7 0 0 0 89.325058
-14.602717 -10.002872 4.2239041 14 0 0 0 89.325058
-13.927187 -11.702808 1.3796022 48 0 0 0 89.325058
-4.5163326 -4.639658 -1.168167 193 0 0 0 89.325058
-3.7816749 -3.8954399 -1.2529103 166 0 0 0 89.325058
-2.6309254 -2.7425334 -1.4903754 227 0 0 0 89.325058
-3.0892663 -2.6139419 -1.5201162 311 0 0 0 89.325058
-7.3415728 -4.0457573 -0.78743535 115 0 0 0 89.325058
-9.0098019 -4.9722934 -0.46934995 70 0 0 0 89.325058
-3.6871915 -2.0018487 -1.4695361 391 0 0 0 89.325058
-14.032145 -14.352749 2.2739387 35 0 0 0 89.325058
-11.565345 -6.3839383 0.038480751 14 0 0 0 89.325058
-12.043115 -10.116295 0.42537597 8 0 0 0 89.325058
-9.0879803 -7.6398144 -0.24916588 49 0 0 0 89.325058
-14.728772 -10.096802 3.3473055 9 0 0 0 89.325058
-3.082114 -2.1035721 -1.5601205 305 0 0 0 89.325058
-4.8722534 -3.3401527 -1.2052281 292 0 0 0 89.325058
-4.1301589 -2.2523196 -1.3933823 335 0 0 0 89.325058
-3.3341889 -1.7998817 -1.5411875 375 0 0 0 89.325058
-5.3185883 -2.9187393 -1.170717 228 0 0 0 89.325058
-7.2376018 -6.086812 -0.65130103 101 0 0 0 89.325058
-3.8790383 -3.2723899 -1.358416 301 0 0 0 89.325058
-3.8109124 -2.6072798 -1.4188327 298 0 0 0 89.325058
-3.2548454 -3.3653736 -1.3227084 229 0 0 0 89.325058
-7.9638596 -8.1426086 -0.37845141 67 0 0 0 89.325058
-5.6468911 -3.8729198 -1.05627 179 0 0 0 89.325058
-14.84085 -10.18509 1.5800954 10 0 0 0 89.325058
-6.6486087 -4.5636649 -0.84825277 143 0 0 0 89.325058
-14.925338 -10.108924 1.5824064 8 0 0 0 89.413376
-13.892052 -11.528615 1.3693495 48 0 0 0 89.413376
-11.579013 -11.691946 1.0610687 33 0 0 0 89.413376
-2.6871498 -2.7668653 -1.5132363 171 0 0 0 89.413376
-4.1497955 -2.2301092 -1.3954277 337 0 0 0 89.413376
-3.3453419 -3.4166121 -1.3518455 209 0 0 0 89.413376
-8.0094519 -8.0893307 -0.3782326 72 0 0 0 89.413376
-14.6348 -9.8934622 4.2156038 27 0 0 0 89.413376
-3.6994052 -1.9791868 -1.4695361 377 0 0 0 89.413376
-3.4725606 -2.8975291 -1.4513059 324 0 0 0 89.413376
-3.8252587 -2.5827799 -1.4182285 331 0 0 0 89.413376
-14.766019 -9.9897079 3.3418283 13 0 0 0 89.413376
-4.8934669 -3.3107429 -1.2054346 223 0 0 0 89.413376
-6.0270357 -5.007998 -0.92124343 139 0 0 0 89.413376
-3.3378456 -1.775483 -1.5377101 375 0 0 0 89.413376
-6.6674342 -4.5166502 -0.84704953 114 0 0 0 89.413376
-6.4865279 -6.5568914 -0.75376588 85 0 0 0 89.413376
-4.2944951 -2.9031024 -1.320796 318 0 0 0 89.413376
-14.047225 -14.192933 2.2623999 38 0 0 0 89.413376
-5.3320861 -2.8837147 -1.1697372 250 0 0 0 89.413376
-4.6684871 -2.5189562 -1.2935822 305 0 0 0 89.413376
-3.9631231 -4.0322986 -1.3065225 198 0 0 0 89.413376
-7.3662586 -4.0006342 -0.78743535 125 0 0 0 89.413376
-3.4196763 -2.3061333 -1.4903691 366 0 0 0 89.413376
-14.846406 -10.055455 2.4600775 14 0 0 0 89.413376
-3.1131215 -2.6015129 -1.524085 337 0 0 0 89.413376
-5.3816175 -5.4505053 -1.0011543 112 0 0 0 89.413376
-10.380973 -7.0331802 -0.11231583 41 0 0 0 89.413376
-6.1931095 -3.3571432 -1.0075301 179 0 0 0 89.413376
-8.1181583 -5.5018268 -0.55851912 94 0 0 0 89.413376
-4.4330988 -3.687969 -1.2490144 247 0 0 0 89.413376
-5.1003561 -4.2428041 -1.1051309 150 0 0 0 89.413376
-11.57795 -6.2985101 0.038475513 20 0 0 0 89.413376
-14.694745 -9.9265089 5.164022 22 0 0 0 89.413376
-5.6713662 -3.8387518 -1.0564281 183 0 0 0 89.413376
-4.5488586 -4.6160574 -1.1692686 213 0 0 0 89.413376
-3.8983035 -3.2479103 -1.3581498 305 0 0 0 89.413376
-7.2717443 -6.0397401 -0.65101016 93 0 0 0 89.413376
-9.1223783 -7.5736918 -0.24878055 45 0 0 0 89.413376
-10.676558 -10.781135 0.22915271 22 0 0 0 89.413376
-2.930079 -3.0037665 -1.4115075 258 0 0 0 89.413376
-12.068796 -10.012213 0.42421123 9 0 0 0 89.413376
-3.0919168 -2.0825672 -1.558539 346 0 0 0 89.413376
-9.0392647 -4.9164395 -0.46930075 71 0 0 0 89.413376
-4.6924138 -2.4948225 -1.2960252 313 0 0 0 89.519363
-4.155798 -2.2005701 -1.3927978 343 0 0 0 89.519363
-5.4163618 -5.4187822 -1.0014237 118 0 0 0 89.519363
-3.9788649 -3.9989479 -1.3035054 205 0 0 0 89.519363
-6.5111203 -6.5014863 -0.75188291 99 0 0 0 89.519363
-6.6784973 -4.4646034 -0.84486181 147 0 0 0 89.519363
-3.4946716 -2.8797886 -1.4531898 343 0 0 0 89.519363
-5.6964555 -3.8049779 -1.0567445 159 0 0 0 89.519363
-3.4290819 -2.2819903 -1.4882758 347 0 0 0 89.519363
-3.1275866 -2.5811753 -1.5233635 336 0 0 0 89.519363
-10.423101 -6.9687953 -0.11230396 50 0 0 0 89.519363
-3.3437781 -1.7523946 -1.5353917 355 0 0 0 89.519363
-4.4609232 -3.6650336 -1.2505437 251 0 0 0 89.519363
-7.3810182 -3.9501903 -0.78635621 118 0 0 0 89.519363
-14.82949 -9.9005547 3.342376 14 0 0 0 89.519363
-14.699276 -9.806179 4.2167568 15 0 0 0 89.519363
-2.7938757 -2.8414586 -1.5649543 236 0 0 0 89.519363
-3.0806866 -3.1193669 -1.476755 333 0 0 0 89.519363
-3.1046369 -2.0635564 -1.558539 329 0 0 0 89.519363
-11.613074 -11.583332 1.0577685 37 0 0 0 89.519363
-9.0833435 -4.8684378 -0.47008795 55 0 0 0 89.519363
-4.3098145 -2.8750865 -1.3200327 298 0 0 0 89.519363
-11.643696 -6.2420058 0.038480926 23 0 0 0 89.519363
-6.2188253 -3.3218789 -1.0084128 201 0 0 0 89.519363
-3.7098165 -1.9555714 -1.4688569 430 0 0 0 89.519363
-13.893876 -11.386902 1.3627847 33 0 0 0 89.519363
-8.1534233 -5.453021 -0.55864054 85 0 0 0 89.519363
-3.8386548 -2.5576735 -1.4173224 326 0 0 0 89.519363
-14.766565 -9.8436174 5.1679163 12 0 0 0 89.519363
-4.9055529 -3.2752199 -1.2033691 234 0 0 0 89.519363
-6.0530462 -4.9671454 -0.92051327 158 0 0 0 89.519363
-15.011932 -10.033765 1.5849741 12 0 0 0 89.519363
-5.1323857 -4.2164321 -1.1064925 200 0 0 0 89.519363
-14.072133 -14.044705 2.2526364 28 0 0 0 89.519363
-12.100616 -9.9138985 0.42326957 7 0 0 0 89.519363
-3.9241149 -3.2288275 -1.3602796 271 0 0 0 89.519363
-7.3102088 -5.9962726 -0.65115559 97 0 0 0 89.519363
-9.1617203 -7.5118713 -0.2485638 53 0 0 0 89.519363
-3.4670243 -3.4975176 -1.39359 234 0 0 0 89.519363
-14.881463 -9.9465466 2.4557843 21 0 0 0 89.519363
-4.5777912 -4.5887547 -1.1694522 197 0 0 0 89.519363
-8.0532742 -8.0343885 -0.37794086 57 0 0 0 89.519363
-10.734011 -10.70695 0.22899982 29 0 0 0 89.519363
-5.3548703 -2.853714 -1.1709129 255 0 0 0 89.519363
-10.463996 -6.9036078 -0.11228023 27 0 0 0 89.608444
-12.130129 -9.8143148 0.42227831 7 0 0 0 89.608444
-14.826686 -9.7528257 5.1679163 15 0 0 0 89.608444
-9.2029772 -7.4517407 -0.2484193 56 0 0 0 89.608444
-7.3971968 -3.9006453 -0.78547329 91 0 0 0 89.608444
-7.3313622 -5.9387517 -0.64970124 96 0 0 0 89.608444
-11.679124 -6.1690421 0.038480401 19 0 0 0 89.608444
-6.2347155 -3.2813525 -1.0076772 179 0 0 0 89.608444
-9.1209917 -4.8168125 -0.47053072 60 0 0 0 89.608444
-8.1925602 -5.4067392 -0.5590654 69 0 0 0 89.608444
-5.1558647 -4.1829987 -1.1059819 196 0 0 0 89.608444
-3.1404729 -2.5595806 -1.5219202 345 0 0 0 89.608444
-3.9341257 -3.1967893 -1.3568186 349 0 0 0 89.608444
-3.4430194 -2.2609069 -1.4882758 376 0 0 0 89.608444
-4.4787798 -3.6339049 -1.2492328 259 0 0 0 89.608444
-5.4452782 -5.3812695 -1.0006156 108 0 0 0 89.608444
-15.072911 -9.9412632 2.4769816 7 0 0 0 89.608444
-2.8112578 -2.8242624 -1.5649543 338 0 0 0 89.608444
-10.795231 -10.636676 0.22892338 34 0 0 0 89.608444
-5.7098031 -3.7634306 -1.0548465 176 0 0 0 89.608444
-3.1110973 -2.0404358 -1.5553759 368 0 0 0 89.608444
-3.5013499 -3.4890418 -1.398913 229 0 0 0 89.608444
-4.6956124 -2.4596746 -1.292605 284 0 0 0 89.608444
-3.5122759 -2.8582916 -1.4531898 341 0 0 0 89.608444
-4.0040178 -3.9751434 -1.3037374 199 0 0 0 89.608444
-5.3696761 -2.8194342 -1.170325 247 0 0 0 89.608444
-6.7041063 -4.4224458 -0.844643 137 0 0 0 89.608444
-14.096461 -13.897406 2.2429838 36 0 0 0 89.608444
-6.5466323 -6.4572167 -0.75136936 113 0 0 0 89.608444
-4.3330278 -2.8523116 -1.3218137 347 0 0 0 89.608444
-6.0679851 -4.9174151 -0.91807938 155 0 0 0 89.608444
-4.9255571 -3.2450583 -1.2033691 253 0 0 0 89.608444
-13.858051 -11.216117 1.3527534 23 0 0 0 89.608444
-15.128107 -9.9776735 1.590623 9 0 0 0 89.608444
-8.0945883 -7.9771099 -0.37753969 52 0 0 0 89.608444
-3.1031115 -3.1037426 -1.4783945 384 0 0 0 89.608444
-4.1641369 -2.1723707 -1.3910446 368 0 0 0 89.608444
-4.6051621 -4.5598884 -1.1692686 182 0 0 0 89.608444
-34.770275 -18.320679 5.8777323 20 0 0 0 89.608444
-11.651929 -11.480344 1.0549664 29 0 0 0 89.608444
-14.812809 -9.7511177 4.2319736 17 0 0 0 89.608444
-3.8502941 -2.5314519 -1.4158123 345 0 0 0 89.608444
-3.72258 -1.933206 -1.4691966 398 0 0 0 89.608444
-3.356925 -1.7331167 -1.5365509 340 0 0 0 89.608444
-14.917052 -9.8272285 3.3484011 15 0 0 0 89.608444
-3.8657544 -2.5077794 -1.4158123 359 0 0 0 89.716736
-5.3764262 -2.7810199 -1.1679738 258 0 0 0 89.716736
-10.510348 -6.842 -0.11233957 49 0 0 0 89.716736
-5.4640059 -5.3339205 -0.99792206 125 0 0 0 89.716736
-9.1565762 -4.7639856 -0.47087511 58 0 0 0 89.716736
-4.0304184 -3.9525421 -1.3044337 191 0 0 0 89.716736
-7.3497486 -5.8793287 -0.64802879 87 0 0 0 89.716736
-5.1752806 -4.1463566 -1.1046202 176 0 0 0 89.716736
-12.277599 -9.8095837 0.42505381 10 0 0 0 89.716736
-9.2438421 -7.3913865 -0.2482748 63 0 0 0 89.716736
-6.7452765 -4.3904476 -0.8465026 121 0 0 0 89.716736
-6.2538543 -3.2425795 -1.0075301 206 0 0 0 89.716736
-3.5357015 -3.4802761 -1.4042362 249 0 0 0 89.716736
-4.6976957 -2.4241364 -1.2889407 343 0 0 0 89.716736
-11.730947 -6.1046543 0.038483195 24 0 0 0 89.716736
-3.520865 -2.8295527 -1.4494219 396 0 0 0 89.716736
-14.154408 -13.784307 2.2387679 30 0 0 0 89.716736
-4.3593678 -2.8314679 -1.3246125 333 0 0 0 89.716736
-13.917363 -9.0638762 0.64997238 12 0 0 0 89.716736
-6.5789905 -6.409976 -0.75051343 103 0 0 0 89.716736
-6.0895181 -4.8732696 -0.91674072 120 0 0 0 89.716736
-4.9412746 -3.2121074 -1.2023364 265 0 0 0 89.716736
-13.87675 -11.091029 1.3480327 32 0 0 0 89.716736
-3.732698 -1.9094698 -1.4685174 391 0 0 0 89.716736
-15.142761 -9.854537 2.4784572 10 0 0 0 89.716736
-34.809174 -18.069157 5.8655214 6 0 0 0 89.716736
-4.6309452 -4.5294847 -1.1687177 208 0 0 0 89.716736
-15.232466 -9.9129238 1.5950738 7 0 0 0 89.716736
-14.945801 -9.7077532 4.2527237 27 0 0 0 89.716736
-5.722856 -3.7218633 -1.0529486 202 0 0 0 89.716736
-2.8351221 -2.813483 -1.568702 351 0 0 0 89.716736
-8.1319218 -7.9161434 -0.37695616 67 0 0 0 89.716736
-4.4819508 -3.5911055 -1.2437707 232 0 0 0 89.716736
-3.4615452 -2.2427976 -1.4903691 376 0 0 0 89.716736
-10.853126 -10.563265 0.22879598 24 0 0 0 89.716736
-3.9589305 -3.1768112 -1.3586822 296 0 0 0 89.716736
-3.1524854 -2.5373402 -1.5201162 336 0 0 0 89.716736
-7.4307032 -3.8602347 -0.78655243 131 0 0 0 89.716736
-8.2347813 -5.3623619 -0.55973309 79 0 0 0 89.716736
-3.1197038 -2.0188115 -1.553399 320 0 0 0 89.716736
-4.176538 -2.1463411 -1.3907524 345 0 0 0 89.716736
-3.128824 -3.0912771 -1.4816732 300 0 0 0 89.716736
-11.711421 -11.398193 1.0540323 44 0 0 0 89.716736
-3.3740695 -1.7158384 -1.539642 374 0 0 0 89.716736
-8.2658501 -5.3106537 -0.55961174 67 0 0 0 89.804802
-6.2745132 -3.2045958 -1.0076772 150 0 0 0 89.804802
-11.749499 -6.0229745 0.038479529 14 0 0 0 89.804802
-5.1975331 -4.1120787 -1.1039394 176 0 0 0 89.804802
-9.2835274 -7.3301926 -0.24810621 63 0 0 0 89.804802
-7.3809886 -5.8304124 -0.64759248 119 0 0 0 89.804802
-9.1874123 -4.7086244 -0.47097352 63 0 0 0 89.804802
-6.120863 -4.8370442 -0.91698408 137 0 0 0 89.804802
-6.6102977 -6.3618908 -0.74957192 95 0 0 0 89.804802
-6.7804518 -4.3543491 -0.84759647 151 0 0 0 89.804802
-7.4551349 -3.815022 -0.78665048 125 0 0 0 89.804802
-8.1731358 -7.8591738 -0.37659147 71 0 0 0 89.804802
-10.549608 -6.7757597 -0.11230396 52 0 0 0 89.804802
-5.4837856 -5.28792 -0.99549782 170 0 0 0 89.804802
-5.7422614 -3.6845448 -1.0523161 179 0 0 0 89.804802
-15.308005 -9.8289061 2.4953613 7 0 0 0 89.804802
-4.054595 -3.9277375 -1.3044337 239 0 0 0 89.804802
-3.5336974 -2.8043561 -1.447538 385 0 0 0 89.804802
-13.896004 -10.967371 1.3434596 38 0 0 0 89.804802
-10.914131 -10.493009 0.22873227 28 0 0 0 89.804802
-4.664309 -4.5064454 -1.1701866 217 0 0 0 89.804802
-11.727129 -11.282113 1.8497821 59 0 0 0 89.804802
-3.9806154 -3.1542552 -1.3594809 326 0 0 0 89.804802
-3.7418253 -1.8852583 -1.4674987 406 0 0 0 89.804802
-3.1679947 -2.5179491 -1.5201162 338 0 0 0 89.804802
-4.1955991 -2.1237025 -1.3927978 395 0 0 0 89.804802
-5.390769 -2.7466412 -1.1673859 200 0 0 0 89.804802
-3.4768205 -2.2225256 -1.4910669 361 0 0 0 89.804802
-12.334419 -9.7315884 0.42495468 13 0 0 0 89.804802
-34.760876 -17.774158 5.8390398 5 0 0 0 89.804802
-4.9575968 -3.1796141 -1.2015102 275 0 0 0 89.804802
-3.558367 -3.4598532 -1.4047965 241 0 0 0 89.804802
-3.1545002 -3.0786128 -1.484952 288 0 0 0 89.804802
-13.955062 -8.9669647 0.64919555 8 0 0 0 89.804802
-3.8826747 -2.4850407 -1.4164163 331 0 0 0 89.804802
-4.7098889 -2.3939462 -1.2882078 268 0 0 0 89.804802
-11.741557 -11.288085 1.0506077 35 0 0 0 89.804802
-2.8490181 -2.7927926 -1.5668281 315 0 0 0 89.804802
-4.3709607 -2.8010118 -1.3228315 335 0 0 0 89.804802
-3.1359022 -2.002104 -1.5553759 352 0 0 0 89.804802
-3.3903036 -1.6980009 -1.5423467 379 0 0 0 89.804802
-15.035397 -9.635293 4.2612543 21 0 0 0 89.804802
-4.4993086 -3.5599053 -1.2424598 265 0 0 0 89.804802
-2.8567665 -2.7662399 -1.5615814 342 0 0 0 89.912323
-11.807655 -5.9615908 0.038483717 20 0 0 0 89.912323
-11.799737 -11.213367 1.8503369 295 0 0 0 89.912323
-3.1434658 -1.9798861 -1.5530035 374 0 0 0 89.912323
-10.590985 -6.7109008 -0.11230396 45 0 0 0 89.912323
-3.7634284 -1.8672903 -1.4715735 406 0 0 0 89.912323
-3.8962376 -2.4601519 -1.4158123 355 0 0 0 89.912323
-3.5613027 -2.7908163 -1.4519339 370 0 0 0 89.912323
-6.1480794 -4.7975645 -0.916619 152 0 0 0 89.912323
-15.264897 -9.6582422 3.3856471 8 0 0 0 89.912323
-6.6289821 -6.3019986 -0.7471754 89 0 0 0 89.912323
-13.998004 -8.8736773 0.64867765 13 0 0 0 89.912323
-6.3028917 -3.1704857 -1.0091484 197 0 0 0 89.912323
-3.5767577 -3.4352968 -1.4036759 260 0 0 0 89.912323
-15.473319 -9.8015013 1.6073133 21 0 0 0 89.912323
-15.146048 -9.5756187 4.2757797 17 0 0 0 89.912323
-4.5387564 -3.5460448 -1.2474849 245 0 0 0 89.912323
-6.8104 -4.3147917 -0.84803402 139 0 0 0 89.912323
-4.0729923 -3.8974094 -1.302577 228 0 0 0 89.912323
-9.3267536 -7.2718625 -0.24805805 54 0 0 0 89.912323
-3.1782479 -2.4944344 -1.5175905 283 0 0 0 89.912323
-4.2085509 -2.097919 -1.3927978 399 0 0 0 89.912323
-3.4848447 -2.1976492 -1.4886247 393 0 0 0 89.912323
-3.9968574 -3.1273959 -1.358416 295 0 0 0 89.912323
-5.2273264 -4.0837483 -1.1049607 209 0 0 0 89.912323
-13.866279 -10.806505 1.3343871 29 0 0 0 89.912323
-7.4119053 -5.7813339 -0.64715618 90 0 0 0 89.912323
-3.1740115 -3.0598543 -1.4852799 306 0 0 0 89.912323
-10.979035 -10.426532 0.22874501 27 0 0 0 89.912323
-4.6904492 -4.4763842 -1.1698195 185 0 0 0 89.912323
-9.2134571 -4.6508112 -0.47082591 65 0 0 0 89.912323
-5.4127774 -2.7161546 -1.1685616 226 0 0 0 89.912323
-5.7614245 -3.6471283 -1.0516834 212 0 0 0 89.912323
-5.5161285 -5.2541723 -0.99549782 133 0 0 0 89.912323
-4.7296901 -2.3676102 -1.2896736 302 0 0 0 89.912323
-11.7925 -11.19865 1.0490509 40 0 0 0 89.912323
-4.3823438 -2.7705204 -1.3210504 310 0 0 0 89.912323
-3.3973515 -1.6755309 -1.5408012 338 0 0 0 89.912323
-34.752678 -17.501797 5.8196201 5 0 0 0 89.912323
-4.9753599 -3.1480882 -1.2010971 295 0 0 0 89.912323
-8.2974367 -5.2593012 -0.559551 81 0 0 0 89.912323
-7.470407 -3.7651713 -0.78576756 127 0 0 0 89.912323
-12.330017 -9.6059628 0.42294741 10 0 0 0 89.912323
-8.2190304 -7.8068123 -0.37648207 53 0 0 0 89.912323
-4.7142491 -4.4441509 -1.1689014 197 0 0 0 90.00013
-11.042075 -10.358286 0.22873227 22 0 0 0 90.00013
-4.5681572 -3.5240874 -1.2496698 307 0 0 0 90.00013
-5.2507248 -4.0503941 -1.1046202 179 0 0 0 90.00013
-4.3959789 -2.7415309 -1.3200327 329 0 0 0 90.00013
-5.4126434 -2.6746261 -1.1648386 218 0 0 0 90.00013
-6.8384328 -4.2739763 -0.84825277 137 0 0 0 90.00013
-4.0136828 -3.1010454 -1.3576173 263 0 0 0 90.00013
-3.7756598 -1.8445768 -1.471913 391 0 0 0 90.00013
-4.21877 -2.0707898 -1.3919213 363 0 0 0 90.00013
-3.4075685 -1.6546537 -1.5408012 349 0 0 0 90.00013
-11.835509 -11.10219 1.0468715 50 0 0 0 90.00013
-9.3735733 -7.2163272 -0.24813031 68 0 0 0 90.00013
-12.464006 -9.588026 0.42530161 9 0 0 0 90.00013
-3.1957059 -2.4765992 -1.5186729 321 0 0 0 90.00013
-3.4950812 -2.1742442 -1.487229 375 0 0 0 90.00013
-7.4889131 -3.7170484 -0.78527707 112 0 0 0 90.00013
-6.3266573 -3.13395 -1.009884 168 0 0 0 90.00013
-3.9112594 -2.4361987 -1.4158123 330 0 0 0 90.00013
-4.9887729 -3.113873 -1.1996514 257 0 0 0 90.00013
-10.63705 -6.6489701 -0.11237518 38 0 0 0 90.00013
-8.266777 -7.7562346 -0.37648207 64 0 0 0 90.00013
-6.6551733 -6.2496161 -0.74572039 80 0 0 0 90.00013
-6.1703238 -4.7542992 -0.91552371 167 0 0 0 90.00013
-11.884989 -11.156393 1.8528887 471 0 0 0 90.00013
-3.1920419 -3.0396705 -1.484952 287 0 0 0 90.00013
-14.056425 -8.7902699 0.6488626 4 0 0 0 90.00013
-3.151655 -1.9581356 -1.5510267 329 0 0 0 90.00013
-2.86765 -2.7428977 -1.5582085 327 0 0 0 90.00013
-5.5489855 -5.2209058 -0.99563253 148 0 0 0 90.00013
-11.83506 -5.8845735 0.038481973 26 0 0 0 90.00013
-8.3236275 -5.2045846 -0.55912614 84 0 0 0 90.00013
-4.0798526 -3.8563211 -1.297007 210 0 0 0 90.00013
-5.7954183 -3.6190326 -1.0538976 205 0 0 0 90.00013
-3.5708492 -2.7631042 -1.4487939 360 0 0 0 90.00013
-9.2453966 -4.5959711 -0.4710227 63 0 0 0 90.00013
-3.5991628 -3.4146059 -1.4042362 283 0 0 0 90.00013
-7.44803 -5.7363548 -0.6472289 98 0 0 0 90.00013
-4.7545614 -2.3436978 -1.292605 303 0 0 0 90.00013
-13.857237 -10.663447 1.3273798 42 0 0 0 90.00013
-3.6242528 -3.3963923 -1.4059172 252 0 0 0 90.10611
-4.7714691 -2.3157523 -1.2933379 306 0 0 0 90.10611
-14.096489 -8.6954603 0.64827073 11 0 0 0 90.10611
-11.107625 -10.292376 0.22877049 18 0 0 0 90.10611
-10.681051 -6.5856767 -0.11242265 43 0 0 0 90.10611
-4.0970349 -3.8252454 -1.2949182 248 0 0 0 90.10611
-6.2120204 -4.7259626 -0.91747087 150 0 0 0 90.10611
-3.2078779 -3.0174408 -1.4836406 320 0 0 0 90.10611
-5.5714755 -5.1779952 -0.9938817 156 0 0 0 90.10611
-2.8904974 -2.7309744 -1.5615814 321 0 0 0 90.10611
-9.2805986 -4.5426712 -0.47141629 64 0 0 0 90.10611
-7.4846749 -5.6917539 -0.64737433 91 0 0 0 90.10611
-9.4097166 -7.152627 -0.24788947 48 0 0 0 90.10611
-13.859671 -10.530561 1.3215528 29 0 0 0 90.10611
-4.7284722 -4.403091 -1.1655965 192 0 0 0 90.10611
-11.885834 -11.013083 1.0453771 37 0 0 0 90.10611
-4.0341678 -3.0775285 -1.3581498 334 0 0 0 90.10611
-3.5083563 -2.1527579 -1.487229 358 0 0 0 90.10611
-4.5733895 -3.483578 -1.2450817 261 0 0 0 90.10611
-4.4127178 -2.7145059 -1.3200327 291 0 0 0 90.10611
-3.4143302 -1.6321192 -1.5392556 380 0 0 0 90.10611
-11.892497 -5.8224034 0.03848616 36 0 0 0 90.10611
-3.1698742 -1.9426025 -1.5541897 334 0 0 0 90.10611
-11.942286 -11.073125 1.8512244 469 0 0 0 90.10611
-4.2296753 -2.0440311 -1.3913368 318 0 0 0 90.10611
-3.2115827 -2.4575105 -1.5190337 343 0 0 0 90.10611
-6.8611445 -4.2298489 -0.84781528 133 0 0 0 90.10611
-5.8183556 -3.5839224 -1.0540557 199 0 0 0 90.10611
-7.5133672 -3.6719022 -0.78547329 119 0 0 0 90.10611
-3.7818234 -1.8189238 -1.4698756 403 0 0 0 90.10611
-3.5779262 -2.7336514 -1.444712 415 0 0 0 90.10611
-5.2731266 -4.0163093 -1.1041096 196 0 0 0 90.10611
-12.47563 -9.4756966 0.42383951 11 0 0 0 90.10611
-5.0061193 -3.0821774 -1.1992382 236 0 0 0 90.10611
-3.9261341 -2.4121537 -1.4158123 337 0 0 0 90.10611
-6.337769 -3.0911644 -1.0085599 172 0 0 0 90.10611
-34.802189 -16.994568 5.7926974 9 0 0 0 90.10611
-8.3596525 -5.1560345 -0.55942965 94 0 0 0 90.10611
-8.3120127 -7.7033272 -0.37637267 65 0 0 0 90.10611
-5.4368863 -2.6452308 -1.1666021 223 0 0 0 90.10611
-6.6912026 -6.2066317 -0.74546361 88 0 0 0 90.10611
-11.144009 -10.19973 0.22831184 24 0 0 0 90.196991
-3.5923579 -2.7099316 -1.4437701 344 0 0 0 90.196991
-11.857745 -5.7154346 0.038472548 19 0 0 0 90.196991
-5.831799 -3.5430257 -1.0524741 193 0 0 0 90.196991
-2.9153416 -2.7207694 -1.5660787 319 0 0 0 90.196991
-7.5234466 -5.648715 -0.64773792 124 0 0 0 90.196991
-13.918439 -10.441133 1.3210363 25 0 0 0 90.196991
-4.4218507 -2.6828623 -1.3177428 316 0 0 0 90.196991
-3.1817341 -1.923116 -1.5541897 374 0 0 0 90.196991
-12.005606 -10.995614 1.8505588 500 0 0 0 90.196991
-6.2226458 -4.6740499 -0.91467184 175 0 0 0 90.196991
-14.137626 -8.6015291 0.64775282 15 0 0 0 90.196991
-4.127584 -3.8066235 -1.2972389 232 0 0 0 90.196991
-9.3127947 -4.4878111 -0.47166228 78 0 0 0 90.196991
-5.0241008 -3.0508943 -1.1990317 271 0 0 0 90.196991
-10.736636 -6.5293689 -0.11263627 37 0 0 0 90.196991
-3.9433062 -2.3895009 -1.4167184 408 0 0 0 90.196991
-8.3524876 -7.6461101 -0.37604445 65 0 0 0 90.196991
-3.2332592 -3.0041246 -1.4869193 373 0 0 0 90.196991
-5.5907273 -5.1323271 -0.99159217 145 0 0 0 90.196991
-8.3919849 -5.1051626 -0.55949032 70 0 0 0 90.196991
-12.532737 -9.3983698 0.42381474 11 0 0 0 90.196991
-6.8801756 -4.1835375 -0.84694016 144 0 0 0 90.196991
-3.4276171 -1.6127129 -1.5408012 396 0 0 0 90.196991
-6.3503771 -3.0492177 -1.0075301 188 0 0 0 90.196991
-3.5214994 -2.1311903 -1.487229 408 0 0 0 90.196991
-9.456625 -7.0971556 -0.2479858 64 0 0 0 90.196991
-3.2251127 -2.4366345 -1.5183121 350 0 0 0 90.196991
-4.2378211 -2.0159819 -1.3898758 346 0 0 0 90.196991
