# .PCD v0.7 - Point Cloud Data file format
VERSION 0.7
FIELDS x y z intensity normal_x normal_y normal_z curvature
SIZE 4 4 4 4 4 4 4 4
TYPE F F F F F F F F
COUNT 1 1 1 1 1 1 1 1
WIDTH 1033
HEIGHT 1
VIEWPOINT 0 0 0 1 0 0 0
POINTS 1033
DATA ascii
-3.8069999 4.2049999 -0.229 42 0 0 0 6.5177641
-3.592 4.1919999 -0.51099998 67 0 0 0 6.527658
-3.7620001 4.171 -0.37599999 55 0 0 0 6.5326052
-3.9960001 4.2160001 -0.23100001 26 0 0 0 6.5375519
-3.608 4.2340002 -0.67299998 47 0 0 0 6.5424991
-3.8180001 4.2480001 -0.53100002 62 0 0 0 6.5474458
-3.8829999 4.1069999 -0.37799999 70 0 0 0 6.552393
-4.0929999 4.1259999 -0.228 55 0 0 0 6.5573401
-3.7939999 4.2410002 -0.69400001 35 0 0 0 6.5622869
-3.9749999 4.217 -0.54100001 45 0 0 0 6.567234
-4.0180001 4.0570002 -0.38100001 67 0 0 0 6.5721812
-4.244 4.0840001 -0.227 68 0 0 0 6.5771279
-3.957 4.2140002 -0.70999998 33 0 0 0 6.5820751
-4.4860001 4.5380001 -0.59799999 90 0 0 0 6.5870218
-4.1479998 3.997 -0.38299999 71 0 0 0 6.591969
-4.4089999 4.0539999 -0.228 71 0 0 0 6.5969162
-4.4780002 4.5450001 -0.79000002 75 0 0 0 6.6018629
-4.6859999 4.52 -0.61299998 90 0 0 0 6.6068101
-4.322 3.974 -0.38999999 64 0 0 0 6.6117568
-4.5819998 4.0240002 -0.228 71 0 0 0 6.616704
-4.6669998 4.513 -0.81 68 0 0 0 6.6216512
-4.8639998 4.4759998 -0.62400001 94 0 0 0 6.6265979
-4.5229998 3.9679999 -0.39899999 46 0 0 0 6.6315451
-4.776 4.006 -0.23 70 0 0 0 6.6364918
-4.8600001 4.4780002 -0.82999998 74 0 0 0 6.641439
-4.9959998 4.381 -0.63 79 0 0 0 6.6463861
-4.7519999 3.9790001 -0.41 40 0 0 0 6.6513329
-5.0089998 4.0079999 -0.233 96 0 0 0 6.65628
-4.9640002 4.3540001 -0.83499998 32 0 0 0 6.7913561
-4.9819999 4.165 -0.61799997 77 0 0 0 6.7963028
-4.9109998 3.9189999 -0.41499999 79 0 0 0 6.80125
-4.934 4.1220002 -0.81800002 46 0 0 0 6.8111439
-4.8559999 3.8659999 -0.59200001 74 0 0 0 6.8160911
-4.8470001 3.855 -0.792 36 0 0 0 6.8309321
-8.4890003 5.8889999 -0.359 4 0 0 0 6.8457732
-8.3999996 5.7919998 -0.67000002 3 0 0 0 6.8606138
-8.4069996 5.553 -0.345 6 0 0 0 6.865561
-8.3439999 5.473 -0.653 5 0 0 0 6.8804021
-8.3439999 5.2410002 -0.33199999 5 0 0 0 6.8853488
-8.2779999 5.158 -0.63700002 5 0 0 0 6.9001899
-8.29 4.9489999 -0.32100001 6 0 0 0 6.9051371
-8.2309999 4.8649998 -0.62300003 5 0 0 0 6.9199781
-8.25 4.6719999 -0.31099999 6 0 0 0 6.9249249
-4.8439999 2.973 -0.74599999 6 0 0 0 6.929872
-8.2040005 4.5949998 -0.611 5 0 0 0 6.9397659
-8.0129995 4.3010001 -0.294 7 0 0 0 6.9447131
-7.9569998 4.2160001 -0.58399999 8 0 0 0 6.9595542
-7.961 4.0430002 -0.285 10 0 0 0 6.9645009
-7.8969998 3.9519999 -0.57099998 8 0 0 0 6.979342
-7.967 3.822 -0.278 5 0 0 0 6.9842892
-3.7850001 1.959 -0.56599998 52 0 0 0 6.9892359
-8.0410004 3.7939999 -0.574 7 0 0 0 6.9991298
-8.0799999 3.651 -0.27500001 8 0 0 0 7.004077
-3.763 1.8329999 -0.55800003 42 0 0 0 7.0090241
-8.026 3.4100001 -0.26699999 11 0 0 0 7.0238652
-3.7449999 1.712 -0.55000001 38 0 0 0 7.0288119
-7.9780002 3.177 -0.25999999 12 0 0 0 7.043653
-3.72 1.5930001 -0.542 31 0 0 0 7.0486002
-7.9559999 2.961 -0.25400001 11 0 0 0 7.0634408
-7.915 2.744 -0.248 12 0 0 0 7.0832291
-7.862 2.526 -0.242 12 0 0 0 7.1030169
-7.8330002 2.323 -0.237 11 0 0 0 7.1228051
-7.7620001 2.2149999 -0.51200002 9 0 0 0 7.1376462
-7.7810001 2.118 -0.23100001 13 0 0 0 7.1425929
-7.7420001 2.016 -0.50599998 9 0 0 0 7.157434
-7.7529998 1.921 -0.227 13 0 0 0 7.1623812
-7.1939998 -1.354 -0.19400001 17 0 0 0 7.388207
-7.1599998 -1.517 -0.19499999 18 0 0 0 7.4079952
-4.1529999 -0.98100001 -0.255 1 0 0 0 7.4228358
-7.1240001 -1.677 -0.19599999 19 0 0 0 7.427783
-4.1009998 -1.0650001 -0.396 2 0 0 0 7.4376769
-4.1420002 -1.08 -0.25600001 1 0 0 0 7.4426241
-7.099 -1.842 -0.197 16 0 0 0 7.4475708
-4.105 -1.1720001 -0.39700001 1 0 0 0 7.4574652
-4.1220002 -1.177 -0.255 0 0 0 0 7.4624119
-7.0700002 -2.0050001 -0.198 17 0 0 0 7.4673591
-4.0799999 -1.27 -0.396 0 0 0 0 7.477253
-7.0190001 -2.1630001 -0.2 13 0 0 0 7.4871469
-7.0120001 -2.3369999 -0.20200001 18 0 0 0 7.5069351
-6.9879999 -2.5050001 -0.205 17 0 0 0 7.5267229
-6.954 -2.6700001 -0.207 18 0 0 0 7.5465112
-7.0100002 -3.645 -0.23 1 0 0 0 7.9736829
-6.5370002 -3.983 -0.23100001 9 0 0 0 8.0330467
-6.4889998 -4.1599998 -0.236 4 0 0 0 8.0528355
-6.4679999 -4.355 -0.242 3 0 0 0 8.0726233
-3.7019999 -2.8510001 -0.398 19 0 0 0 8.1023054
-3.5880001 -3.5840001 -0.55299997 2 0 0 0 8.1962976
-3.665 -3.5810001 -0.421 1 0 0 0 8.2012453
-3.4260001 -3.5899999 -0.53500003 57 0 0 0 8.2160864
-3.51 -3.5969999 -0.40900001 67 0 0 0 8.2210331
-3.5910001 -3.599 -0.29100001 47 0 0 0 8.2259798
-3.223 -3.5450001 -0.51099998 49 0 0 0 8.2358742
-3.3199999 -3.5650001 -0.39399999 65 0 0 0 8.2408209
-3.4059999 -3.576 -0.28200001 77 0 0 0 8.2457676
-3.4990001 -3.5769999 -0.177 82 0 0 0 8.2507153
-3.046 -3.5150001 -0.49000001 62 0 0 0 8.255662
-3.1389999 -3.5320001 -0.37900001 64 0 0 0 8.2606087
-3.2219999 -3.5420001 -0.27399999 76 0 0 0 8.2655563
-3.3210001 -3.553 -0.175 79 0 0 0 8.270503
-2.882 -3.49 -0.47099999 62 0 0 0 8.2754498
-2.9630001 -3.4979999 -0.36399999 63 0 0 0 8.2803974
-3.0439999 -3.5039999 -0.26499999 73 0 0 0 8.2853441
-3.1440001 -3.5209999 -0.17200001 78 0 0 0 8.2902908
-2.721 -3.46 -0.45199999 62 0 0 0 8.2952375
-2.7939999 -3.4590001 -0.34999999 63 0 0 0 8.3001852
-2.882 -3.4779999 -0.25799999 75 0 0 0 8.3051319
-2.974 -3.4860001 -0.17 73 0 0 0 8.3100786
-2.5669999 -3.4300001 -0.43399999 60 0 0 0 8.3150263
-2.6470001 -3.4389999 -0.33899999 70 0 0 0 8.319973
-2.727 -3.45 -0.25099999 75 0 0 0 8.3249197
-2.812 -3.4530001 -0.168 74 0 0 0 8.3298674
-2.4219999 -3.402 -0.41800001 58 0 0 0 8.3348141
-2.503 -3.415 -0.32800001 71 0 0 0 8.3397608
-2.576 -3.4200001 -0.244 85 0 0 0 8.3447084
-2.665 -3.428 -0.16599999 91 0 0 0 8.3496552
-2.286 -3.3789999 -0.40200001 60 0 0 0 8.3546019
-2.3610001 -3.3840001 -0.317 63 0 0 0 8.3595486
-2.4400001 -3.3989999 -0.23800001 78 0 0 0 8.3644962
-2.5250001 -3.4059999 -0.16500001 85 0 0 0 8.3694429
-2.155 -3.355 -0.38800001 63 0 0 0 8.3743896
-2.2320001 -3.3670001 -0.30700001 73 0 0 0 8.3793373
-2.3069999 -3.3740001 -0.23199999 80 0 0 0 8.384284
-2.3870001 -3.3789999 -0.164 86 0 0 0 8.3892307
-2.029 -3.3299999 -0.37400001 59 0 0 0 8.1429214
-2.105 -3.3410001 -0.29800001 83 0 0 0 8.1478682
-2.178 -3.3510001 -0.227 86 0 0 0 8.1528149
-2.263 -3.362 -0.163 91 0 0 0 8.1577616
-1.909 -3.3080001 -0.361 66 0 0 0 8.1627092
-1.983 -3.3169999 -0.289 78 0 0 0 8.1676559
-2.056 -3.3269999 -0.222 90 0 0 0 8.1726027
-2.1370001 -3.335 -0.162 91 0 0 0 8.1775503
-1.791 -3.28 -0.347 64 0 0 0 8.182497
-1.865 -3.293 -0.28 79 0 0 0 8.1874437
-1.939 -3.306 -0.21799999 93 0 0 0 8.1923914
-2.016 -3.312 -0.161 97 0 0 0 8.1973381
-1.671 -3.24 -0.33399999 48 0 0 0 8.2022848
-1.755 -3.2750001 -0.27200001 77 0 0 0 8.2072325
-1.822 -3.2780001 -0.213 96 0 0 0 8.2121792
-1.901 -3.29 -0.161 101 0 0 0 8.2171259
-1.5549999 -3.2 -0.32100001 42 0 0 0 8.2220726
-1.624 -3.2090001 -0.26100001 42 0 0 0 8.2270203
-1.711 -3.2520001 -0.20900001 79 0 0 0 8.231967
-1.7920001 -3.27 -0.161 92 0 0 0 8.2369137
-1.4529999 -3.181 -0.31 43 0 0 0 8.2418613
-1.524 -3.194 -0.25400001 43 0 0 0 8.2468081
-1.587 -3.1949999 -0.20299999 44 0 0 0 8.2517548
-1.6619999 -3.204 -0.15800001 47 0 0 0 8.2567024
-1.357 -3.1659999 -0.30000001 41 0 0 0 8.2616491
-1.427 -3.1800001 -0.248 42 0 0 0 8.2665958
-1.489 -3.1789999 -0.199 49 0 0 0 8.2715425
-1.562 -3.188 -0.15800001 45 0 0 0 8.2764902
-1.266 -3.155 -0.29100001 42 0 0 0 8.2814369
-1.332 -3.161 -0.242 42 0 0 0 8.2863836
-1.397 -3.1719999 -0.197 46 0 0 0 8.2913313
-1.4680001 -3.1760001 -0.15800001 51 0 0 0 8.296278
-1.181 -3.1589999 -0.28400001 55 0 0 0 8.3012247
-1.239 -3.145 -0.236 45 0 0 0 8.3061724
-1.3049999 -3.1559999 -0.19400001 43 0 0 0 8.3111191
-1.374 -3.161 -0.15899999 48 0 0 0 8.3160658
-1.098 -3.1600001 -0.27700001 88 0 0 0 8.3210135
-1.164 -3.1689999 -0.233 98 0 0 0 8.3259602
-1.2130001 -3.1400001 -0.191 50 0 0 0 8.3309069
-1.285 -3.1530001 -0.15899999 54 0 0 0 8.3358536
-1.01 -3.145 -0.26800001 97 0 0 0 8.3408012
-1.076 -3.154 -0.228 91 0 0 0 8.3457479
-1.14 -3.1670001 -0.191 99 0 0 0 8.3506947
-1.2 -3.1500001 -0.16 73 0 0 0 8.3556423
-0.92400002 -3.128 -0.25999999 91 0 0 0 8.360589
-0.99000001 -3.1400001 -0.223 96 0 0 0 8.3655357
-1.052 -3.1470001 -0.189 96 0 0 0 8.3704834
-1.1210001 -3.1589999 -0.162 102 0 0 0 8.3754301
-0.84100002 -3.1159999 -0.252 89 0 0 0 8.3803768
-0.90399998 -3.122 -0.21699999 101 0 0 0 8.3853235
-0.96799999 -3.135 -0.18700001 101 0 0 0 8.3902712
-1.035 -3.142 -0.163 102 0 0 0 8.3952179
-0.759 -3.102 -0.245 91 0 0 0 8.4001646
-0.824 -3.112 -0.213 96 0 0 0 8.4051123
-0.88599998 -3.122 -0.185 102 0 0 0 8.410059
-0.95099998 -3.125 -0.163 117 0 0 0 8.4150057
-0.68099999 -3.089 -0.23800001 101 0 0 0 8.4199533
-0.74400002 -3.0999999 -0.20900001 105 0 0 0 8.4249001
-0.80599999 -3.1099999 -0.183 103 0 0 0 8.4298468
-0.87 -3.115 -0.16500001 109 0 0 0 8.4347944
-0.60399997 -3.0810001 -0.23100001 100 0 0 0 8.4397411
-0.66399997 -3.079 -0.204 103 0 0 0 8.4446878
-0.72500002 -3.0899999 -0.18099999 103 0 0 0 8.4496346
-0.79000002 -3.0999999 -0.16500001 106 0 0 0 8.4545822
-0.52499998 -3.0550001 -0.22400001 93 0 0 0 8.4595289
-0.58700001 -3.069 -0.2 105 0 0 0 8.4644756
-0.648 -3.082 -0.18000001 98 0 0 0 8.4694233
-0.71200001 -3.0910001 -0.167 112 0 0 0 8.47437
-0.44999999 -3.0450001 -0.21699999 97 0 0 0 8.4793167
-0.51099998 -3.056 -0.19599999 102 0 0 0 8.4842644
-0.57099998 -3.0639999 -0.178 104 0 0 0 8.4892111
-0.63300002 -3.0710001 -0.167 111 0 0 0 8.4941578
-0.37599999 -3.0309999 -0.211 101 0 0 0 8.4991055
-0.435 -3.0320001 -0.192 96 0 0 0 8.5040522
-0.49399999 -3.0439999 -0.176 110 0 0 0 8.5089989
-0.55800003 -3.0569999 -0.169 107 0 0 0 8.5139456
-0.303 -3.017 -0.205 104 0 0 0 8.5188932
-0.36300001 -3.0209999 -0.18799999 104 0 0 0 8.52384
-0.421 -3.0380001 -0.176 99 0 0 0 8.5287867
-0.48300001 -3.0469999 -0.17 115 0 0 0 8.5337343
-0.23100001 -2.9990001 -0.199 105 0 0 0 8.538681
-0.29100001 -3.01 -0.185 113 0 0 0 8.5436277
-0.34799999 -3.0139999 -0.17399999 108 0 0 0 8.5485754
-0.41 -3.0309999 -0.171 109 0 0 0 8.5535221
-0.16 -2.9920001 -0.193 108 0 0 0 8.5584688
-0.22 -3.0009999 -0.182 107 0 0 0 8.5634155
-0.27700001 -3.0090001 -0.17299999 109 0 0 0 8.5683632
-0.33700001 -3.01 -0.17200001 116 0 0 0 8.5733099
-0.090000004 -2.9749999 -0.18799999 100 0 0 0 8.5782566
-0.149 -2.983 -0.17900001 103 0 0 0 8.5832043
-0.206 -2.997 -0.17299999 103 0 0 0 8.588151
-0.266 -3.0050001 -0.17399999 117 0 0 0 8.5930977
-0.021 -2.9619999 -0.182 105 0 0 0 8.5980453
-0.079999998 -2.9749999 -0.176 115 0 0 0 8.6029921
-0.13600001 -2.9860001 -0.17200001 104 0 0 0 8.6079388
-0.19599999 -2.9979999 -0.176 109 0 0 0 8.6128864
0.046999998 -2.9530001 -0.177 108 0 0 0 8.7878113
-0.011 -2.9630001 -0.17299999 109 0 0 0 8.792758
-0.066 -2.973 -0.171 108 0 0 0 8.7977047
-0.126 -2.987 -0.178 114 0 0 0 8.8026524
0.115 -2.941 -0.17200001 115 0 0 0 8.8075991
0.057 -2.95 -0.17 108 0 0 0 8.8125458
0.001 -2.9630001 -0.171 112 0 0 0 8.8174934
-0.056000002 -2.967 -0.17900001 110 0 0 0 8.8224401
0.182 -2.927 -0.167 112 0 0 0 8.8273869
0.124 -2.9389999 -0.168 111 0 0 0 8.8323336
0.068999998 -2.95 -0.171 109 0 0 0 8.8372812
0.011 -2.957 -0.18099999 109 0 0 0 8.8422279
0.249 -2.918 -0.163 118 0 0 0 8.8471746
0.191 -2.9289999 -0.16500001 101 0 0 0 8.8521223
0.13600001 -2.937 -0.17 109 0 0 0 8.857069
0.079000004 -2.948 -0.184 111 0 0 0 8.8620157
0.31600001 -2.905 -0.15800001 116 0 0 0 8.8669634
0.25799999 -2.911 -0.163 112 0 0 0 8.8719101
0.204 -2.9230001 -0.17 112 0 0 0 8.8768568
0.147 -2.9349999 -0.186 111 0 0 0 8.8818045
0.38 -2.8770001 -0.153 138 0 0 0 8.8867512
0.322 -2.8759999 -0.15899999 150 0 0 0 8.8916979
0.26699999 -2.8789999 -0.168 150 0 0 0 8.8966446
0.207 -2.819 -0.18099999 150 0 0 0 8.9015923
0.41299999 -2.661 -0.138 86 0 0 0 8.906539
0.36899999 -2.72 -0.149 150 0 0 0 8.9114857
0.315 -2.7079999 -0.15899999 150 0 0 0 8.9164333
0.25999999 -2.6800001 -0.175 150 0 0 0 8.92138
0.479 -2.671 -0.13500001 151 0 0 0 8.9263268
0.41999999 -2.6400001 -0.14399999 87 0 0 0 8.9312744
0.37200001 -2.6570001 -0.15700001 124 0 0 0 8.9362211
0.31999999 -2.664 -0.177 150 0 0 0 8.9411678
0.53399998 -2.6259999 -0.12899999 150 0 0 0 8.9461145
0.48100001 -2.6359999 -0.142 150 0 0 0 8.9510622
0.43099999 -2.6370001 -0.156 110 0 0 0 8.9560089
0.38100001 -2.6429999 -0.17900001 89 0 0 0 8.9609556
0.59299999 -2.6110001 -0.125 150 0 0 0 8.9659033
0.54100001 -2.618 -0.14 150 0 0 0 8.97085
0.49200001 -2.6300001 -0.15700001 61 0 0 0 8.9757967
0.442 -2.641 -0.182 108 0 0 0 8.9807444
0.65399998 -2.602 -0.122 150 0 0 0 8.9856911
0.602 -2.609 -0.139 82 0 0 0 8.9906378
0.56 -2.6489999 -0.15899999 25 0 0 0 8.9955854
0.51200002 -2.6760001 -0.18700001 22 0 0 0 9.0005322
0.71399999 -2.589 -0.118 115 0 0 0 9.0054789
0.66600001 -2.612 -0.138 24 0 0 0 9.0104256
0.62800002 -2.668 -0.162 35 0 0 0 9.0153732
0.57300001 -2.655 -0.189 24 0 0 0 9.0203199
0.77499998 -2.579 -0.115 50 0 0 0 9.0252666
0.73299998 -2.622 -0.138 21 0 0 0 9.0302143
0.69199997 -2.6589999 -0.162 30 0 0 0 9.035161
0.63800001 -2.654 -0.193 23 0 0 0 9.0401077
0.838 -2.573 -0.112 21 0 0 0 9.0450554
0.79799998 -2.6170001 -0.13699999 23 0 0 0 9.0500021
0.75099999 -2.6340001 -0.162 26 0 0 0 9.0549488
0.71100003 -2.6830001 -0.198 20 0 0 0 9.0598965
0.90700001 -2.5810001 -0.109 15 0 0 0 9.0648432
0.86299998 -2.6159999 -0.13600001 20 0 0 0 9.0697899
0.81599998 -2.631 -0.164 23 0 0 0 9.0747366
0.76899999 -2.648 -0.2 18 0 0 0 9.0796843
0.71100003 -1.999 -0.103 2 0 0 0 9.0895777
0.87699997 -2.612 -0.164 17 0 0 0 9.0945253
0.83499998 -2.645 -0.20299999 17 0 0 0 9.099472
0.81800002 -2.03 -0.081 3 0 0 0 9.1044188
0.75099999 -1.969 -0.102 0 0 0 0 9.1093664
0.71200001 -1.971 -0.125 2 0 0 0 9.1143131
0.69300002 -2.03 -0.15899999 0 0 0 0 9.1192598
1.12 -2.6059999 -0.102 18 0 0 0 9.1242065
0.801 -1.9630001 -0.101 1 0 0 0 9.1291542
0.75400001 -1.9450001 -0.125 8 0 0 0 9.1341009
0.713 -1.939 -0.155 8 0 0 0 9.1390476
1.191 -2.6059999 -0.098999999 17 0 0 0 9.1439953
1.1339999 -2.605 -0.134 15 0 0 0 9.148942
0.80299997 -1.9349999 -0.126 2 0 0 0 9.1538887
0.759 -1.925 -0.15700001 19 0 0 0 9.1588364
1.26 -2.598 -0.096000001 16 0 0 0 9.1637831
1.201 -2.596 -0.133 16 0 0 0 9.1687298
1.156 -2.6129999 -0.17200001 14 0 0 0 9.1736774
0.80800003 -1.915 -0.16 3 0 0 0 9.1786242
1.327 -2.5840001 -0.093000002 16 0 0 0 9.1835709
1.265 -2.575 -0.132 16 0 0 0 9.1885176
1.219 -2.592 -0.17299999 14 0 0 0 9.1934652
1.181 -2.625 -0.22400001 11 0 0 0 9.1984119
1.4 -2.582 -0.090000004 15 0 0 0 9.2033587
1.3430001 -2.5840001 -0.133 14 0 0 0 9.2083063
1.298 -2.602 -0.176 13 0 0 0 9.213253
1.2410001 -2.5929999 -0.227 7 0 0 0 9.2181997
1.457 -2.546 -0.086999997 14 0 0 0 9.2231474
1.4170001 -2.5799999 -0.133 14 0 0 0 9.2280941
1.369 -2.595 -0.178 11 0 0 0 9.2330408
1.304 -2.5710001 -0.23 7 0 0 0 9.2379885
1.502 -2.493 -0.082999997 30 0 0 0 9.2429352
1.471 -2.54 -0.131 13 0 0 0 9.2478819
1.45 -2.599 -0.182 11 0 0 0 9.2528286
1.346 -2.507 -0.229 11 0 0 0 9.2577763
1.5779999 -2.4909999 -0.079999998 31 0 0 0 9.136054
1.526 -2.5020001 -0.12899999 29 0 0 0 9.1410007
1.487 -2.526 -0.17900001 12 0 0 0 9.1459484
1.403 -2.47 -0.23199999 27 0 0 0 9.1508951
1.646 -2.473 -0.077 30 0 0 0 9.1558418
1.598 -2.49 -0.12899999 28 0 0 0 9.1607885
1.551 -2.5009999 -0.18099999 29 0 0 0 9.1657362
1.474 -2.46 -0.236 27 0 0 0 9.1706829
1.723 -2.4660001 -0.075000003 30 0 0 0 9.1756296
1.6670001 -2.47 -0.12899999 29 0 0 0 9.1805773
1.617 -2.4760001 -0.182 25 0 0 0 9.185524
1.535 -2.4289999 -0.23899999 36 0 0 0 9.1904707
1.76 -2.4000001 -0.071000002 56 0 0 0 9.1954184
1.747 -2.4630001 -0.12899999 29 0 0 0 9.2003651
1.658 -2.415 -0.18099999 29 0 0 0 9.2053118
1.6160001 -2.428 -0.245 70 0 0 0 9.2102594
1.823 -2.372 -0.068000004 64 0 0 0 9.2152061
1.776 -2.3870001 -0.126 69 0 0 0 9.2201529
1.668 -2.312 -0.177 48 0 0 0 9.2250996
1.663 -2.3759999 -0.24699999 30 0 0 0 9.2300472
1.9349999 -2.405 -0.067000002 21 0 0 0 9.2349939
1.84 -2.3610001 -0.125 32 0 0 0 9.2399406
1.744 -2.3039999 -0.18000001 51 0 0 0 9.2448883
1.692 -2.303 -0.245 53 0 0 0 9.249835
2.0209999 -2.4000001 -0.064000003 20 0 0 0 9.2547817
1.956 -2.3929999 -0.12800001 18 0 0 0 9.2597294
1.887 -2.3770001 -0.189 61 0 0 0 9.2646761
1.818 -2.355 -0.25799999 57 0 0 0 9.2696228
2.1099999 -2.3940001 -0.061999999 7 0 0 0 9.2745705
2.0150001 -2.355 -0.127 17 0 0 0 9.2795172
1.9680001 -2.365 -0.193 69 0 0 0 9.2844639
1.923 -2.3729999 -0.26699999 61 0 0 0 9.2894106
2.184 -2.368 -0.059999999 7 0 0 0 9.2943583
2.0929999 -2.336 -0.127 19 0 0 0 9.299305
2.05 -2.349 -0.19599999 73 0 0 0 9.3042517
2.0020001 -2.3540001 -0.273 33 0 0 0 9.3091993
2.138 -2.2149999 -0.054000001 4 0 0 0 9.314146
2.177 -2.3199999 -0.12800001 29 0 0 0 9.3190928
2.1240001 -2.322 -0.199 65 0 0 0 9.3240404
2.026 -2.2709999 -0.271 0 0 0 0 9.3289871
2.2820001 -2.2609999 -0.052999999 0 0 0 0 9.3339338
2.221 -2.26 -0.126 28 0 0 0 9.3388805
2.155 -2.2490001 -0.197 38 0 0 0 9.3438282
2.0880001 -2.2320001 -0.27500001 31 0 0 0 9.3487749
2.381 -2.2550001 -0.050999999 3 0 0 0 9.3537216
2.2360001 -2.174 -0.123 10 0 0 0 9.3586693
2.2119999 -2.2049999 -0.198 42 0 0 0 9.363616
2.154 -2.198 -0.27900001 60 0 0 0 9.3685627
2.4979999 -2.263 -0.050000001 8 0 0 0 9.3735104
2.2579999 -2.099 -0.121 19 0 0 0 9.3784571
2.223 -2.115 -0.19599999 47 0 0 0 9.3834038
2.217 -2.1570001 -0.28299999 32 0 0 0 9.3883514
2.559 -2.217 -0.046999998 26 0 0 0 9.3932981
2.3469999 -2.0829999 -0.122 48 0 0 0 9.3982449
2.2980001 -2.0880001 -0.199 87 0 0 0 9.4031916
2.2650001 -2.102 -0.285 13 0 0 0 9.4081392
2.2249999 -1.842 -0.037999999 42 0 0 0 9.4130859
2.441 -2.0699999 -0.124 50 0 0 0 9.4180326
2.3770001 -2.0599999 -0.20200001 83 0 0 0 9.4229803
2.2349999 -1.978 -0.278 18 0 0 0 9.427927
2.0799999 -1.6440001 -0.032000002 156 0 0 0 9.4328737
1.955 -1.582 -0.096000001 17 0 0 0 9.4378214
1.9220001 -1.589 -0.161 12 0 0 0 9.4427681
2.22 -1.872 -0.273 49 0 0 0 9.4477148
2.013 -1.5190001 -0.028999999 68 0 0 0 9.4526625
1.978 -1.527 -0.094999999 92 0 0 0 9.4576092
1.946 -1.534 -0.16 92 0 0 0 9.4625559
1.9119999 -1.536 -0.23199999 78 0 0 0 9.4675026
2.0810001 -1.499 -0.027000001 89 0 0 0 9.4724503
2.033 -1.497 -0.094999999 103 0 0 0 9.477397
1.989 -1.495 -0.162 82 0 0 0 9.4823437
1.942 -1.4859999 -0.233 89 0 0 0 9.4872913
2.0799999 -1.429 -0.025 100 0 0 0 9.492238
1.997 -1.402 -0.092 107 0 0 0 9.4971848
1.974 -1.413 -0.15800001 113 0 0 0 9.5021324
1.977 -1.4400001 -0.235 71 0 0 0 9.5070791
2.0969999 -1.373 -0.023 87 0 0 0 9.5120258
2.033 -1.359 -0.090999998 99 0 0 0 9.5169725
2.02 -1.376 -0.16 97 0 0 0 9.5219202
2.0380001 -1.411 -0.23999999 75 0 0 0 9.5268669
2.043 -1.273 -0.021 3 0 0 0 9.5318136
2.0769999 -1.321 -0.090999998 34 0 0 0 9.5367613
1.978 -1.281 -0.155 0 0 0 0 9.541708
2.201 -1.304 -0.02 15 0 0 0 9.5516024
2.161 -1.306 -0.093000002 14 0 0 0 9.5565491
2.1110001 -1.298 -0.163 3 0 0 0 9.5614958
2.1140001 -1.3200001 -0.244 13 0 0 0 9.5664434
2.224 -1.252 -0.018999999 0 0 0 0 9.5713902
2.2349999 -1.2819999 -0.094999999 21 0 0 0 9.5763369
2.0569999 -1.2 -0.15700001 17 0 0 0 9.5812836
2.0799999 -1.23 -0.23899999 50 0 0 0 9.5862312
2.0810001 -1.149 -0.15800001 58 0 0 0 9.6010723
2.085 -1.168 -0.237 32 0 0 0 9.606019
2.1240001 -1.124 -0.23999999 25 0 0 0 10.050605
3.1919999 -1.552 -0.12899999 44 0 0 0 10.060499
2.3429999 -1.156 -0.175 45 0 0 0 10.065446
2.2939999 -1.146 -0.25799999 95 0 0 0 10.070393
3.723 -1.679 -0.021 0 0 0 0 10.07534
3.299 -1.512 -0.132 39 0 0 0 10.080287
4.6529999 -2.1630001 -0.345 54 0 0 0 10.085234
3.803 -1.615 -0.02 9 0 0 0 10.095128
3.4449999 -1.485 -0.13600001 9 0 0 0 10.100075
4.605 -2.0120001 -0.33899999 65 0 0 0 10.105022
4.8369999 -2.1340001 -0.53899997 17 0 0 0 10.109969
3.8740001 -1.544 -0.017999999 11 0 0 0 10.114916
4.493 -1.816 -0.175 81 0 0 0 10.119863
5.1149998 -2.092 -0.37400001 70 0 0 0 10.12481
4.9569998 -2.046 -0.54900002 7 0 0 0 10.129757
3.737 -1.393 -0.016000001 51 0 0 0 10.134704
3.7309999 -1.41 -0.14399999 150 0 0 0 10.139651
4.8460002 -1.852 -0.35299999 59 0 0 0 10.144598
4.8670001 -1.875 -0.537 53 0 0 0 10.149545
3.6470001 -1.268 -0.014 67 0 0 0 10.154492
3.7460001 -1.319 -0.14300001 54 0 0 0 10.159439
3.826 -1.3609999 -0.27700001 34 0 0 0 10.164386
3.9519999 -1.415 -0.43399999 12 0 0 0 10.169333
3.54 -1.1440001 -0.012 95 0 0 0 10.17428
3.5580001 -1.163 -0.134 63 0 0 0 10.179227
3.5910001 -1.1849999 -0.259 47 0 0 0 10.184174
3.697 -1.226 -0.405 34 0 0 0 10.189121
3.4790001 -1.04 -0.011 107 0 0 0 10.194068
3.5439999 -1.071 -0.133 90 0 0 0 10.199015
3.5580001 -1.0829999 -0.255 25 0 0 0 10.203962
3.5569999 -1.085 -0.389 31 0 0 0 10.208909
3.4159999 -0.93900001 -0.0089999996 48 0 0 0 10.213856
3.427 -0.94999999 -0.12800001 41 0 0 0 10.218803
3.529 -0.98500001 -0.25299999 8 0 0 0 10.22375
3.402 -0.94999999 -0.37099999 24 0 0 0 10.228697
3.5420001 -0.889 -0.0089999996 46 0 0 0 10.233644
3.425 -0.866 -0.127 33 0 0 0 10.238591
3.391 -0.861 -0.242 38 0 0 0 10.243538
3.4170001 -0.866 -0.37200001 37 0 0 0 10.248485
3.507 -0.79699999 -0.0080000004 45 0 0 0 10.253432
3.4949999 -0.79900002 -0.12899999 81 0 0 0 10.258379
3.4760001 -0.796 -0.248 58 0 0 0 10.263326
3.4619999 -0.78899997 -0.37599999 39 0 0 0 10.268273
3.743 -0.764 -0.0080000004 47 0 0 0 10.27322
3.4990001 -0.71600002 -0.12899999 66 0 0 0 10.278167
3.5009999 -0.71700001 -0.249 45 0 0 0 10.283114
3.5350001 -0.71799999 -0.38299999 28 0 0 0 10.288061
4.211 -0.76200002 -0.0080000004 70 0 0 0 10.293008
4.3590002 -0.79000002 -0.16 103 0 0 0 10.297955
4.3979998 -0.79500002 -0.31299999 79 0 0 0 10.302902
4.427 -0.79100001 -0.47999999 68 0 0 0 10.307849
4.2410002 -0.67199999 -0.0080000004 150 0 0 0 10.312796
4.4050002 -0.69599998 -0.161 113 0 0 0 10.317743
4.428 -0.69499999 -0.315 81 0 0 0 10.32269
4.461 -0.68800002 -0.48300001 67 0 0 0 10.327637
4.3189998 -0.58700001 -0.0080000004 0 0 0 0 10.332584
7.0609999 -0.95099998 -0.25799999 3 0 0 0 10.337531
6.0419998 -0.80400002 -0.43000001 4 0 0 0 10.342478
5.2810001 -0.685 -0.57200003 4 0 0 0 10.347425
8.4519997 -0.95999998 -0.015 13 0 0 0 10.352372
7.0359998 -0.78600001 -0.25799999 3 0 0 0 10.357319
6.0580001 -0.662 -0.43099999 5 0 0 0 10.362266
5.289 -0.55800003 -0.57300001 3 0 0 0 10.367213
6.9949999 -0.61799997 -0.25600001 5 0 0 0 10.377107
6.026 -0.51499999 -0.42899999 5 0 0 0 10.382054
5.3099999 -0.43000001 -0.57599998 2 0 0 0 10.387001
5.8759999 -0.40099999 -0.0099999998 3 0 0 0 10.391948
5.8779998 -0.38499999 -0.21600001 2 0 0 0 10.396895
5.8969998 -0.36500001 -0.421 4 0 0 0 10.401842
5.323 -0.30399999 -0.57800001 4 0 0 0 10.406789
5.9499998 -0.27399999 -0.011 3 0 0 0 10.411736
5.3169999 -0.175 -0.57800001 4 0 0 0 10.426577
5.8509998 -0.14300001 -0.011 1 0 0 0 10.431524
5.8940001 -0.119 -0.21799999 0 0 0 0 10.436471
5.8540001 -0.093000002 -0.41999999 3 0 0 0 10.441418
5.3260002 -0.050000001 -0.57999998 4 0 0 0 10.446365
8.4399996 -0.017000001 -0.017000001 3 0 0 0 10.451312
7.0900002 0.017000001 -0.26300001 55 0 0 0 10.456259
6.0100002 0.045000002 -0.43200001 7 0 0 0 10.461206
5.3410001 0.075999998 -0.583 7 0 0 0 10.466153
8.5059996 0.17 -0.018999999 4 0 0 0 10.4711
7.1300001 0.18000001 -0.266 5 0 0 0 10.476047
5.125 0.19599999 -0.56099999 13 0 0 0 10.485941
8.5459995 0.36000001 -0.021 4 0 0 0 10.490888
7.1760001 0.345 -0.27000001 7 0 0 0 10.495835
5.3280001 0.28999999 -0.38600001 17 0 0 0 10.500782
5.0830002 0.31799999 -0.55800003 6 0 0 0 10.505729
7.2589998 0.47 -0.018999999 35 0 0 0 10.366554
5.0500002 0.359 -0.191 50 0 0 0 10.371501
5.1420002 0.40099999 -0.37400001 15 0 0 0 10.376448
5.0939999 0.442 -0.56099999 13 0 0 0 10.381395
4.8590002 0.42300001 -0.014 48 0 0 0 10.386342
5.0050001 0.47099999 -0.191 13 0 0 0 10.391289
4.7969999 0.48699999 -0.35100001 4 0 0 0 10.396236
4.7649999 0.52899998 -0.52700001 11 0 0 0 10.401183
4.8150001 0.52600002 -0.015 17 0 0 0 10.40613
4.7270002 0.55400002 -0.182 14 0 0 0 10.411077
4.6939998 0.58600003 -0.34599999 22 0 0 0 10.416024
4.724 0.63700002 -0.52399999 17 0 0 0 10.420971
7.4660001 0.98400003 -0.026000001 37 0 0 0 10.425918
7.2449999 1.0140001 -0.28200001 6 0 0 0 10.430865
6.1430001 0.91399997 -0.45500001 1 0 0 0 10.435812
5.29 0.84200001 -0.58999997 14 0 0 0 10.440759
5.908 0.912 -0.023 21 0 0 0 10.445706
7.2160001 1.1799999 -0.28400001 5 0 0 0 10.450653
6.164 1.0650001 -0.46000001 6 0 0 0 10.4556
5.355 0.986 -0.60000002 5 0 0 0 10.460547
5.9169998 1.048 -0.025 28 0 0 0 10.465494
6.7309999 1.258 -0.26800001 64 0 0 0 10.470441
6.1849999 1.217 -0.465 6 0 0 0 10.475388
5.348 1.117 -0.60299999 5 0 0 0 10.480335
5.9260001 1.187 -0.028000001 28 0 0 0 10.485282
6.7080002 1.414 -0.271 128 0 0 0 10.490229
5.9159999 1.311 -0.44800001 1 0 0 0 10.495176
5.3579998 1.255 -0.60699999 4 0 0 0 10.500123
5.8400002 1.307 -0.029999999 50 0 0 0 10.50507
6.8720002 1.613 -0.28099999 14 0 0 0 10.510017
6.1500001 1.5140001 -0.47 5 0 0 0 10.514964
5.355 1.391 -0.611 3 0 0 0 10.519911
7.1069999 1.756 -0.041000001 126 0 0 0 10.524858
7.1170001 1.844 -0.296 28 0 0 0 10.529805
6.0939999 1.652 -0.47 6 0 0 0 10.534752
5.336 1.523 -0.61299998 3 0 0 0 10.539699
7.0760002 1.916 -0.044 40 0 0 0 10.544646
7.0630002 2.0009999 -0.29800001 1 0 0 0 10.549593
6.1420002 1.8200001 -0.47799999 2 0 0 0 10.55454
5.355 1.668 -0.61900002 2 0 0 0 10.559487
5.8460002 1.723 -0.039999999 7 0 0 0 10.564434
5.7290001 1.766 -0.245 0 0 0 0 10.569381
6.0310001 1.941 -0.47400001 4 0 0 0 10.574328
5.3779998 1.817 -0.62599999 3 0 0 0 10.579275
5.6700001 1.809 -0.043000001 25 0 0 0 10.584222
5.8039999 1.9349999 -0.25299999 2 0 0 0 10.589169
5.9070001 2.056 -0.46900001 0 0 0 0 10.594116
5.3530002 1.952 -0.62800002 3 0 0 0 10.599063
7.2140002 2.589 -0.31999999 8 0 0 0 10.608957
6.0929999 2.2809999 -0.48899999 2 0 0 0 10.613904
5.3540001 2.0999999 -0.634 3 0 0 0 10.618851
7.2340002 2.6719999 -0.064999998 2 0 0 0 10.623798
7.1550002 2.757 -0.32300001 3 0 0 0 10.628745
6.2059999 2.4920001 -0.50400001 2 0 0 0 10.633692
5.3520002 2.25 -0.639 1 0 0 0 10.638639
7.2090001 2.846 -0.07 1 0 0 0 10.643586
7.2579999 2.9890001 -0.33399999 4 0 0 0 10.648533
3.039 1.304 -0.25 45 0 0 0 10.65348
3.1340001 1.406 -0.377 55 0 0 0 10.658427
6.901 3.0280001 -0.324 27 0 0 0 10.668321
2.993 1.367 -0.249 52 0 0 0 10.673268
3.0780001 1.469 -0.37400001 55 0 0 0 10.678215
6.8340001 3.056 -0.078000002 35 0 0 0 10.683162
3.277 1.527 -0.15700001 27 0 0 0 10.688109
2.971 1.442 -0.25 35 0 0 0 10.693056
3.0320001 1.538 -0.373 61 0 0 0 10.698003
3.319 1.574 -0.041000001 76 0 0 0 10.70295
3.2149999 1.589 -0.15700001 33 0 0 0 10.707897
3.003 1.545 -0.257 93 0 0 0 10.712844
2.9760001 1.6 -0.37 67 0 0 0 10.717791
3.3770001 1.696 -0.045000002 29 0 0 0 10.722738
3.016 1.577 -0.15099999 150 0 0 0 10.727685
3.013 1.641 -0.26100001 6 0 0 0 10.732632
2.5009999 1.423 -0.31400001 0 0 0 0 10.737579
3.3010001 1.751 -0.046999998 28 0 0 0 10.742526
2.51 1.4450001 -0.221 5 0 0 0 10.75242
2.4219999 1.457 -0.308 5 0 0 0 10.757367
3.3010001 1.847 -0.050999999 11 0 0 0 10.762314
2.4979999 1.457 -0.131 3 0 0 0 10.767261
2.4159999 1.467 -0.21600001 11 0 0 0 10.772208
2.3429999 1.487 -0.301 6 0 0 0 10.777155
3.25 1.916 -0.054000001 11 0 0 0 10.782102
2.401 1.475 -0.12899999 3 0 0 0 10.787049
2.3469999 1.502 -0.214 7 0 0 0 10.791996
2.276 1.522 -0.29699999 5 0 0 0 10.796943
2.349 1.456 -0.041999999 0 0 0 0 10.80189
2.3 1.4859999 -0.127 3 0 0 0 10.806837
2.2260001 1.498 -0.206 3 0 0 0 10.811784
2.3010001 1.498 -0.044 5 0 0 0 10.821678
2.267 1.54 -0.12800001 4 0 0 0 10.826625
2.178 1.541 -0.205 0 0 0 0 10.831572
2.2060001 1.632 -0.296 52 0 0 0 10.836519
2.329 1.5930001 -0.048 17 0 0 0 10.370932
2.1719999 1.549 -0.126 3 0 0 0 10.375879
2.1989999 1.635 -0.211 66 0 0 0 10.380826
2.1789999 1.6950001 -0.29699999 58 0 0 0 10.385773
2.312 1.658 -0.050999999 26 0 0 0 10.39072
2.8080001 2.102 -0.168 5 0 0 0 10.395667
2.6340001 2.056 -0.25799999 6 0 0 0 10.400614
2.191 1.79 -0.303 34 0 0 0 10.405561
2.3180001 1.743 -0.055 5 0 0 0 10.410508
2.6919999 2.1140001 -0.16599999 4 0 0 0 10.415455
2.579 2.1129999 -0.25799999 5 0 0 0 10.420402
2.464 2.1129999 -0.34599999 4 0 0 0 10.425349
2.925 2.306 -0.075000003 6 0 0 0 10.430296
2.6040001 2.1440001 -0.16599999 5 0 0 0 10.435243
2.4960001 2.1440001 -0.255 6 0 0 0 10.44019
2.5320001 2.28 -0.36199999 7 0 0 0 10.445137
2.8800001 2.3770001 -0.079000004 6 0 0 0 10.450084
2.5179999 2.1719999 -0.16500001 6 0 0 0 10.455031
2.776 2.4990001 -0.28999999 58 0 0 0 10.459978
2.3239999 2.194 -0.338 42 0 0 0 10.464925
2.835 2.447 -0.082999997 7 0 0 0 10.469872
2.7639999 2.4960001 -0.18700001 118 0 0 0 10.474819
1.923 1.903 -0.285 28 0 0 0 10.484713
2.7780001 2.51 -0.086999997 6 0 0 0 10.48966
1.913 1.987 -0.28999999 59 0 0 0 10.504501
2.6470001 2.5020001 -0.089000002 6 0 0 0 10.509448
1.921 1.9910001 -0.21600001 82 0 0 0 10.519342
2.036 2.217 -0.315 75 0 0 0 10.524289
2.4200001 2.51 -0.182 6 0 0 0 10.534183
2.177 2.365 -0.25099999 53 0 0 0 10.53913
1.8839999 2.154 -0.29800001 25 0 0 0 10.544077
2.414 2.4990001 -0.092 0 0 0 0 10.549024
2.2920001 2.49 -0.178 6 0 0 0 10.553971
1.936 2.2060001 -0.229 21 0 0 0 10.558918
1.791 2.1489999 -0.28999999 28 0 0 0 10.563865
2.3050001 2.497 -0.093999997 6 0 0 0 10.568812
2.1719999 2.4719999 -0.175 6 0 0 0 10.573759
1.846 2.2049999 -0.22499999 29 0 0 0 10.578706
1.728 2.177 -0.28600001 26 0 0 0 10.583653
2.1849999 2.477 -0.094999999 6 0 0 0 10.5886
1.901 2.2650001 -0.15899999 28 0 0 0 10.593547
1.762 2.2079999 -0.221 48 0 0 0 10.598494
1.675 2.2149999 -0.28400001 30 0 0 0 10.603441
2.073 2.461 -0.097000003 17 0 0 0 10.608388
1.8049999 2.2550001 -0.15800001 25 0 0 0 10.613335
1.689 2.221 -0.219 26 0 0 0 10.618282
1.71 2.3770001 -0.29800001 6 0 0 0 10.623229
1.88 2.336 -0.093999997 29 0 0 0 10.628176
1.737 2.276 -0.15800001 25 0 0 0 10.633123
1.7029999 2.3510001 -0.228 12 0 0 0 10.63807
1.411 2.0639999 -0.25299999 78 0 0 0 10.643017
1.785 2.3239999 -0.094999999 26 0 0 0 10.647964
1.673 2.3010001 -0.15899999 28 0 0 0 10.652911
1.4859999 2.158 -0.206 47 0 0 0 10.657858
1.391 2.142 -0.257 62 0 0 0 10.662805
1.7180001 2.346 -0.097999997 27 0 0 0 10.667752
1.649 2.3800001 -0.164 8 0 0 0 10.672699
1.4680001 2.2420001 -0.211 55 0 0 0 10.677646
1.3430001 2.1800001 -0.25600001 41 0 0 0 10.682593
1.647 2.3610001 -0.101 5 0 0 0 10.68754
1.522 2.3110001 -0.15800001 50 0 0 0 10.692487
1.423 2.2880001 -0.212 28 0 0 0 10.697434
1.285 2.201 -0.25299999 21 0 0 0 10.702381
1.54 2.3180001 -0.101 18 0 0 0 10.707328
1.452 2.319 -0.15800001 60 0 0 0 10.712275
1.359 2.3039999 -0.20999999 4 0 0 0 10.717222
1.248 2.26 -0.255 8 0 0 0 10.722169
1.465 2.319 -0.103 43 0 0 0 10.727116
1.372 2.309 -0.15700001 4 0 0 0 10.732063
1.285 2.3010001 -0.207 2 0 0 0 10.73701
1.183 2.2679999 -0.25099999 0 0 0 0 10.741957
1.3890001 2.313 -0.105 4 0 0 0 10.746904
1.29 2.29 -0.156 7 0 0 0 10.751851
1.211 2.293 -0.204 2 0 0 0 10.756798
1.118 2.2739999 -0.24699999 3 0 0 0 10.761745
3.0810001 5.408 -0.25099999 80 0 0 0 10.766692
1.212 2.2739999 -0.154 9 0 0 0 10.771639
1.13 2.266 -0.199 4 0 0 0 10.776586
1.0420001 2.2520001 -0.23999999 2 0 0 0 10.781533
2.905 5.3839998 -0.255 102 0 0 0 10.78648
1.14 2.2639999 -0.153 6 0 0 0 10.791427
1.049 2.2349999 -0.19400001 8 0 0 0 10.796374
0.96799999 2.2290001 -0.233 2 0 0 0 10.801321
2.727 5.3400002 -0.25799999 106 0 0 0 10.806268
1.071 2.2539999 -0.153 0 0 0 0 10.811215
0.97899997 2.22 -0.191 10 0 0 0 10.816162
0.90100002 2.2160001 -0.228 4 0 0 0 10.821109
2.5580001 5.3070002 -0.26199999 70 0 0 0 10.826056
2.3540001 5.2659998 -0.35800001 53 0 0 0 10.831003
0.91399997 2.211 -0.189 5 0 0 0 10.83595
0.83200002 2.1960001 -0.222 11 0 0 0 10.840897
2.398 5.2849998 -0.266 57 0 0 0 10.817392
2.194 5.2360001 -0.35600001 58 0 0 0 10.822339
2.006 5.1989999 -0.44 45 0 0 0 10.827286
0.76499999 2.174 -0.21600001 11 0 0 0 10.832233
2.2360001 5.2459998 -0.27000001 63 0 0 0 10.83718
2.0420001 5.2080002 -0.35499999 60 0 0 0 10.842127
1.863 5.1859999 -0.435 55 0 0 0 10.847074
0.70599997 2.168 -0.212 2 0 0 0 10.852021
2.0840001 5.217 -0.273 65 0 0 0 10.856968
1.897 5.1929998 -0.354 59 0 0 0 10.861915
1.719 5.1620002 -0.42899999 59 0 0 0 10.866862
1.535 5.1259999 -0.49399999 77 0 0 0 10.871809
1.938 5.197 -0.278 64 0 0 0 10.876756
1.757 5.178 -0.354 59 0 0 0 10.881703
1.577 5.138 -0.42399999 94 0 0 0 10.88665
1.401 5.1059999 -0.48500001 81 0 0 0 10.891597
1.7970001 5.178 -0.28200001 64 0 0 0 10.896544
1.614 5.1409998 -0.35299999 83 0 0 0 10.901491
1.4450001 5.1259999 -0.41999999 92 0 0 0 10.906438
1.263 5.073 -0.47400001 70 0 0 0 10.911385
1.658 5.158 -0.287 91 0 0 0 10.916332
1.477 5.1240001 -0.35299999 80 0 0 0 10.921279
1.306 5.085 -0.414 91 0 0 0 10.926226
1.132 5.0510001 -0.465 69 0 0 0 10.931173
1.521 5.1329999 -0.29100001 93 0 0 0 10.93612
1.3430001 5.1020002 -0.35299999 78 0 0 0 10.941067
1.173 5.0700002 -0.41 89 0 0 0 10.946014
1.003 5.039 -0.458 72 0 0 0 10.950961
1.383 5.112 -0.296 92 0 0 0 10.955908
1.2079999 5.0739999 -0.352 76 0 0 0 10.960855
1.044 5.0510001 -0.40599999 85 0 0 0 10.965802
0.875 5.013 -0.449 77 0 0 0 10.970749
1.253 5.0939999 -0.301 87 0 0 0 10.975696
1.0779999 5.0510001 -0.35299999 76 0 0 0 10.980643
0.917 5.0279999 -0.40200001 85 0 0 0 10.98559
1.124 5.0710001 -0.30500001 56 0 0 0 10.995484
0.95200002 5.0320001 -0.35299999 74 0 0 0 11.000431
0.79299998 5.0089998 -0.39899999 52 0 0 0 11.005378
0.66799998 5.2810001 -0.461 92 0 0 0 11.010325
0.995 5.0450001 -0.31 14 0 0 0 11.015272
0.829 5.0089998 -0.354 36 0 0 0 11.020219
0.71200001 5.2789998 -0.419 65 0 0 0 11.025166
0.54100001 5.2509999 -0.45199999 91 0 0 0 11.030113
0.88599998 5.098 -0.31900001 10 0 0 0 11.03506
0.74699998 5.2719998 -0.375 19 0 0 0 11.040007
0.583 5.257 -0.41499999 93 0 0 0 11.044954
0.41499999 5.2340002 -0.44499999 91 0 0 0 11.049901
0.76499999 5.1069999 -0.32600001 17 0 0 0 11.054848
0.62199998 5.27 -0.377 88 0 0 0 11.059795
0.45699999 5.2340002 -0.412 92 0 0 0 11.064742
0.29100001 5.2189999 -0.43900001 88 0 0 0 11.069689
0.667 5.2870002 -0.345 92 0 0 0 11.074636
0.49399999 5.2399998 -0.37799999 92 0 0 0 11.079583
0.333 5.2210002 -0.41 92 0 0 0 11.08453
0.167 5.204 -0.43200001 76 0 0 0 11.089477
0.53500003 5.256 -0.34900001 91 0 0 0 11.094424
0.368 5.23 -0.38 90 0 0 0 11.099371
0.206 5.197 -0.40700001 90 0 0 0 11.104318
0.043000001 5.2529998 -0.43099999 75 0 0 0 11.109265
0.41 5.2350001 -0.35499999 91 0 0 0 11.114212
0.243 5.2059999 -0.38100001 83 0 0 0 11.119159
0.086999997 5.3499999 -0.41800001 100 0 0 0 11.124106
-0.079999998 5.2529998 -0.426 51 0 0 0 11.129053
0.287 5.2189999 -0.361 89 0 0 0 11.134
0.123 5.2750001 -0.389 73 0 0 0 11.138947
-0.037999999 5.2579999 -0.41 31 0 0 0 11.143894
-0.193 5.0050001 -0.40200001 31 0 0 0 11.148841
0.164 5.1960001 -0.36700001 87 0 0 0 11.153788
0 4.9489999 -0.368 45 0 0 0 11.158735
-0.155 5.0780001 -0.396 22 0 0 0 11.163682
-0.317 5.1020002 -0.405 16 0 0 0 11.168629
0.043000001 5.309 -0.38299999 92 0 0 0 11.173576
-0.123 5.2649999 -0.396 63 0 0 0 11.178523
-0.27900001 5.1719999 -0.403 45 0 0 0 11.18347
-0.081 5.3000002 -0.38999999 65 0 0 0 11.193364
-0.242 5.165 -0.39199999 44 0 0 0 11.198311
-0.52499998 4.8150001 -0.375 1 0 0 0 11.208205
-0.20100001 5.1999998 -0.38999999 40 0 0 0 11.213152
-0.49399999 4.8769999 -0.38 0 0 0 0 11.223046
-0.63800001 4.7979999 -0.37 2 0 0 0 11.227993
-0.31600001 5.0910001 -0.38999999 14 0 0 0 11.23294
-0.60100001 4.8109999 -0.375 2 0 0 0 11.242834
-0.80900002 5.1570001 -0.39399999 150 0 0 0 11.247781
-0.56599998 4.8119998 -0.377 2 0 0 0 11.257675
-0.71499997 4.8039999 -0.375 17 0 0 0 11.262622
-0.87699997 4.855 -0.368 166 0 0 0 11.267569
-0.528 4.816 -0.38499999 4 0 0 0 11.272516
-0.67900002 4.7909999 -0.37900001 11 0 0 0 11.277463
-0.87800002 5.098 -0.39899999 151 0 0 0 11.28241
-1.056 5.1599998 -0.38800001 92 0 0 0 11.287357
-0.63599998 4.7870002 -0.391 1 0 0 0 11.914873
-0.85399997 5.1700001 -0.414 150 0 0 0 11.91982
-1.015 5.1620002 -0.405 94 0 0 0 11.924767
-1.178 5.1459999 -0.384 93 0 0 0 11.929714
-0.80299997 5.1090002 -0.426 70 0 0 0 11.934661
-0.977 5.1609998 -0.41800001 128 0 0 0 11.939608
-1.138 5.1479998 -0.405 93 0 0 0 11.944555
-1.298 5.1220002 -0.37900001 93 0 0 0 11.949502
-0.90799999 5.007 -0.426 150 0 0 0 11.954449
-1.101 5.145 -0.42199999 88 0 0 0 11.959396
-1.26 5.1259999 -0.405 95 0 0 0 11.964343
-1.42 5.0970001 -0.375 95 0 0 0 11.96929
-1.063 5.165 -0.449 90 0 0 0 11.974237
-1.224 5.131 -0.42699999 84 0 0 0 11.979184
-1.383 5.1069999 -0.405 97 0 0 0 11.984131
-1.484 4.8870001 -0.35699999 80 0 0 0 11.989078
-1.187 5.1430001 -0.45699999 90 0 0 0 11.994025
-1.344 5.1009998 -0.43000001 83 0 0 0 11.998972
-1.393 4.7059999 -0.375 56 0 0 0 12.003919
-1.655 5.0229998 -0.36399999 85 0 0 0 12.008866
-1.309 5.118 -0.465 91 0 0 0 12.013813
-1.461 5.0560002 -0.43200001 54 0 0 0 12.01876
-1.595 4.9590001 -0.39700001 94 0 0 0 12.023707
-1.785 5.0229998 -0.36199999 82 0 0 0 12.028654
-1.431 5.0900002 -0.47299999 91 0 0 0 12.033601
-1.594 5.0640001 -0.43900001 81 0 0 0 12.038548
-1.6950001 4.8730001 -0.39199999 85 0 0 0 12.043495
-1.888 4.948 -0.354 67 0 0 0 12.048442
-1.554 5.0599999 -0.48100001 86 0 0 0 12.053389
-1.717 5.0380001 -0.44299999 82 0 0 0 12.058336
-1.862 4.9759998 -0.403 97 0 0 0 12.063283
-1.29 3.158 -0.22499999 28 0 0 0 12.06823
-1.676 5.0320001 -0.48899999 82 0 0 0 12.073177
-1.816 4.9419999 -0.44100001 79 0 0 0 12.078124
-1.283 3.1989999 -0.25999999 6 0 0 0 12.083071
-1.3329999 3.0599999 -0.21699999 24 0 0 0 12.088018
-1.176 3.2690001 -0.32499999 42 0 0 0 12.092965
-1.2920001 3.276 -0.29699999 43 0 0 0 12.097912
-1.321 3.082 -0.252 36 0 0 0 12.102859
-1.413 3.05 -0.215 4 0 0 0 12.107806
-1.25 3.23 -0.329 43 0 0 0 12.112753
-1.311 3.1070001 -0.28600001 32 0 0 0 12.1177
-1.398 3.063 -0.25299999 17 0 0 0 12.122647
-2.309 4.6929998 -0.33000001 19 0 0 0 12.127594
-1.3200001 3.1860001 -0.33199999 29 0 0 0 12.132541
-1.3940001 3.098 -0.28999999 27 0 0 0 12.137488
-2.342 4.8299999 -0.40200001 18 0 0 0 12.142435
-2.5569999 4.9070001 -0.34299999 107 0 0 0 12.147382
-1.41 3.184 -0.34 18 0 0 0 12.152329
-2.339 4.8860002 -0.46599999 60 0 0 0 12.157276
-2.5250001 4.9089999 -0.412 107 0 0 0 12.162223
-2.6530001 4.8169999 -0.336 22 0 0 0 12.16717
-2.306 4.8889999 -0.53500003 74 0 0 0 12.172117
-2.4890001 4.902 -0.47600001 150 0 0 0 12.177064
-2.652 4.8740001 -0.41299999 70 0 0 0 12.182011
-2.7780001 4.7779999 -0.33199999 72 0 0 0 12.186958
-2.4319999 4.8530002 -0.54400003 95 0 0 0 12.191905
-2.628 4.8829999 -0.48300001 88 0 0 0 12.196852
-2.5769999 4.4829998 -0.384 46 0 0 0 12.201799
-2.95 4.816 -0.33399999 82 0 0 0 12.206746
-2.602 4.8940001 -0.56300002 100 0 0 0 12.211693
-2.5550001 4.4899998 -0.45199999 24 0 0 0 12.21664
-2.8740001 4.7399998 -0.41 64 0 0 0 12.221587
-3.0940001 4.796 -0.33199999 78 0 0 0 12.226534
-2.5450001 4.5229998 -0.53299999 16 0 0 0 12.231481
-2.73 4.5430002 -0.46700001 78 0 0 0 12.236428
-3.0610001 4.7919998 -0.419 79 0 0 0 12.241375
-3.23 4.7639999 -0.33000001 77 0 0 0 12.246322
-2.6949999 4.5339999 -0.54900002 77 0 0 0 12.251269
-2.9960001 4.7290001 -0.49599999 71 0 0 0 12.256216
-3.207 4.7690001 -0.42199999 89 0 0 0 12.261163
-2.99 4.7649999 -0.59200001 62 0 0 0 12.271057
-3.1800001 4.7670002 -0.50999999 78 0 0 0 12.276004
-3.151 4.7639999 -0.60799998 71 0 0 0 12.290845
-3.5480001 4.1199999 -0.28600001 72 0 0 0 12.345262
-3.553 4.1459999 -0.39399999 74 0 0 0 12.360103
-3.691 4.0929999 -0.28400001 73 0 0 0 12.36505
-3.5869999 4.2010002 -0.50300002 69 0 0 0 12.374944
-3.7539999 4.177 -0.40400001 57 0 0 0 12.379891
-3.8570001 4.085 -0.285 55 0 0 0 12.384838
-3.6099999 4.2449999 -0.625 65 0 0 0 12.30509
-3.816 4.2579999 -0.523 65 0 0 0 12.310037
-3.9070001 4.1490002 -0.40799999 63 0 0 0 12.314984
-4.086 4.132 -0.289 40 0 0 0 12.319931
-3.8039999 4.2620001 -0.64700001 46 0 0 0 12.324878
-3.9690001 4.2249999 -0.53200001 45 0 0 0 12.329825
-4.046 4.1020002 -0.41100001 60 0 0 0 12.334772
-4.263 4.119 -0.28999999 34 0 0 0 12.339719
-3.9519999 4.217 -0.66100001 44 0 0 0 12.344666
-4.4650002 4.533 -0.58600003 91 0 0 0 12.349613
-4.1459999 4.0110002 -0.41 66 0 0 0 12.35456
-4.402 4.0640001 -0.28799999 57 0 0 0 12.359507
-4.3280001 4.401 -0.71200001 49 0 0 0 12.364454
-4.6799998 4.5310001 -0.60299999 98 0 0 0 12.369401
-4.3080001 3.977 -0.41499999 70 0 0 0 12.374348
-4.5799999 4.0370002 -0.28799999 67 0 0 0 12.379295
-4.6729999 4.5289998 -0.75700003 82 0 0 0 12.384242
-4.8740001 4.5 -0.616 103 0 0 0 12.389189
-4.487 3.9519999 -0.421 54 0 0 0 12.394136
-4.7680001 4.0120001 -0.28799999 68 0 0 0 12.399083
-4.8699999 4.4949999 -0.77700001 83 0 0 0 12.40403
-5.006 4.4060001 -0.62099999 85 0 0 0 12.408977
-4.7210002 3.967 -0.433 44 0 0 0 12.413924
-4.9879999 4.0050001 -0.28999999 96 0 0 0 12.418871
-4.9499998 4.3530002 -0.77899998 43 0 0 0 12.423818
-4.9809999 4.177 -0.60699999 82 0 0 0 12.428765
-4.8730001 3.905 -0.43599999 75 0 0 0 12.433712
-4.9419999 4.1370001 -0.76800001 59 0 0 0 12.443606
-4.8520002 3.8770001 -0.58200002 76 0 0 0 12.448553
-4.8509998 3.8659999 -0.745 43 0 0 0 12.463394
-8.4289999 5.8699999 -0.44 5 0 0 0 12.478235
-8.3780003 5.8010001 -0.70200002 4 0 0 0 12.493076
-8.3920002 5.5619998 -0.42300001 6 0 0 0 12.498023
-8.3479996 5.4959998 -0.68599999 4 0 0 0 12.512864
-8.3199997 5.2470002 -0.405 5 0 0 0 12.517811
-8.2799997 5.1799998 -0.667 5 0 0 0 12.532652
-8.2849998 4.9629998 -0.38999999 7 0 0 0 12.537599
-8.2259998 4.881 -0.64999998 7 0 0 0 12.55244
-8.2329998 4.6810002 -0.375 7 0 0 0 12.557387
-4.855 2.9860001 -0.70700002 6 0 0 0 12.562334
-8.1859999 4.6040001 -0.63499999 5 0 0 0 12.572228
-7.987 4.302 -0.352 7 0 0 0 12.577175
-7.9450002 4.2290001 -0.60600001 7 0 0 0 12.592016
-7.948 4.052 -0.33899999 8 0 0 0 12.596963
-7.8959999 3.971 -0.59200001 7 0 0 0 12.611804
-7.9699998 3.8380001 -0.329 7 0 0 0 12.616751
-3.799 1.971 -0.53899997 32 0 0 0 12.621698
-8.0380001 3.809 -0.59200001 7 0 0 0 12.631592
-8.0550003 3.6570001 -0.32300001 11 0 0 0 12.636539
-3.7720001 1.842 -0.53200001 22 0 0 0 12.641486
-8.0120001 3.418 -0.31099999 9 0 0 0 12.656327
-3.7620001 1.726 -0.52700001 19 0 0 0 12.661274
-7.9770002 3.1919999 -0.301 10 0 0 0 12.676115
-3.744 1.607 -0.52100003 16 0 0 0 12.681062
-7.9369998 2.967 -0.29100001 11 0 0 0 12.695903
-7.901 2.7520001 -0.28099999 11 0 0 0 12.715691
-7.869 2.543 -0.27200001 10 0 0 0 12.735479
-7.823 2.335 -0.26300001 11 0 0 0 12.755267
-7.7690001 2.233 -0.51899999 9 0 0 0 12.770108
-7.783 2.1300001 -0.255 11 0 0 0 12.775055
-7.7319999 2.0280001 -0.50999999 9 0 0 0 12.31857
-7.7550001 1.936 -0.248 13 0 0 0 12.323517
-7.1849999 -1.341 -0.161 14 0 0 0 12.699489
-7.164 -1.505 -0.15899999 18 0 0 0 12.719277
-4.1700001 -0.97600001 -0.241 0 0 0 0 12.734118
-7.1570001 -1.673 -0.15700001 18 0 0 0 12.739065
-4.1350002 -1.067 -0.38800001 1 0 0 0 12.748959
-4.158 -1.076 -0.23999999 0 0 0 0 12.753906
-7.1220002 -1.835 -0.156 16 0 0 0 12.758853
-4.118 -1.1670001 -0.38699999 0 0 0 0 12.768747
-7.0370002 -1.9960001 -0.40599999 4 0 0 0 12.773694
-7.0640001 -1.992 -0.154 14 0 0 0 12.778641
-4.098 -1.267 -0.38600001 0 0 0 0 12.850002
-7.0209999 -2.1670001 -0.405 4 0 0 0 12.854949
-7.0370002 -2.1559999 -0.152 14 0 0 0 12.859896
-6.9910002 -2.335 -0.40400001 2 0 0 0 12.874737
-7.0120001 -2.323 -0.15099999 14 0 0 0 12.879684
-6.9819999 -2.5150001 -0.40400001 1 0 0 0 12.894525
-6.9699998 -2.484 -0.15000001 11 0 0 0 12.899472
-6.9460001 -2.684 -0.403 1 0 0 0 12.914313
-6.9559999 -2.658 -0.15000001 14 0 0 0 12.91926
-6.9530001 -2.8380001 -0.15000001 2 0 0 0 12.939048
-6.5349998 -3.967 -0.149 13 0 0 0 13.077564
-6.5120001 -4.1570001 -0.15099999 13 0 0 0 13.097352
-6.4780002 -4.3439999 -0.153 14 0 0 0 13.11714
-6.1479998 -4.4159999 -0.382 1 0 0 0 13.131981
-6.1750002 -4.3439999 -0.148 9 0 0 0 13.136928
-6.145 -4.5359998 -0.15000001 12 0 0 0 13.156716
-6.1079998 -4.724 -0.153 10 0 0 0 13.176504
-6.0780001 -4.9260001 -0.156 9 0 0 0 13.196292
-6.0469999 -5.131 -0.15899999 7 0 0 0 13.21608
-6.0009999 -5.3299999 -0.162 7 0 0 0 13.235868
-3.687 -3.5899999 -0.40400001 0 0 0 0 13.245762
-6.368 -5.921 -0.176 2 0 0 0 13.255656
-3.4200001 -3.5780001 -0.54400003 56 0 0 0 13.260603
-3.5079999 -3.582 -0.389 68 0 0 0 13.26555
-3.6849999 -3.585 -0.105 1 0 0 0 13.275444
-3.2179999 -3.5339999 -0.51899999 53 0 0 0 13.280391
-3.322 -3.5539999 -0.37400001 65 0 0 0 13.285338
-3.4059999 -3.5599999 -0.237 80 0 0 0 13.290285
-3.4979999 -3.5599999 -0.103 83 0 0 0 13.295232
-3.0369999 -3.4990001 -0.498 62 0 0 0 13.300179
-3.1359999 -3.5190001 -0.359 63 0 0 0 13.305126
-3.2249999 -3.53 -0.228 76 0 0 0 13.310073
-3.3180001 -3.5350001 -0.101 78 0 0 0 13.31502
-2.875 -3.4760001 -0.479 62 0 0 0 13.842932
-2.9619999 -3.4849999 -0.345 66 0 0 0 13.847879
-3.0420001 -3.4890001 -0.22 75 0 0 0 13.852826
-3.1440001 -3.5039999 -0.098999999 82 0 0 0 13.857773
-2.717 -3.4519999 -0.461 62 0 0 0 13.86272
-2.7980001 -3.4519999 -0.33199999 66 0 0 0 13.867667
-2.8770001 -3.457 -0.212 82 0 0 0 13.872614
-2.971 -3.4660001 -0.097000003 77 0 0 0 13.877561
-2.563 -3.4200001 -0.44299999 63 0 0 0 13.882508
-2.645 -3.425 -0.31999999 80 0 0 0 13.887455
-2.7219999 -3.4289999 -0.205 86 0 0 0 13.892402
-2.8139999 -3.4389999 -0.096000001 84 0 0 0 13.897349
-2.421 -3.3970001 -0.42699999 57 0 0 0 13.902296
-2.503 -3.404 -0.30899999 71 0 0 0 13.907243
-2.579 -3.4059999 -0.199 98 0 0 0 13.91219
-2.668 -3.4159999 -0.093999997 90 0 0 0 13.917137
-2.2839999 -3.372 -0.41100001 60 0 0 0 13.922084
-2.362 -3.375 -0.29800001 61 0 0 0 13.927031
-2.444 -3.3889999 -0.19400001 86 0 0 0 13.931978
-2.529 -3.3929999 -0.093999997 88 0 0 0 13.936925
-2.1530001 -3.3469999 -0.396 57 0 0 0 13.941872
-2.2320001 -3.3529999 -0.28799999 75 0 0 0 13.946819
-2.312 -3.365 -0.18799999 91 0 0 0 13.951766
-2.3940001 -3.3699999 -0.093000002 86 0 0 0 13.956713
-2.0280001 -3.326 -0.382 55 0 0 0 13.96166
-2.1099999 -3.3369999 -0.27900001 81 0 0 0 13.966607
-2.1819999 -3.3410001 -0.183 97 0 0 0 13.971554
-2.2650001 -3.346 -0.092 94 0 0 0 13.976501
-1.91 -3.306 -0.36899999 69 0 0 0 13.981448
-1.9859999 -3.309 -0.27000001 75 0 0 0 13.986395
-2.059 -3.3150001 -0.178 86 0 0 0 13.991342
-2.145 -3.3310001 -0.090999998 103 0 0 0 13.996289
-1.788 -3.2709999 -0.35499999 68 0 0 0 14.001236
-1.87 -3.289 -0.26199999 82 0 0 0 14.006183
-1.9450001 -3.3 -0.17399999 96 0 0 0 14.01113
-2.023 -3.303 -0.090999998 97 0 0 0 14.016077
-1.664 -3.224 -0.34099999 43 0 0 0 14.021024
-1.7539999 -3.26 -0.25299999 81 0 0 0 14.025971
-1.829 -3.273 -0.169 101 0 0 0 14.030918
-1.908 -3.28 -0.090000004 109 0 0 0 14.035865
-1.5549999 -3.197 -0.32800001 41 0 0 0 14.040812
-1.627 -3.2 -0.242 45 0 0 0 14.045759
-1.707 -3.227 -0.164 56 0 0 0 14.050706
-1.7970001 -3.26 -0.090000004 97 0 0 0 14.055653
-1.45 -3.168 -0.317 40 0 0 0 14.0606
-1.523 -3.178 -0.235 47 0 0 0 14.065547
-1.594 -3.1889999 -0.15899999 49 0 0 0 14.070494
-1.6670001 -3.1919999 -0.088 32 0 0 0 14.075441
-1.358 -3.164 -0.308 42 0 0 0 14.080388
-1.431 -3.174 -0.229 42 0 0 0 14.085335
-1.4960001 -3.1760001 -0.156 50 0 0 0 14.090282
-1.567 -3.175 -0.089000002 48 0 0 0 14.095229
-1.266 -3.151 -0.29899999 41 0 0 0 14.100176
-1.3329999 -3.1530001 -0.222 41 0 0 0 14.105123
-1.404 -3.1670001 -0.153 44 0 0 0 14.11007
-1.475 -3.1689999 -0.089000002 46 0 0 0 14.115017
-1.186 -3.1670001 -0.292 71 0 0 0 14.119964
-1.245 -3.1470001 -0.21699999 54 0 0 0 14.124911
-1.311 -3.151 -0.15000001 47 0 0 0 14.129858
-1.38 -3.152 -0.089000002 52 0 0 0 14.134805
-1.099 -3.1600001 -0.28400001 84 0 0 0 14.139752
-1.1670001 -3.1619999 -0.213 92 0 0 0 14.144699
-1.225 -3.1459999 -0.148 65 0 0 0 14.149646
-1.291 -3.1389999 -0.089000002 52 0 0 0 14.154593
-1.012 -3.1440001 -0.27500001 100 0 0 0 14.15954
-1.0779999 -3.1440001 -0.207 91 0 0 0 14.164487
-1.147 -3.161 -0.147 101 0 0 0 14.169434
-1.214 -3.158 -0.090999998 102 0 0 0 14.174381
-0.926 -3.1270001 -0.26699999 94 0 0 0 14.179328
-0.995 -3.1389999 -0.20299999 105 0 0 0 14.184275
-1.0599999 -3.1459999 -0.14399999 102 0 0 0 14.189222
-1.1289999 -3.1489999 -0.090999998 104 0 0 0 14.194169
-0.84200001 -3.115 -0.259 92 0 0 0 14.199116
-0.91000003 -3.119 -0.197 103 0 0 0 14.204063
-0.97299999 -3.1240001 -0.141 99 0 0 0 14.20901
-1.044 -3.1370001 -0.092 108 0 0 0 14.213957
-0.75999999 -3.0969999 -0.25 92 0 0 0 14.218904
-0.82800001 -3.1070001 -0.192 107 0 0 0 14.223851
-0.89300001 -3.1170001 -0.139 106 0 0 0 14.228798
-0.95999998 -3.122 -0.092 109 0 0 0 14.233745
-0.67900002 -3.0799999 -0.243 108 0 0 0 14.238692
