# .PCD v0.7 - Point Cloud Data file format
VERSION 0.7
FIELDS x y z intensity normal_x normal_y normal_z curvature
SIZE 4 4 4 4 4 4 4 4
TYPE F F F F F F F F
COUNT 1 1 1 1 1 1 1 1
WIDTH 926
HEIGHT 1
VIEWPOINT 0 0 0 1 0 0 0
POINTS 926
DATA ascii
-12.020389 -1.4679886 0.78995401 129 0 0 0 0.39219201
-4.6170912 0.8121531 -1.1382126 270 0 0 0 0.39219201
-6.7607884 -0.84186405 -1.2313282 162 0 0 0 0.39219201
-34.864815 -4.2934365 5.7150021 11 0 0 0 0.39219201
-13.680298 2.4724717 2.8036475 9 0 0 0 0.488704
-9.0454531 -0.16431919 -0.62141472 87 0 0 0 0.488704
-7.9204044 -0.92921406 -1.0439819 139 0 0 0 0.488704
-12.157915 -1.4090838 0.19177191 106 0 0 0 0.488704
-31.959036 2.6614323 14.776161 6 0 0 0 0.488704
-34.82383 -4.0716414 5.7041416 4 0 0 0 0.488704
-11.158986 -0.20044568 -0.23201863 95 0 0 0 0.488704
-8.5720348 0.68167245 -0.48507196 104 0 0 0 0.488704
-4.3020372 0.34962556 -1.3233888 51 0 0 0 0.488704
-4.9381161 -0.097253166 -1.3208777 29 0 0 0 0.488704
-12.401387 2.2305207 1.906257 62 0 0 0 0.488704
-10.66349 0.84954023 -0.090455055 51 0 0 0 0.488704
-9.5850019 -1.1151435 -0.79039878 71 0 0 0 0.488704
-7.5440521 -0.13859035 -0.8855865 145 0 0 0 0.488704
-11.408237 -1.3224467 -0.38191602 91 0 0 0 0.488704
-4.8169794 0.38875526 -1.2284368 251 0 0 0 0.488704
-5.1754785 0.93795073 -1.0094533 265 0 0 0 0.488704
-33.716011 -0.65004909 11.173995 11 0 0 0 0.488704
-9.9605446 1.779726 0.037941094 85 0 0 0 0.488704
-7.1885195 0.57313609 -0.75439847 181 0 0 0 0.488704
-14.004086 1.1177205 1.9344419 16 0 0 0 0.488704
-5.4113564 0.43464404 -1.1042272 268 0 0 0 0.488704
-13.566024 2.4690056 3.4982052 18 0 0 0 0.488704
-11.979597 -1.3884763 0.78684062 123 0 0 0 0.488704
-6.4351621 -0.12180293 -1.0709188 179 0 0 0 0.488704
-6.1867466 0.49563673 -0.95362538 252 0 0 0 0.488704
-5.6328568 -0.10678747 -1.2193005 232 0 0 0 0.488704
-10.93567 1.9535595 0.58200347 215 0 0 0 0.488704
-5.8311024 -0.69761628 -1.3587421 203 0 0 0 0.488704
-6.8216538 1.2238635 -0.64430159 142 0 0 0 0.488704
-34.429661 -4.0865736 9.2416115 7 0 0 0 0.488704
-12.694647 1.0133358 1.1278335 102 0 0 0 0.488704
-34.116966 -0.63987857 9.4665585 14 0 0 0 0.488704
-3.9936366 -0.08453431 -1.4999107 272 0 0 0 0.488704
-5.9048605 1.0642081 -0.85217255 255 0 0 0 0.488704
-5.1250906 -0.62277442 -1.4630706 90 0 0 0 0.488704
-34.469955 -4.0608263 7.4269576 9 0 0 0 0.488704
-12.478262 2.2330585 1.2853217 84 0 0 0 0.488704
-11.099379 0.8822571 0.44732729 152 0 0 0 0.488704
-32.475697 2.6815867 13.086622 7 0 0 0 0.488704
-6.7463017 -0.79806685 -1.227656 171 0 0 0 0.488704
-12.979449 -0.23065628 0.99427789 92 0 0 0 0.488704
-4.6062961 0.83942962 -1.1367468 297 0 0 0 0.488704
-34.422398 -0.63356543 7.7511292 11 0 0 0 0.488704
-32.118824 2.6013019 9.3602381 14 0 0 0 0.488704
-8.0428391 1.4378608 -0.36490172 105 0 0 0 0.488704
-11.274811 -0.19856574 0.31502554 159 0 0 0 0.488704
-11.154009 -0.13190144 -0.23187412 98 0 0 0 0.58956802
-6.409184 -0.081980601 -1.066323 181 0 0 0 0.58956802
-6.1589947 0.53147167 -0.94967145 218 0 0 0 0.58956802
-12.986604 -0.15108052 0.99472046 97 0 0 0 0.58956802
-5.8149753 -0.65953642 -1.3538684 241 0 0 0 0.58956802
-5.8855777 1.0980698 -0.85026002 212 0 0 0 0.58956802
-32.541477 2.8251431 7.7694445 15 0 0 0 0.58956802
-10.55845 0.90641421 -0.08926826 67 0 0 0 0.58956802
-35.0653 3.0811751 12.141284 9 0 0 0 0.58956802
-4.9164519 -0.066657312 -1.3147544 41 0 0 0 0.58956802
-14.46592 -0.17825778 3.274636 21 0 0 0 0.58956802
-12.695139 1.0918065 1.1284326 96 0 0 0 0.58956802
-13.568727 2.5556037 3.5028403 8 0 0 0 0.58956802
-5.1387796 0.96392798 -1.003183 295 0 0 0 0.58956802
-12.368018 2.3029573 1.9033147 85 0 0 0 0.58956802
-4.2855654 0.37477463 -1.3188583 34 0 0 0 0.58956802
-34.546711 -3.8550971 7.4382124 6 0 0 0 0.58956802
-6.7266479 -0.75393474 -1.2230659 169 0 0 0 0.58956802
-13.673546 2.5579863 2.805408 110 0 0 0 0.58956802
-4.5915284 0.86588889 -1.1343038 291 0 0 0 0.58956802
-11.27082 -0.1293243 0.31490165 122 0 0 0 0.58956802
-32.467976 -3.5659668 3.6795461 5 0 0 0 0.58956802
-8.9824657 -0.10805599 -0.61676091 104 0 0 0 0.58956802
-32.048672 2.7936614 9.3446617 13 0 0 0 0.58956802
-5.3832421 0.46565336 -1.0988569 241 0 0 0 0.58956802
-11.092761 0.95025986 0.44729027 135 0 0 0 0.58956802
-12.092777 -1.3264142 0.19082911 136 0 0 0 0.58956802
-14.03547 1.2069343 1.9396741 39 0 0 0 0.58956802
-12.56316 2.3278627 1.2952478 43 0 0 0 0.58956802
-7.5000982 -0.091759935 -0.88011014 168 0 0 0 0.58956802
-3.9875524 -0.059932444 -1.497385 356 0 0 0 0.58956802
-9.9081345 1.8331847 0.037933763 73 0 0 0 0.58956802
-33.671894 -0.44253734 11.158303 9 0 0 0 0.58956802
-34.019058 -0.42925599 9.4385691 17 0 0 0 0.58956802
-34.479057 -3.8780458 9.2482882 9 0 0 0 0.58956802
-10.947049 2.0249743 0.58318424 155 0 0 0 0.58956802
-7.8816371 -0.8756966 -1.0379214 126 0 0 0 0.58956802
-5.6060843 -0.07187926 -1.2131829 252 0 0 0 0.58956802
-11.984914 -1.3146193 0.78665382 161 0 0 0 0.58956802
-34.760834 -3.8482327 5.6899276 12 0 0 0 0.58956802
-4.7827082 0.41555098 -1.2200404 266 0 0 0 0.58956802
-7.1571369 0.61485624 -0.75133562 154 0 0 0 0.58956802
-6.7650886 1.2566385 -0.63939643 159 0 0 0 0.58956802
-31.89867 2.8535953 14.756104 6 0 0 0 0.58956802
-5.1230931 -0.59066063 -1.4613897 80 0 0 0 0.58956802
-8.490118 0.72762078 -0.48033735 118 0 0 0 0.58956802
-11.316795 -1.241559 -0.37826908 64 0 0 0 0.58956802
-8.0053816 1.4819255 -0.36347497 120 0 0 0 0.58956802
-9.5262985 -1.0491391 -0.78474975 77 0 0 0 0.58956802
-4.0793247 0.77644116 -1.2247801 5 0 0 0 0.58956802
-4.7569575 0.44274497 -1.2139341 235 0 0 0 0.68428802
-4.4796643 0.41939712 -1.38138 5 0 0 0 0.68428802
-12.060903 -1.2480856 0.19031948 144 0 0 0 0.68428802
-31.847097 3.0460691 14.740643 4 0 0 0 0.68428802
-13.647 2.639792 2.8032563 38 0 0 0 0.68428802
-33.866348 -3.7245963 12.826483 5 0 0 0 0.68428802
-11.276485 -1.1671754 -0.37651855 52 0 0 0 0.68428802
-11.998712 -1.2416708 0.78702742 112 0 0 0 0.68428802
-31.775227 2.9887934 11.010833 12 0 0 0 0.68428802
-32.003189 2.9876678 9.3365946 12 0 0 0 0.68428802
-13.57659 2.6434381 3.5089393 7 0 0 0 0.68428802
-6.7435665 1.2955042 -0.63802296 176 0 0 0 0.68428802
-8.9201269 -0.052577723 -0.61217982 105 0 0 0 0.68428802
-33.956474 -0.22009493 9.4207087 13 0 0 0 0.68428802
-5.5781212 -0.037297331 -1.206847 267 0 0 0 0.68428802
-7.9304066 1.5184658 -0.36017868 130 0 0 0 0.68428802
-12.680264 1.168951 1.1277479 82 0 0 0 0.68428802
-12.978311 -0.071344964 0.99405664 117 0 0 0 0.68428802
-5.8573599 1.1300547 -0.84702337 208 0 0 0 0.68428802
-6.4085813 -0.042646695 -1.0661529 222 0 0 0 0.68428802
-5.1399817 -0.56066138 -1.465312 23 0 0 0 0.68428802
-7.1245246 0.65612191 -0.7481634 146 0 0 0 0.68428802
-11.102643 1.0197663 0.44788218 185 0 0 0 0.68428802
-7.4548626 -0.045468278 -0.87451214 150 0 0 0 0.68428802
-6.6734691 -0.70657516 -1.2122329 167 0 0 0 0.68428802
-3.9850473 -0.03544027 -1.4963026 352 0 0 0 0.68428802
-34.618347 -3.6481693 7.4486337 10 0 0 0 0.68428802
-4.0866847 0.80384415 -1.2285788 40 0 0 0 0.68428802
-34.272556 -3.7025876 11.042748 6 0 0 0 0.68428802
-12.589692 2.4127591 1.2993754 51 0 0 0 0.68428802
-10.474026 0.96395314 -0.088330686 72 0 0 0 0.68428802
-10.942266 2.0936048 0.58357781 139 0 0 0 0.68428802
-32.444759 -3.3620758 3.6745534 8 0 0 0 0.68428802
-9.7621317 1.8682485 0.037909854 85 0 0 0 0.68428802
-34.735535 -0.20084302 6.043982 16 0 0 0 0.68428802
-8.4367876 0.77523386 -0.47736305 136 0 0 0 0.68428802
-12.341027 2.3763754 1.9014021 83 0 0 0 0.68428802
-34.54353 -3.6707997 9.2593298 11 0 0 0 0.68428802
-11.251407 -0.06006106 0.31440601 140 0 0 0 0.68428802
-5.1067719 0.99042016 -0.99789244 283 0 0 0 0.68428802
-13.965632 1.2873073 1.9312222 29 0 0 0 0.68428802
-9.4671488 -0.98389733 -0.77910078 91 0 0 0 0.68428802
-11.140612 -0.063381314 -0.23153697 100 0 0 0 0.68428802
-7.8218164 -0.82052976 -1.0290327 140 0 0 0 0.68428802
-4.5708976 0.89109027 -1.1303952 350 0 0 0 0.68428802
-6.1369362 0.56752908 -0.94666642 209 0 0 0 0.68428802
-4.9090576 -0.036434222 -1.3126246 71 0 0 0 0.68428802
-33.641693 -0.23569731 11.147634 8 0 0 0 0.68428802
-5.816011 -0.62353498 -1.3531721 199 0 0 0 0.68428802
-5.3656693 0.49732473 -1.0957588 264 0 0 0 0.68428802
-3.9814591 -0.010978861 -1.4948595 315 0 0 0 0.78796798
-34.265251 -3.4892375 11.033314 13 0 0 0 0.78796798
-7.08673 0.69652545 -0.74444419 168 0 0 0 0.78796798
-9.3877258 -0.91749144 -0.77173996 77 0 0 0 0.78796798
-5.7384291 -0.57968277 -1.3336767 266 0 0 0 0.78796798
-5.5528731 -0.0030621723 -1.2011664 262 0 0 0 0.78796798
-12.528767 2.4808917 1.2947563 85 0 0 0 0.78796798
-8.3841887 0.82231736 -0.47444946 121 0 0 0 0.78796798
-12.969528 0.0082831411 0.99339277 96 0 0 0 0.78796798
-7.4143062 0.00026587752 -0.86952263 125 0 0 0 0.78796798
-11.081259 1.0864109 0.44732729 171 0 0 0 0.78796798
-12.30196 2.447237 1.8977242 91 0 0 0 0.78796798
-5.355701 0.52956629 -1.094313 255 0 0 0 0.78796798
-6.3624082 -0.0033094308 -1.058153 156 0 0 0 0.78796798
-4.5491805 0.91588068 -1.1262422 322 0 0 0 0.78796798
-11.119798 0.0049654795 -0.23103122 86 0 0 0 0.78796798
-4.068552 0.82625288 -1.2244879 97 0 0 0 0.78796798
-12.653021 1.2447848 1.1260362 100 0 0 0 0.78796798
-6.1176157 0.60362607 -0.9441359 194 0 0 0 0.78796798
-5.7979264 1.1555692 -0.83907896 221 0 0 0 0.78796798
-7.8827243 1.5595564 -0.35825995 113 0 0 0 0.78796798
-5.183435 -0.53320611 -1.4770788 6 0 0 0 0.78796798
-11.985243 -1.1660023 0.78571981 125 0 0 0 0.78796798
-34.308208 0.00014048134 7.7242136 12 0 0 0 0.78796798
-14.651758 0.0044068824 2.5675907 44 0 0 0 0.78796798
-31.737473 3.1818206 11.004325 18 0 0 0 0.78796798
-33.576042 -0.029216215 11.125666 8 0 0 0 0.78796798
-7.7882442 -0.76874447 -1.0237802 122 0 0 0 0.78796798
-11.251606 -1.0948764 -0.37535152 92 0 0 0 0.78796798
-13.815456 1.3590187 1.9119033 42 0 0 0 0.78796798
-29.682795 5.9259362 6.0680799 7 0 0 0 0.78796798
-5.0967522 1.0209687 -0.9971087 245 0 0 0 0.78796798
-4.8995495 -0.0063024526 -1.3099623 126 0 0 0 0.78796798
-34.584637 -3.4606979 9.2644663 9 0 0 0 0.78796798
-31.970875 3.1826479 9.3327007 10 0 0 0 0.78796798
-9.6965246 1.917465 0.037900254 68 0 0 0 0.78796798
-6.6414852 -0.66202873 -1.2054394 149 0 0 0 0.78796798
-10.984089 2.1715338 0.58633292 110 0 0 0 0.78796798
-31.803404 3.2389379 14.72936 11 0 0 0 0.78796798
-4.7243176 0.46897194 -1.2060467 206 0 0 0 0.78796798
-32.491486 -3.1655338 3.6775491 6 0 0 0 0.78796798
-11.599569 -1.1286113 0.18431868 72 0 0 0 0.78796798
-6.6983933 1.3295171 -0.63429499 199 0 0 0 0.78796798
-8.8604403 0.0021326374 -0.60781682 80 0 0 0 0.78796798
-34.724758 -3.4440746 7.4667664 12 0 0 0 0.78796798
-11.224572 0.0089526754 0.31373692 162 0 0 0 0.78796798
-32.517914 3.2256083 7.7726722 7 0 0 0 0.78796798
-10.388302 1.0203929 -0.087381251 66 0 0 0 0.78796798
-33.928272 -0.011728945 9.4127121 9 0 0 0 0.78796798
-6.098084 0.63950741 -0.94160539 166 0 0 0 0.87884802
-7.8651772 1.6062995 -0.35786635 92 0 0 0 0.87884802
-6.659883 1.3644189 -0.63125378 201 0 0 0 0.87884802
-33.471149 0.1762488 11.091145 10 0 0 0 0.87884802
-13.531734 2.8074841 3.5060117 14 0 0 0 0.87884802
-34.594635 -3.2474329 9.2616415 7 0 0 0 0.87884802
-12.946297 0.087704763 0.9916963 59 0 0 0 0.87884802
-34.267052 -3.2771127 11.027226 8 0 0 0 0.87884802
-4.6973062 0.49542207 -1.1996858 158 0 0 0 0.87884802
-33.900719 0.19629391 9.4052477 6 0 0 0 0.87884802
-5.7244463 -0.54282117 -1.3294991 238 0 0 0 0.87884802
-32.498478 3.4251759 7.7729025 5 0 0 0 0.87884802
-13.212543 1.381675 1.8310053 48 0 0 0 0.87884802
-31.78129 3.383302 11.026452 12 0 0 0 0.87884802
-32.926846 0.15610486 12.75888 10 0 0 0 0.87884802
-7.0408001 0.73566514 -0.73984993 183 0 0 0 0.87884802
-14.707431 0.094673745 1.8439143 17 0 0 0 0.87884802
-8.8123884 0.056186698 -0.60432649 96 0 0 0 0.87884802
-5.338727 0.56099021 -1.0914214 259 0 0 0 0.87884802
-8.3392735 0.86961162 -0.47202143 97 0 0 0 0.87884802
-4.8879294 0.023701372 -1.3067676 137 0 0 0 0.87884802
-9.6140261 1.9625539 0.037887689 75 0 0 0 0.87884802
-11.990184 -1.0922599 0.7855953 101 0 0 0 0.87884802
-5.0740638 1.0488608 -0.99377757 303 0 0 0 0.87884802
-7.7543321 -0.71740216 -1.0185277 134 0 0 0 0.87884802
-11.215309 0.077761732 0.3135139 144 0 0 0 0.87884802
-9.3247156 -0.85363436 -0.76583421 73 0 0 0 0.87884802
-35.016479 -3.2252908 5.720911 17 0 0 0 0.87884802
-12.254736 2.5161197 1.8928692 136 0 0 0 0.87884802
-11.07957 0.072927132 -0.23006789 68 0 0 0 0.87884802
-4.5292311 0.94083101 -1.1225778 309 0 0 0 0.87884802
-10.962729 2.2372952 0.58593935 115 0 0 0 0.87884802
-13.879524 1.4587163 2.6228333 9 0 0 0 0.87884802
-34.281216 0.21048889 7.7183051 7 0 0 0 0.87884802
-5.7810373 1.1891367 -0.83760774 214 0 0 0 0.87884802
-12.64019 1.3218812 1.1256082 101 0 0 0 0.87884802
-4.0690227 0.85237235 -1.2262411 143 0 0 0 0.87884802
-6.3159952 0.0354596 -1.0501531 216 0 0 0 0.87884802
-7.3665223 0.045456473 -0.8636812 153 0 0 0 0.87884802
-5.5391259 0.03093002 -1.1981076 268 0 0 0 0.87884802
-11.069414 1.1538663 0.4471423 202 0 0 0 0.87884802
-12.480156 2.5509548 1.2914149 100 0 0 0 0.87884802
-3.9376178 0.013287352 -1.4779013 239 0 0 0 0.87884802
-31.953611 3.3790605 9.3335352 10 0 0 0 0.87884802
-10.296315 1.0751948 -0.086360604 54 0 0 0 0.87884802
-34.770554 -3.2332942 7.4721856 6 0 0 0 0.87884802
-11.394165 -1.0381653 0.18160494 139 0 0 0 0.87884802
-31.762157 3.4317751 14.719749 5 0 0 0 0.87884802
-6.6199737 -0.61890143 -1.2006656 169 0 0 0 0.87884802
-13.659684 2.8165555 2.8126454 18 0 0 0 0.87884802
-11.242188 -1.024372 -0.37476802 80 0 0 0 0.87884802
-31.924639 3.5742059 9.3313103 19 0 0 0 0.98406398
-10.936088 2.3018494 0.58529973 154 0 0 0 0.98406398
-34.606209 -3.0344288 9.2595873 6 0 0 0 0.98406398
-33.833344 0.40351686 9.3871212 10 0 0 0 0.98406398
-34.260895 -3.0645041 11.019009 11 0 0 0 0.98406398
-5.7426643 1.2180401 -0.83289999 254 0 0 0 0.98406398
-32.109768 3.6460469 12.978366 6 0 0 0 0.98406398
-11.078018 1.2235186 0.44773418 145 0 0 0 0.98406398
-13.32621 2.8722403 4.1857657 5 0 0 0 0.98406398
-11.379397 -0.96646291 0.18133739 151 0 0 0 0.98406398
-11.233325 -0.9541086 -0.374221 107 0 0 0 0.98406398
-8.7470551 0.10943644 -0.59959996 116 0 0 0 0.98406398
-32.918739 0.35806596 12.756355 15 0 0 0 0.98406398
-7.6954036 -0.66438729 -1.0099084 126 0 0 0 0.98406398
-11.206624 0.14647064 0.31331566 168 0 0 0 0.98406398
-4.5091472 0.96557111 -1.1189134 349 0 0 0 0.98406398
-5.3021207 0.59006643 -1.0843987 288 0 0 0 0.98406398
-34.249035 0.42045799 7.7115216 17 0 0 0 0.98406398
-35.848671 0.45268446 6.2370486 27 0 0 0 0.98406398
-5.0512257 1.0765131 -0.99044651 277 0 0 0 0.98406398
-12.615996 1.3976614 1.1242387 105 0 0 0 0.98406398
-4.0384707 0.87189943 -1.2183516 238 0 0 0 0.98406398
-6.2939816 0.07395374 -1.0464085 182 0 0 0 0.98406398
-13.061985 1.4470221 1.8116864 61 0 0 0 0.98406398
-4.8905835 0.05372528 -1.3075662 189 0 0 0 0.98406398
-5.5212679 0.064706691 -1.1941749 283 0 0 0 0.98406398
-7.331368 0.09022186 -0.85942185 159 0 0 0 0.98406398
-9.5421066 2.0089648 0.037877042 93 0 0 0 0.98406398
-8.2772293 0.91452503 -0.46856153 113 0 0 0 0.98406398
-14.674815 0.18451285 1.8400034 27 0 0 0 0.98406398
-12.408761 2.6158006 1.2858131 64 0 0 0 0.98406398
-3.9234734 0.03730977 -1.4724891 183 0 0 0 0.98406398
-10.231879 1.1319817 -0.085672267 66 0 0 0 0.98406398
-6.5727215 -0.57385588 -1.191118 166 0 0 0 0.98406398
-32.549847 3.6211488 6.1130085 7 0 0 0 0.98406398
-13.645983 2.9011314 2.8134277 10 0 0 0 0.98406398
-32.061554 3.6122136 11.130907 6 0 0 0 0.98406398
-7.7808871 1.6389211 -0.35412726 138 0 0 0 0.98406398
-7.001574 0.77503181 -0.7360214 170 0 0 0 0.98406398
-12.003622 -1.0192577 0.78603113 107 0 0 0 0.98406398
-6.0469379 0.67169052 -0.93401378 195 0 0 0 0.98406398
-10.909977 0.13873962 -0.22599782 38 0 0 0 0.98406398
-12.275841 2.5990396 1.8984598 86 0 0 0 0.98406398
-5.688911 -0.50427884 -1.3202157 245 0 0 0 0.98406398
-35.090691 -3.015099 5.7298551 12 0 0 0 0.98406398
-6.6163287 1.3978726 -0.62772202 168 0 0 0 0.98406398
-33.438107 0.38126206 11.080789 14 0 0 0 0.98406398
-13.506665 2.88884 3.5040603 4 0 0 0 0.98406398
-4.6797609 0.52262902 -1.1958693 148 0 0 0 0.98406398
-12.908619 0.16665992 0.98896718 76 0 0 0 0.98406398
-32.462345 3.6229 7.7694445 7 0 0 0 0.98406398
-9.2990017 -0.79378921 -0.76318091 88 0 0 0 0.98406398
-9.2441025 -0.73202348 -0.75804543 95 0 0 0 1.074944
-10.871938 0.20497753 -0.22510675 37 0 0 0 1.074944
-35.837337 0.67249107 6.2356839 16 0 0 0 1.074944
-5.0368614 1.1058103 -0.98887897 275 0 0 0 1.074944
-13.858625 1.6287003 2.622468 16 0 0 0 1.074944
-14.721039 0.27544796 1.8458697 10 0 0 0 1.074944
-4.4860892 0.9894762 -1.1145161 357 0 0 0 1.074944
-12.243233 2.6707351 1.8959587 109 0 0 0 1.074944
-32.906597 0.55988574 12.752749 8 0 0 0 1.074944
-5.2566137 0.61768919 -1.0755173 272 0 0 0 1.074944
-12.981009 1.5187429 1.8018928 44 0 0 0 1.074944
-11.210511 0.21532702 0.31343955 172 0 0 0 1.074944
-12.602236 1.474467 1.1238108 107 0 0 0 1.074944
-12.032536 -0.94737983 0.78746331 109 0 0 0 1.074944
-6.0162234 0.70568126 -0.92974353 233 0 0 0 1.074944
-10.991065 2.3839152 0.58879286 113 0 0 0 1.074944
-34.610691 -2.8209343 9.2559919 9 0 0 0 1.074944
-5.6783257 -0.46825349 -1.3169664 260 0 0 0 1.074944
-6.593039 1.4352767 -0.62625051 161 0 0 0 1.074944
-33.775299 0.61011231 9.3719273 12 0 0 0 1.074944
-32.431774 3.8211064 7.7675996 11 0 0 0 1.074944
-12.871458 0.24517511 0.98631179 109 0 0 0 1.074944
-7.7296853 1.6777557 -0.35206094 121 0 0 0 1.074944
-5.7128539 1.2484121 -0.82951623 243 0 0 0 1.074944
-34.19215 0.62960804 7.6994863 11 0 0 0 1.074944
-8.2208986 0.95940334 -0.46546584 105 0 0 0 1.074944
-6.2717338 0.11217907 -1.0426639 220 0 0 0 1.074944
-8.6983547 0.16220532 -0.59610957 110 0 0 0 1.074944
-5.4856424 0.097947426 -1.1863095 291 0 0 0 1.074944
-32.051769 3.8388071 12.964229 7 0 0 0 1.074944
-4.0227733 0.89438975 -1.2151374 292 0 0 0 1.074944
-11.94316 2.594439 1.2404088 64 0 0 0 1.074944
-11.099088 1.2948236 0.44880697 156 0 0 0 1.074944
-31.940264 3.7745321 9.3424358 19 0 0 0 1.074944
-34.889503 -2.8129554 7.4896932 4 0 0 0 1.074944
-3.90079 0.061024752 -1.4638296 106 0 0 0 1.074944
-6.5457444 -0.53107023 -1.1854261 182 0 0 0 1.074944
-13.626966 2.9845974 2.8132322 27 0 0 0 1.074944
-4.6620588 0.5496394 -1.1920528 122 0 0 0 1.074944
-7.3048739 0.13472395 -0.85625774 174 0 0 0 1.074944
-11.401063 -0.89787251 0.18154123 126 0 0 0 1.074944
-11.238968 -0.88516426 -0.374221 107 0 0 0 1.074944
-10.16217 1.1874391 -0.084924586 82 0 0 0 1.074944
-9.4631405 2.0530863 0.037865173 76 0 0 0 1.074944
-6.9384365 0.81117934 -0.72956753 161 0 0 0 1.074944
-7.6351304 -0.6120441 -1.0011543 108 0 0 0 1.074944
-4.8535385 0.083094865 -1.2974495 255 0 0 0 1.074944
-32.128929 3.8195839 11.162146 10 0 0 0 1.074944
-33.318371 0.58437443 11.042188 10 0 0 0 1.074944
-34.259121 -2.8525681 11.012616 11 0 0 0 1.074944
-5.0137181 1.1330333 -0.98554784 271 0 0 0 1.180416
-7.5853782 -0.56126428 -0.9938817 120 0 0 0 1.180416
-7.2493353 0.17819163 -0.84956443 168 0 0 0 1.180416
-5.4576225 0.13094264 -1.1801919 255 0 0 0 1.180416
-31.955584 3.9753027 9.3538408 11 0 0 0 1.180416
-11.387408 -0.82653129 0.18129916 159 0 0 0 1.180416
-6.9027448 0.84997755 -0.7261765 154 0 0 0 1.180416
-12.03414 -0.87324417 0.78721422 79 0 0 0 1.180416
-6.5753675 1.4737502 -0.62536758 175 0 0 0 1.180416
-11.232226 -0.8153227 -0.37378335 100 0 0 0 1.180416
-33.257206 0.78745025 11.023358 9 0 0 0 1.180416
-9.1679287 -0.66944689 -0.75111258 75 0 0 0 1.180416
-32.895084 0.76161325 12.749864 14 0 0 0 1.180416
-5.6684828 -0.43245035 -1.3139493 240 0 0 0 1.180416
-11.197987 0.28382942 0.31316695 159 0 0 0 1.180416
-10.962584 2.4482675 0.58810407 105 0 0 0 1.180416
-32.135849 4.0205235 11.172884 15 0 0 0 1.180416
-34.247486 -2.6401114 11.003486 15 0 0 0 1.180416
-33.718891 0.81608081 9.3575325 6 0 0 0 1.180416
-5.2401009 0.64837283 -1.0728322 301 0 0 0 1.180416
-11.919246 2.6659369 1.2396226 73 0 0 0 1.180416
-35.154583 -2.5864251 5.7346463 9 0 0 0 1.180416
-5.6857834 1.2791135 -0.82657385 228 0 0 0 1.180416
-6.500845 -0.48732567 -1.1764294 191 0 0 0 1.180416
-34.576267 -2.6046724 9.242382 14 0 0 0 1.180416
-33.94973 -2.682822 12.820856 4 0 0 0 1.180416
-8.646347 0.21430612 -0.59240103 114 0 0 0 1.180416
-10.063387 1.2385455 -0.083832733 84 0 0 0 1.180416
-31.996298 4.0314569 12.95158 7 0 0 0 1.180416
-9.3986349 2.0995791 0.037855923 70 0 0 0 1.180416
-11.083991 1.3620496 0.44854802 163 0 0 0 1.180416
-13.61318 3.0692317 2.8142102 25 0 0 0 1.180416
-5.9716005 0.73762888 -0.92325902 245 0 0 0 1.180416
-4.0134797 0.91820681 -1.2139685 347 0 0 0 1.180416
-13.847396 1.7135838 2.6222854 17 0 0 0 1.180416
-32.478001 0.72355783 14.489701 13 0 0 0 1.180416
-7.6841502 1.7173281 -0.35028979 132 0 0 0 1.180416
-32.515774 -2.3640339 3.6726673 6 0 0 0 1.180416
-4.6365242 0.5755015 -1.1862009 78 0 0 0 1.180416
-6.2482696 0.1501103 -1.0387491 222 0 0 0 1.180416
-4.4695292 1.0146316 -1.1118289 314 0 0 0 1.180416
-34.122288 0.83778799 7.6848254 8 0 0 0 1.180416
-12.600654 1.5527135 1.7513148 74 0 0 0 1.180416
-13.679662 1.6977019 3.2961335 9 0 0 0 1.180416
-8.1306458 0.99948978 -0.46030632 130 0 0 0 1.180416
-4.8404098 0.1125791 -1.2939886 311 0 0 0 1.180416
-3.8975449 0.084896445 -1.4627472 34 0 0 0 1.180416
-12.594929 1.5520086 1.123982 93 0 0 0 1.180416
-12.864726 0.3240222 0.98594302 94 0 0 0 1.180416
-10.840493 0.2709296 -0.22438425 47 0 0 0 1.180416
-12.22372 2.7451587 1.8955173 117 0 0 0 1.180416
-32.126514 4.2197227 11.178416 12 0 0 0 1.269504
-33.967422 -2.4745955 12.82156 19 0 0 0 1.269504
-9.9802294 1.2905344 -0.082930766 62 0 0 0 1.269504
-7.2123899 0.22156549 -0.84518337 152 0 0 0 1.269504
-10.793662 0.33603504 -0.2233005 38 0 0 0 1.269504
-31.97464 4.2281933 12.953069 12 0 0 0 1.269504
-3.9975274 0.94041705 -1.2107543 370 0 0 0 1.269504
-34.897003 -2.3829327 7.4844823 13 0 0 0 1.269504
-9.3290434 2.1442399 0.037845802 106 0 0 0 1.269504
-29.350428 6.8020186 6.0401087 5 0 0 0 1.269504
-12.8615 0.40292126 0.98586923 81 0 0 0 1.269504
-6.205863 0.18718924 -1.0316004 217 0 0 0 1.269504
-11.057585 1.4277328 0.44788218 129 0 0 0 1.269504
-8.6000099 0.26596075 -0.58912885 135 0 0 0 1.269504
-7.6364756 1.7559584 -0.34842026 142 0 0 0 1.269504
-10.942487 2.51437 0.58785808 107 0 0 0 1.269504
-34.542427 -2.3890722 9.2292852 11 0 0 0 1.269504
-6.4536963 -0.44401851 -1.1670654 177 0 0 0 1.269504
-14.078678 0.43625048 1.7672849 50 0 0 0 1.269504
-34.226933 -2.4273667 10.99192 14 0 0 0 1.269504
-34.041405 1.0448346 7.6679759 16 0 0 0 1.269504
-5.6508412 1.3077513 -0.82245451 275 0 0 0 1.269504
-35.180626 -2.3714008 5.736403 7 0 0 0 1.269504
-11.878417 2.7334507 1.2371656 84 0 0 0 1.269504
-5.2127366 0.6774928 -1.0678751 285 0 0 0 1.269504
-4.8309569 0.14201978 -1.2915925 350 0 0 0 1.269504
-33.626545 1.0203263 9.3335419 7 0 0 0 1.269504
-12.59505 1.6305386 1.1248379 86 0 0 0 1.269504
-4.4033661 -0.32523653 -1.4875751 60 0 0 0 1.269504
-11.344374 -0.75348002 0.18068762 165 0 0 0 1.269504
-4.0122709 -0.30523163 -1.5806946 25 0 0 0 1.269504
-6.5312858 1.5060393 -0.62183583 191 0 0 0 1.269504
-4.9799223 1.1575803 -0.98006135 323 0 0 0 1.269504
-12.219174 2.8230009 1.8974299 95 0 0 0 1.269504
-11.188041 0.35228097 0.3129687 168 0 0 0 1.269504
-4.6281104 0.60331619 -1.1849287 83 0 0 0 1.269504
-12.042259 -0.79958498 0.78740102 68 0 0 0 1.269504
-4.4414959 1.0369856 -1.1062102 357 0 0 0 1.269504
-11.228044 -0.74579477 -0.37345514 100 0 0 0 1.269504
-33.140709 0.98818219 10.98664 9 0 0 0 1.269504
-32.058216 4.1879711 9.3911133 16 0 0 0 1.269504
-7.5768151 -0.51391238 -0.99226558 139 0 0 0 1.269504
-5.9395432 0.77070463 -0.91883057 242 0 0 0 1.269504
-6.8727541 0.8891325 -0.72344184 167 0 0 0 1.269504
-5.4372087 0.16383481 -1.1758223 233 0 0 0 1.269504
-32.325512 4.2113919 7.7539968 11 0 0 0 1.269504
-8.0926809 1.0452733 -0.45836392 119 0 0 0 1.269504
-12.506371 1.6190679 1.7397771 88 0 0 0 1.269504
-9.095315 -0.60809702 -0.74452209 83 0 0 0 1.269504
-5.6477408 -0.39604491 -1.3083792 248 0 0 0 1.269504
-32.873009 0.96294707 12.743372 10 0 0 0 1.269504
-33.574383 1.2249821 9.3210135 12 0 0 0 1.3785599
-4.9546008 1.1837994 -0.97633839 329 0 0 0 1.3785599
-11.86239 2.8065126 1.2372639 62 0 0 0 1.3785599
-33.075191 1.1893932 10.967183 8 0 0 0 1.3785599
-12.492273 1.6952425 1.7392404 91 0 0 0 1.3785599
-12.581846 1.707388 1.1245811 89 0 0 0 1.3785599
-8.0534735 1.0904949 -0.45636082 114 0 0 0 1.3785599
-35.205353 -2.1561544 5.7381597 11 0 0 0 1.3785599
-4.4184756 -0.29909259 -1.4921653 81 0 0 0 1.3785599
-6.8464842 0.92848504 -0.72114468 170 0 0 0 1.3785599
-4.7953157 0.17041686 -1.2820082 301 0 0 0 1.3785599
-9.0203075 -0.54754376 -0.73776042 98 0 0 0 1.3785599
-9.2349272 2.1823869 0.037831314 92 0 0 0 1.3785599
-12.84284 0.48123121 0.98468906 92 0 0 0 1.3785599
-32.165588 4.4257874 11.201194 15 0 0 0 1.3785599
-13.669368 1.8670237 3.2989001 21 0 0 0 1.3785599
-33.965153 -2.2650096 12.815229 10 0 0 0 1.3785599
-5.4204979 0.19662389 -1.1723264 295 0 0 0 1.3785599
-6.1809635 0.22440089 -1.0275153 217 0 0 0 1.3785599
-12.033987 -0.72490418 0.78659153 68 0 0 0 1.3785599
-3.9851732 0.96336126 -1.2087089 368 0 0 0 1.3785599
-13.604066 3.2430966 2.8202739 8 0 0 0 1.3785599
-4.6032405 0.62882894 -1.1793312 87 0 0 0 1.3785599
-5.6325908 -0.3602787 -1.3042016 243 0 0 0 1.3785599
-6.4967413 1.5401329 -0.61928511 185 0 0 0 1.3785599
-14.054909 0.52185208 1.7647184 45 0 0 0 1.3785599
-7.1722112 0.26438245 -0.84043723 147 0 0 0 1.3785599
-10.924909 2.5810058 0.58775967 82 0 0 0 1.3785599
-7.5759797 1.791088 -0.34591115 146 0 0 0 1.3785599
-34.506279 -2.1739249 9.2159319 28 0 0 0 1.3785599
-3.9465482 -0.2759589 -1.5533365 80 0 0 0 1.3785599
-6.4180355 -0.40203846 -1.1599046 186 0 0 0 1.3785599
-5.9121985 0.80407906 -0.91519296 247 0 0 0 1.3785599
-13.809737 1.8812618 2.6193643 23 0 0 0 1.3785599
-5.6282744 1.3389758 -0.82024771 229 0 0 0 1.3785599
-4.4237318 1.0615137 -1.1032788 343 0 0 0 1.3785599
-34.194607 -2.214298 10.977006 7 0 0 0 1.3785599
-9.9126692 1.3436967 -0.082218692 92 0 0 0 1.3785599
-11.215637 0.42205423 0.31371215 156 0 0 0 1.3785599
-10.592594 0.39482209 -0.21850795 57 0 0 0 1.3785599
-32.857624 4.5736208 15.284287 7 0 0 0 1.3785599
-8.5324364 0.31627572 -0.58432961 99 0 0 0 1.3785599
-5.1774569 0.70524704 -1.0612657 343 0 0 0 1.3785599
-11.220438 -0.67616969 -0.37301749 102 0 0 0 1.3785599
-34.896324 -2.167856 7.4813561 7 0 0 0 1.3785599
-7.5382862 -0.46487296 -0.9866091 136 0 0 0 1.3785599
-12.217984 2.9018033 1.899931 86 0 0 0 1.3785599
-11.086248 1.5006433 0.44928789 151 0 0 0 1.3785599
-11.327823 -0.68260247 0.18042007 152 0 0 0 1.3785599
-31.917753 4.4201059 12.940792 8 0 0 0 1.3785599
-32.423767 1.1205735 14.470584 8 0 0 0 1.3785599
-6.3968263 -0.36133504 -1.155498 171 0 0 0 1.464576
-12.471825 1.77047 1.7378988 103 0 0 0 1.464576
-6.4542894 1.5719801 -0.61594957 223 0 0 0 1.464576
-31.901054 4.6174612 12.945256 4 0 0 0 1.464576
-11.216393 -0.60688055 -0.37272575 97 0 0 0 1.464576
-5.8934669 0.83839661 -0.91297877 197 0 0 0 1.464576
-32.905052 1.3854793 10.913519 13 0 0 0 1.464576
-9.1630507 2.2248778 0.037820842 83 0 0 0 1.464576
-4.4107976 -0.27140447 -1.4888866 129 0 0 0 1.464576
-32.2155 4.6112652 9.4528627 8 0 0 0 1.464576
-12.027246 -0.65046215 0.78590661 79 0 0 0 1.464576
-5.3811665 0.22825721 -1.1638056 215 0 0 0 1.464576
-32.145317 4.624145 11.203797 8 0 0 0 1.464576
-10.508073 0.45624322 -0.21653312 66 0 0 0 1.464576
-34.87479 -1.9517866 7.474061 11 0 0 0 1.464576
-33.886837 -2.0510297 12.780765 10 0 0 0 1.464576
-11.105526 1.572699 0.45036066 132 0 0 0 1.464576
-11.31083 -0.61195636 0.18015252 132 0 0 0 1.464576
-3.9689746 0.98527151 -1.2054946 366 0 0 0 1.464576
-8.9419174 -0.48777258 -0.73074198 98 0 0 0 1.464576
-7.5269899 1.8283646 -0.34399238 133 0 0 0 1.464576
-4.7912908 0.19971588 -1.2812096 347 0 0 0 1.464576
-3.8813438 0.15605597 -1.4573351 5 0 0 0 1.464576
-12.560282 1.7830175 1.1236396 87 0 0 0 1.464576
-33.892464 1.4567506 7.6379967 8 0 0 0 1.464576
-7.1426878 0.30718595 -0.83702976 136 0 0 0 1.464576
-9.8200846 1.3925724 -0.081209913 79 0 0 0 1.464576
-3.9796274 -0.25371003 -1.5660787 127 0 0 0 1.464576
-14.028636 0.60709244 1.7619075 41 0 0 0 1.464576
-6.1647024 0.2616922 -1.0249622 222 0 0 0 1.464576
-4.5858917 0.65515119 -1.1757691 99 0 0 0 1.464576
-12.831675 0.55967587 0.98409897 78 0 0 0 1.464576
-4.9405761 1.2125472 -0.97496676 277 0 0 0 1.464576
-13.665361 1.9519622 3.3007448 8 0 0 0 1.464576
-4.410543 1.0870188 -1.1015687 368 0 0 0 1.464576
-12.22013 2.9816341 1.9030204 78 0 0 0 1.464576
-13.77652 1.9629123 2.6153474 7 0 0 0 1.464576
-8.0110512 1.1348554 -0.45417562 116 0 0 0 1.464576
-6.8180223 0.96726996 -0.71862876 177 0 0 0 1.464576
-11.168893 0.48893517 0.31262177 183 0 0 0 1.464576
-35.190323 -1.9385808 5.7336879 12 0 0 0 1.464576
-7.4618449 -0.41425893 -0.97583485 130 0 0 0 1.464576
-32.834488 1.3652685 12.733995 9 0 0 0 1.464576
-5.5977931 -0.32360479 -1.2953823 253 0 0 0 1.464576
-14.114515 -0.88895684 6.1636028 15 0 0 0 1.464576
-10.944596 2.6607058 1.1457673 38 0 0 0 1.464576
-33.49305 1.4278448 9.3007545 9 0 0 0 1.464576
-10.808886 2.62376 0.58269227 61 0 0 0 1.464576
-29.266653 7.162147 6.0404997 11 0 0 0 1.464576
-8.4765282 0.36629015 -0.58040291 133 0 0 0 1.464576
-5.6084204 1.3706752 -0.81848228 237 0 0 0 1.464576
-5.1633453 0.73562449 -1.0592002 302 0 0 0 1.464576
-30.425247 1.3182352 5.3027568 24 0 0 0 1.464576
-34.173313 -2.0024405 10.966048 12 0 0 0 1.464576
-34.441776 -1.9577787 9.1953878 10 0 0 0 1.464576
-6.4030018 1.6011972 -0.61173111 236 0 0 0 1.574912
-8.8800554 -0.42979532 -0.72517854 106 0 0 0 1.574912
-6.3763418 -0.32095587 -1.151275 164 0 0 0 1.574912
-12.200645 3.0563192 1.9028733 84 0 0 0 1.574912
-34.415497 -1.7445074 9.1853733 13 0 0 0 1.574912
-3.9413068 -0.22703703 -1.5499636 204 0 0 0 1.574912
-31.853765 4.8103442 12.937816 6 0 0 0 1.574912
-33.346958 1.6266537 9.2629023 9 0 0 0 1.574912
-6.139359 0.29835993 -1.0208771 209 0 0 0 1.574912
-4.591351 0.68470097 -1.1783135 165 0 0 0 1.574912
-4.3982301 -0.24356517 -1.4839684 141 0 0 0 1.574912
-33.834286 -1.8395666 12.756499 5 0 0 0 1.574912
-12.844932 0.63924342 0.98535293 75 0 0 0 1.574912
-5.8735609 0.87236989 -0.91060638 216 0 0 0 1.574912
-13.987969 0.69134277 1.7573855 35 0 0 0 1.574912
-12.442101 1.8442038 1.7353498 120 0 0 0 1.574912
-32.664062 4.8684978 7.8549819 16 0 0 0 1.574912
-4.9016571 1.2349584 -0.96850055 297 0 0 0 1.574912
-5.5826325 1.4007412 -0.81583416 259 0 0 0 1.574912
-4.3784022 1.1076627 -1.0949728 383 0 0 0 1.574912
-5.5617871 -0.28732213 -1.2863309 268 0 0 0 1.574912
-11.094131 -0.53206033 -0.36813062 47 0 0 0 1.574912
-7.9318542 1.1733383 -0.44974449 128 0 0 0 1.574912
-7.4325757 -0.36691993 -0.97152513 140 0 0 0 1.574912
-6.7372279 0.99803114 -0.71031535 242 0 0 0 1.574912
-11.140721 0.55620784 0.31200224 202 0 0 0 1.574912
-4.7668681 0.227999 -1.2748201 327 0 0 0 1.574912
-10.894267 2.7193871 1.1423277 55 0 0 0 1.574912
-12.062912 -0.57817054 0.7878992 95 0 0 0 1.574912
-5.1567988 0.76700497 -1.0587871 331 0 0 0 1.574912
-29.233568 7.3444552 6.0428472 9 0 0 0 1.574912
-34.847038 -1.7358204 7.4657245 8 0 0 0 1.574912
-10.448163 0.51788265 -0.21516038 76 0 0 0 1.574912
-34.090782 -1.787792 10.935916 7 0 0 0 1.574912
-32.121948 4.8221402 11.20575 8 0 0 0 1.574912
-12.539249 1.8585926 1.1227837 87 0 0 0 1.574912
-32.427898 4.8448896 9.5235138 15 0 0 0 1.574912
-32.77549 1.581538 10.873663 13 0 0 0 1.574912
-8.4043922 0.41484123 -0.57531279 127 0 0 0 1.574912
-30.431347 1.5056272 5.305315 21 0 0 0 1.574912
-11.125324 1.6451936 0.45147043 134 0 0 0 1.574912
-11.288404 -0.54130691 0.17982127 181 0 0 0 1.574912
-3.9517305 1.0067841 -1.2019881 403 0 0 0 1.574912
-34.04409 -1.6363096 3.8380916 8 0 0 0 1.574912
-5.3757658 0.2610808 -1.1629317 223 0 0 0 1.574912
-35.190708 -1.722091 5.7319312 8 0 0 0 1.574912
-9.0997362 2.268743 0.037811939 83 0 0 0 1.574912
-10.773199 2.6852086 0.58170825 68 0 0 0 1.574912
-7.1109281 0.34953928 -0.83337885 150 0 0 0 1.574912
-9.743103 1.4427042 -0.08039102 61 0 0 0 1.574912
-7.4836454 1.8665552 -0.34236884 114 0 0 0 1.574912
-7.4148874 -0.3204627 -0.9688316 135 0 0 0 1.662208
-35.185818 -1.5055012 5.7295356 19 0 0 0 1.662208
-4.7615294 0.25703472 -1.2737551 313 0 0 0 1.662208
-13.781514 2.1364899 2.6210074 37 0 0 0 1.662208
-7.43431 1.9028001 -0.34045011 118 0 0 0 1.662208
-8.3628521 0.46423966 -0.57247686 106 0 0 0 1.662208
-34.028793 -1.5752424 10.912785 7 0 0 0 1.662208
-10.848453 2.7787843 1.1393794 84 0 0 0 1.662208
-34.402378 -1.5322758 9.1792097 6 0 0 0 1.662208
-4.5803738 0.71182251 -1.1765324 207 0 0 0 1.662208
-33.983982 -1.4244829 3.8303254 12 0 0 0 1.662208
-3.9241066 -0.20191659 -1.5424682 242 0 0 0 1.662208
-12.171124 3.1284182 1.901255 97 0 0 0 1.662208
-11.066235 -0.46269506 -0.36700007 52 0 0 0 1.662208
-8.8208065 -0.37272054 -0.71987194 88 0 0 0 1.662208
-6.7093649 1.0360183 -0.70790881 206 0 0 0 1.662208
-33.757072 1.8661934 7.6121755 10 0 0 0 1.662208
-7.0581059 0.39035949 -0.82717234 161 0 0 0 1.662208
-6.09904 0.33391523 -1.014239 228 0 0 0 1.662208
-14.176367 -0.68599677 5.3589468 15 0 0 0 1.662208
-33.179485 1.8226128 9.2194519 8 0 0 0 1.662208
-32.323753 1.7132792 14.437638 12 0 0 0 1.662208
-12.524655 1.935041 1.1225269 71 0 0 0 1.662208
-9.6461124 1.4888961 -0.079334773 93 0 0 0 1.662208
-12.850725 0.71860427 0.98609048 63 0 0 0 1.662208
-5.5518975 1.4293129 -0.81245041 229 0 0 0 1.662208
-4.3555632 1.1303806 -1.0908198 384 0 0 0 1.662208
-13.635571 2.1187637 3.2995918 74 0 0 0 1.662208
-34.818924 -1.5203109 7.4575958 10 0 0 0 1.662208
-5.5624738 -0.25314674 -1.2860988 261 0 0 0 1.662208
-4.884491 1.2625648 -0.96654111 293 0 0 0 1.662208
-13.047989 0.72507727 1.6420137 60 0 0 0 1.662208
-6.346765 -0.28045684 -1.1453996 191 0 0 0 1.662208
-12.21681 -0.51038414 0.79730165 100 0 0 0 1.662208
-7.8830719 1.215603 -0.44719508 127 0 0 0 1.662208
-5.8388228 0.90386802 -0.90586162 233 0 0 0 1.662208
-29.189854 7.5241799 6.0432382 8 0 0 0 1.662208
-4.3902054 -0.21611808 -1.4806896 174 0 0 0 1.662208
-9.0342922 2.3114204 0.037802689 86 0 0 0 1.662208
-5.3691907 0.29379314 -1.1618392 222 0 0 0 1.662208
-12.429572 1.9203612 1.7352157 74 0 0 0 1.662208
-6.3602772 1.6320654 -0.60839558 216 0 0 0 1.662208
-3.9334466 1.0278815 -1.1981895 421 0 0 0 1.662208
-32.103901 5.0210447 11.20998 9 0 0 0 1.662208
-10.738132 2.7465653 0.58077347 84 0 0 0 1.662208
-5.1374912 0.79638761 -1.055689 310 0 0 0 1.662208
-32.444065 5.0510106 9.5371437 12 0 0 0 1.662208
-11.284519 -0.47174251 0.17973208 147 0 0 0 1.662208
-11.155065 0.62556517 0.31244829 176 0 0 0 1.662208
-11.12786 1.7154042 0.45195135 96 0 0 0 1.662208
-10.353956 0.57690877 -0.21296881 70 0 0 0 1.662208
-10.993961 -0.3921409 -0.36426488 40 0 0 0 1.771008
-33.758915 -1.4202278 12.720628 12 0 0 0 1.771008
-11.183235 1.7942498 0.45442984 148 0 0 0 1.771008
-5.3322225 0.32458884 -1.1539738 265 0 0 0 1.771008
-6.3289666 1.6655018 -0.60623729 204 0 0 0 1.771008
-33.935471 -1.2139159 3.8240011 6 0 0 0 1.771008
-8.3279915 0.51357484 -0.57014996 104 0 0 0 1.771008
-12.156482 3.204299 1.9019905 79 0 0 0 1.771008
-4.3574691 -0.18774499 -1.468886 119 0 0 0 1.771008
-32.748829 5.292716 7.8902574 13 0 0 0 1.771008
-34.337734 -1.3183486 9.1596937 12 0 0 0 1.771008
-8.9222364 2.3412182 0.037785061 94 0 0 0 1.771008
-3.9095261 -0.17713867 -1.5360972 273 0 0 0 1.771008
-12.503693 2.0104318 1.1217566 78 0 0 0 1.771008
-7.3896441 1.9397755 -0.33877736 142 0 0 0 1.771008
-36.353539 -1.331916 5.9171934 18 0 0 0 1.771008
-7.8429408 1.2587355 -0.44519198 136 0 0 0 1.771008
-7.0169411 0.43127769 -0.8224262 192 0 0 0 1.771008
-8.7761297 -0.31692162 -0.71584916 92 0 0 0 1.771008
-32.290745 1.9102861 14.427876 9 0 0 0 1.771008
-11.278208 -0.40217564 0.17961742 176 0 0 0 1.771008
-5.5318475 -0.21777241 -1.2784399 249 0 0 0 1.771008
-12.440145 -0.44319558 0.81106287 84 0 0 0 1.771008
-34.002602 -1.3650066 10.901523 7 0 0 0 1.771008
-5.8068452 0.93544328 -0.90159136 222 0 0 0 1.771008
-10.82831 2.8445394 1.1390845 110 0 0 0 1.771008
-5.1093245 0.82416224 -1.0507318 347 0 0 0 1.771008
-4.6973224 0.28246683 -1.2564502 280 0 0 0 1.771008
-11.168976 0.6951195 0.31289437 141 0 0 0 1.771008
-6.6655869 1.0711809 -0.7037521 210 0 0 0 1.771008
-32.072186 1.9423271 10.648021 10 0 0 0 1.771008
-10.280375 0.63609779 -0.21128298 72 0 0 0 1.771008
-7.3810658 -0.27365768 -0.96398318 137 0 0 0 1.771008
-3.9113569 1.0478064 -1.193222 416 0 0 0 1.771008
-4.3447957 1.1560906 -1.0898427 356 0 0 0 1.771008
-29.1621 7.7081537 6.0471501 5 0 0 0 1.771008
-6.3090739 -0.24003899 -1.1380552 178 0 0 0 1.771008
-6.067369 0.3695282 -1.0091327 244 0 0 0 1.771008
-12.796306 0.79434669 0.9824025 88 0 0 0 1.771008
-5.5210228 1.4575604 -0.80906671 243 0 0 0 1.771008
-9.5578117 1.5353788 -0.078385338 71 0 0 0 1.771008
-10.715281 2.810883 0.58047831 69 0 0 0 1.771008
-31.736942 1.8496839 16.139608 5 0 0 0 1.771008
-34.752342 -1.3038228 7.4415469 10 0 0 0 1.771008
-32.851173 2.0068161 9.131752 7 0 0 0 1.771008
-12.423426 1.9975346 1.7360206 78 0 0 0 1.771008
-4.5510964 0.73590744 -1.1699171 257 0 0 0 1.771008
-12.992773 0.80200082 1.6357807 68 0 0 0 1.771008
-4.864327 1.2892557 -0.96399379 309 0 0 0 1.771008
-5.2921581 0.35474548 -1.145453 300 0 0 0 1.859584
-32.250156 2.1065352 14.415268 6 0 0 0 1.859584
-10.81738 2.9127359 1.1397724 95 0 0 0 1.859584
-5.0790806 0.85129839 -1.0453616 289 0 0 0 1.859584
-12.394319 2.0709512 1.7337399 119 0 0 0 1.859584
-9.502841 1.5864279 -0.077839412 96 0 0 0 1.859584
-34.685394 -1.0882396 7.4257069 16 0 0 0 1.859584
-3.8956292 1.0692643 -1.1903 366 0 0 0 1.859584
-7.3554168 1.9791238 -0.3376458 133 0 0 0 1.859584
-6.2652321 -0.19991003 -1.1296092 175 0 0 0 1.859584
-33.690281 -1.2103139 12.691791 7 0 0 0 1.859584
-6.9725704 0.47150406 -0.81731498 166 0 0 0 1.859584
-33.879696 -1.0038221 3.8170114 7 0 0 0 1.859584
-6.0413909 0.4051621 -1.0050477 245 0 0 0 1.859584
-8.8478241 2.379842 0.037774242 103 0 0 0 1.859584
-36.350174 -1.1085 5.9154367 11 0 0 0 1.859584
-12.730498 0.8687005 0.97790313 119 0 0 0 1.859584
-31.708733 2.0989614 12.314562 5 0 0 0 1.859584
-32.46489 5.4631109 9.5621767 5 0 0 0 1.859584
-4.3387127 -0.16029128 -1.4620006 91 0 0 0 1.859584
-4.6810741 0.31032306 -1.2524568 240 0 0 0 1.859584
-11.270468 -0.33267483 0.17949001 172 0 0 0 1.859584
-5.7863874 0.96861386 -0.89921898 256 0 0 0 1.859584
-7.7779636 1.2973202 -0.44167137 95 0 0 0 1.859584
-10.168561 0.69182205 -0.208682 84 0 0 0 1.859584
-5.4890561 1.4852254 -0.80553585 219 0 0 0 1.859584
-4.8411803 1.314978 -0.96085864 282 0 0 0 1.859584
-11.209473 1.8690763 0.45583555 125 0 0 0 1.859584
-32.504551 2.185895 9.0392532 11 0 0 0 1.859584
-6.2859545 1.6955129 -0.60290176 213 0 0 0 1.859584
-6.6294751 1.1071539 -0.70047051 215 0 0 0 1.859584
-12.521444 -0.36915419 0.81598204 79 0 0 0 1.859584
-12.715298 0.86319286 1.6021714 60 0 0 0 1.859584
-5.4951644 -0.18259406 -1.2693886 301 0 0 0 1.859584
-31.994297 2.1347175 10.626367 18 0 0 0 1.859584
-3.8901577 -0.15237096 -1.5278523 264 0 0 0 1.859584
-10.712301 2.8804629 0.58121628 71 0 0 0 1.859584
-8.2669706 0.56074071 -0.56593245 128 0 0 0 1.859584
-34.305573 -1.106359 9.1491652 9 0 0 0 1.859584
-10.853316 -0.32051039 -0.35904977 40 0 0 0 1.859584
-12.154737 3.283725 1.9047859 76 0 0 0 1.859584
-13.771712 2.3083732 2.6242938 91 0 0 0 1.859584
-4.5331426 0.76157939 -1.1663551 311 0 0 0 1.859584
-8.7121801 -0.26112667 -0.71020019 118 0 0 0 1.859584
-4.3254552 1.179423 -1.0866668 308 0 0 0 1.859584
-33.336372 2.2535682 7.5233326 14 0 0 0 1.859584
-33.291096 5.626029 11.646671 10 0 0 0 1.859584
-7.325161 -0.22661777 -0.95617187 140 0 0 0 1.859584
-13.602786 2.2849669 3.2982085 40 0 0 0 1.859584
-12.49407 2.0876074 1.1220133 93 0 0 0 1.859584
-11.156522 0.76309127 0.31269613 169 0 0 0 1.859584
-14.334213 -0.48976108 4.6108952 16 0 0 0 1.859584
-3.8761017 1.0895375 -1.1862091 430 0 0 0 1.966336
-12.1601 3.3653584 1.908758 72 0 0 0 1.966336
-32.285786 2.3702583 8.9824753 10 0 0 0 1.966336
-13.746634 2.3909793 2.6222854 33 0 0 0 1.966336
-35.260883 2.570225 11.713463 12 0 0 0 1.966336
-10.080379 0.74797702 -0.206659 85 0 0 0 1.966336
-13.244896 3.6776752 2.7725465 24 0 0 0 1.966336
-10.698277 2.9471977 0.58141309 109 0 0 0 1.966336
-10.80602 2.9809053 1.1404604 106 0 0 0 1.966336
-10.80013 -0.25264472 -0.35704395 38 0 0 0 1.966336
-33.905388 -0.94454956 10.865912 8 0 0 0 1.966336
-6.5961123 1.1432328 -0.69751704 194 0 0 0 1.966336
-4.2985191 1.2004817 -1.0815368 334 0 0 0 1.966336
-12.650374 0.93679214 1.5948384 96 0 0 0 1.966336
-9.439723 1.6354959 -0.077198543 92 0 0 0 1.966336
-5.4626789 1.5141343 -0.80288768 248 0 0 0 1.966336
-7.2630153 -0.1801302 -0.9475525 165 0 0 0 1.966336
-32.222958 2.3034012 14.409167 9 0 0 0 1.966336
-11.261301 -0.26326114 0.17934987 159 0 0 0 1.966336
-6.2476697 -0.16099459 -1.1261207 182 0 0 0 1.966336
-5.0486975 0.87809455 -1.0399915 280 0 0 0 1.966336
-11.136676 0.83041519 0.3123244 175 0 0 0 1.966336
-11.171206 1.9332234 0.45483676 114 0 0 0 1.966336
-7.739367 1.3397478 -0.43978968 115 0 0 0 1.966336
-34.618088 -0.87355179 7.4100752 13 0 0 0 1.966336
-4.8169565 1.3402028 -0.95752758 301 0 0 0 1.966336
-4.3178959 -0.13301851 -1.4544594 76 0 0 0 1.966336
-5.2528996 0.38449425 -1.1371505 294 0 0 0 1.966336
-6.9368806 0.51186132 -0.813299 165 0 0 0 1.966336
-8.1847992 0.60562825 -0.56018788 137 0 0 0 1.966336
-6.2533665 1.7279682 -0.60064536 173 0 0 0 1.966336
-12.426293 2.1547458 1.7399112 68 0 0 0 1.966336
-33.246635 5.8285608 11.643416 6 0 0 0 1.966336
-12.83279 -0.29943776 0.83528507 58 0 0 0 1.966336
-8.6478777 -0.20612849 -0.70455116 82 0 0 0 1.966336
-8.7819529 2.4200287 0.037764993 90 0 0 0 1.966336
-13.584675 2.3677211 3.2972863 57 0 0 0 1.966336
-4.4864626 0.782085 -1.1551601 387 0 0 0 1.966336
-12.507531 2.1688235 1.1243243 72 0 0 0 1.966336
-12.718962 0.94635242 0.97746056 90 0 0 0 1.966336
-5.4767342 -0.14836071 -1.2647468 267 0 0 0 1.966336
-5.7842269 1.0047753 -0.89985162 190 0 0 0 1.966336
-7.30654 2.0141516 -0.33577627 125 0 0 0 1.966336
-6.0122566 0.44027457 -1.000452 236 0 0 0 1.966336
-3.8910193 -0.12849854 -1.5278523 282 0 0 0 1.966336
-4.6598544 0.33764085 -1.2471322 182 0 0 0 1.966336
-4.3696313 -0.10773019 -1.4721648 27 0 0 0 2.0551679
-11.145321 0.89986092 0.31267133 158 0 0 0 2.0551679
-5.9662209 0.47371513 -0.99296278 247 0 0 0 2.0551679
-4.4701581 0.80753905 -1.1521069 389 0 0 0 2.0551679
-34.540657 -0.65956396 7.3925676 10 0 0 0 2.0551679
-7.6533837 1.3732969 -0.43499437 130 0 0 0 2.0551679
-4.6576953 0.36622685 -1.2471322 110 0 0 0 2.0551679
-10.744523 -0.1854101 -0.35496521 51 0 0 0 2.0551679
-5.0162516 0.90420347 -1.0342082 296 0 0 0 2.0551679
-33.196297 2.6536965 7.4986057 11 0 0 0 2.0551679
-4.2742853 1.2220516 -1.0771395 301 0 0 0 2.0551679
-14.199722 -0.24870916 1.6185653 47 0 0 0 2.0551679
-6.2229862 -0.12217164 -1.1213468 196 0 0 0 2.0551679
-7.2213826 -0.13479051 -0.94176131 156 0 0 0 2.0551679
-12.546942 2.255039 1.1289462 40 0 0 0 2.0551679
-7.2536664 2.0475712 -0.33370993 138 0 0 0 2.0551679
-12.166822 3.4477196 1.9130245 61 0 0 0 2.0551679
-33.866737 -0.73554611 10.851912 14 0 0 0 2.0551679
-8.5961828 -0.15215245 -0.70001489 100 0 0 0 2.0551679
-6.9039278 0.55203646 -0.8096481 155 0 0 0 2.0551679
-13.728802 2.4747591 2.6217377 24 0 0 0 2.0551679
-12.726832 1.0254995 0.97849321 82 0 0 0 2.0551679
-14.397766 -0.28989983 3.8555834 22 0 0 0 2.0551679
-3.8694911 -0.10404766 -1.5188578 199 0 0 0 2.0551679
-10.69922 3.0182021 0.58239704 77 0 0 0 2.0551679
-30.375637 8.6299238 6.3292112 5 0 0 0 2.0551679
-5.462954 -0.11445865 -1.2612654 273 0 0 0 2.0551679
-3.8619888 1.1111923 -1.1838714 375 0 0 0 2.0551679
-4.7992091 1.3670552 -0.95556808 316 0 0 0 2.0551679
-35.230251 2.7854104 11.708755 14 0 0 0 2.0551679
-10.783695 3.046073 1.1400673 108 0 0 0 2.0551679
-14.1696 -0.24323295 0.91859961 37 0 0 0 2.0551679
-6.5645142 1.1792954 -0.69478238 174 0 0 0 2.0551679
-6.2292376 1.7625208 -0.59927189 202 0 0 0 2.0551679
-32.222595 2.5644901 8.9691467 20 0 0 0 2.0551679
-5.2348776 0.41547883 -1.1336548 307 0 0 0 2.0551679
-9.9859171 0.80259478 -0.20449151 82 0 0 0 2.0551679
-9.3576632 1.6804941 -0.076332182 88 0 0 0 2.0551679
-12.630538 1.0132831 1.5931274 93 0 0 0 2.0551679
-8.1351976 0.65216416 -0.55684292 100 0 0 0 2.0551679
-5.4142642 1.5365802 -0.79685581 248 0 0 0 2.0551679
-11.032245 1.9789863 0.45006472 72 0 0 0 2.0551679
-12.396257 2.2279732 1.7376305 85 0 0 0 2.0551679
-4.0641279 0.73652804 -1.2644917 5 0 0 0 2.0551679
-5.7176991 1.0294143 -0.89004582 256 0 0 0 2.0551679
-8.7245874 2.4619374 0.037757311 93 0 0 0 2.0551679
-11.265703 -0.19420877 0.17938809 133 0 0 0 2.0551679
-4.9961805 0.93227732 -1.0311099 279 0 0 0 2.1608961
-13.718191 2.5598521 2.6226506 49 0 0 0 2.1608961
-12.611229 1.0896515 1.5915385 99 0 0 0 2.1608961
-7.1883855 -0.090075262 -0.93718225 139 0 0 0 2.1608961
-30.316463 8.8145008 6.3280373 11 0 0 0 2.1608961
-9.2626286 1.7221729 -0.075311534 97 0 0 0 2.1608961
-6.2000289 -0.083682925 -1.1169403 184 0 0 0 2.1608961
-3.8626411 -0.08015725 -1.5158597 158 0 0 0 2.1608961
-8.084342 0.69802839 -0.55342525 114 0 0 0 2.1608961
-13.036097 -0.14409257 0.84780097 75 0 0 0 2.1608961
-4.7766061 1.392372 -0.95262891 373 0 0 0 2.1608961
-5.4363208 -0.080553502 -1.2547669 283 0 0 0 2.1608961
-14.195019 -0.16151047 1.6178995 52 0 0 0 2.1608961
-4.6688066 0.39594334 -1.2508594 66 0 0 0 2.1608961
-34.065971 -0.47123292 9.0816278 8 0 0 0 2.1608961
-6.2058768 1.7971187 -0.59799653 175 0 0 0 2.1608961
-30.718531 2.6561229 5.3684196 8 0 0 0 2.1608961
-4.2592592 1.2460837 -1.0751852 329 0 0 0 2.1608961
-10.686257 3.0854549 0.58269227 92 0 0 0 2.1608961
-8.6737652 2.5051732 0.037750855 90 0 0 0 2.1608961
-10.613554 -0.11806212 -0.35015124 62 0 0 0 2.1608961
-31.528109 2.6706812 12.261546 7 0 0 0 2.1608961
-35.211552 3.001446 11.708442 11 0 0 0 2.1608961
-6.534677 1.2153765 -0.69226646 191 0 0 0 2.1608961
-32.171684 2.7591896 8.9595509 18 0 0 0 2.1608961
-7.6124272 1.4142205 -0.43299127 114 0 0 0 2.1608961
-4.9518743 -0.08243379 -1.4017147 15 0 0 0 2.1608961
-5.3828826 1.5634431 -0.79347211 238 0 0 0 2.1608961
-11.278682 -0.12520899 0.17954098 126 0 0 0 2.1608961
-11.162496 0.97022408 0.3132413 143 0 0 0 2.1608961
-10.944239 2.0325999 0.4472163 113 0 0 0 2.1608961
-5.6938019 1.0612255 -0.88719898 243 0 0 0 2.1608961
-4.0567212 0.76092488 -1.2635856 17 0 0 0 2.1608961
-9.8991337 0.85677242 -0.20251669 85 0 0 0 2.1608961
-10.775319 3.1152196 1.1411483 103 0 0 0 2.1608961
-12.152088 3.5242352 1.9140544 78 0 0 0 2.1608961
-8.5521221 -0.098907024 -0.6961633 109 0 0 0 2.1608961
-33.832516 -0.52714097 10.839737 10 0 0 0 2.1608961
-3.8440855 1.1316386 -1.180365 395 0 0 0 2.1608961
-5.2108397 0.4457562 -1.1288482 253 0 0 0 2.1608961
-12.370662 2.3018191 1.7360206 62 0 0 0 2.1608961
-32.611645 2.808419 7.3708119 12 0 0 0 2.1608961
-5.9288387 0.5073657 -0.98700547 204 0 0 0 2.1608961
-7.1968203 2.0793114 -0.3314468 122 0 0 0 2.1608961
-6.8707438 0.5918265 -0.80599725 174 0 0 0 2.1608961
-12.550501 2.3352621 1.1304868 44 0 0 0 2.1608961
-4.3957133 -0.081364274 -1.4810175 8 0 0 0 2.1608961
-13.585205 2.5399673 3.3046641 34 0 0 0 2.1608961
-4.4518099 0.83246762 -1.1485448 410 0 0 0 2.1608961
-12.740171 1.1052966 0.97996843 69 0 0 0 2.1608961
-12.134977 3.6001377 1.9147899 76 0 0 0 2.2528
-4.7651525 1.4208162 -0.95204109 322 0 0 0 2.2528
-7.1590767 -0.045793146 -0.93314195 143 0 0 0 2.2528
-4.9836411 0.96161997 -1.0296642 345 0 0 0 2.2528
-12.587504 1.1654547 1.589461 86 0 0 0 2.2528
-6.4704804 1.2445717 -0.68592197 222 0 0 0 2.2528
-3.8537898 -0.056329776 -1.512112 63 0 0 0 2.2528
-30.689882 2.8434668 5.3663731 9 0 0 0 2.2528
-12.347548 2.3759966 1.7348132 72 0 0 0 2.2528
-8.4778442 -0.046059854 -0.68974394 114 0 0 0 2.2528
-9.8409328 0.91259658 -0.20124029 62 0 0 0 2.2528
-4.0295138 0.78145385 -1.2563366 55 0 0 0 2.2528
-4.6979666 0.42747489 -1.259645 38 0 0 0 2.2528
-5.1934304 0.47638005 -1.1255709 247 0 0 0 2.2528
-14.0258 -0.073565878 1.5989274 60 0 0 0 2.2528
-32.632668 3.0120564 7.3795652 7 0 0 0 2.2528
-7.5840011 1.4571396 -0.43177727 131 0 0 0 2.2528
-32.139751 2.955215 8.9555521 10 0 0 0 2.2528
-14.56429 -0.10170381 3.1342604 22 0 0 0 2.2528
