# .PCD v0.7 - Point Cloud Data file format
VERSION 0.7
FIELDS x y z intensity normal_x normal_y normal_z curvature
SIZE 4 4 4 4 4 4 4 4
TYPE F F F F F F F F
COUNT 1 1 1 1 1 1 1 1
WIDTH 1063
HEIGHT 1
VIEWPOINT 0 0 0 1 0 0 0
POINTS 1063
DATA ascii
0.25099999 5.3319998 0.97500002 97 0 0 0 29.176325
0.79299998 5.6539998 1.344 106 0 0 0 29.181271
0.57099998 5.6009998 1.224 94 0 0 0 29.186216
0.347 5.402 1.084 150 0 0 0 29.191164
0.123 5.3130002 0.977 96 0 0 0 29.196112
0.65899998 5.6240001 1.33 107 0 0 0 29.201057
0.43900001 5.5700002 1.214 92 0 0 0 29.206003
0.21799999 5.335 1.071 100 0 0 0 29.210953
-0.001 5.2800002 0.97500002 97 0 0 0 29.2159
0.52700001 5.5900002 1.316 100 0 0 0 29.220846
0.30000001 5.3649998 1.1670001 97 0 0 0 29.225792
0.093000002 5.303 1.067 99 0 0 0 29.23074
-0.125 5.2579999 0.97600001 95 0 0 0 29.235687
0.39899999 5.5539999 1.3 101 0 0 0 29.240635
0.177 5.3330002 1.158 95 0 0 0 29.245581
-0.028000001 5.2740002 1.063 99 0 0 0 29.250528
-0.255 5.4120002 1.011 102 0 0 0 29.255476
0.264 5.3569999 1.249 99 0 0 0 29.260422
0.055 5.302 1.15 88 0 0 0 29.265368
-0.149 5.256 1.061 97 0 0 0 29.270315
-0.382 5.3870001 1.013 105 0 0 0 29.275265
0.14300001 5.3330002 1.239 106 0 0 0 29.28021
-0.066 5.276 1.1440001 93 0 0 0 29.285156
-0.27900001 5.4089999 1.095 110 0 0 0 29.290104
-0.50599998 5.355 1.0140001 108 0 0 0 29.295052
0.021 5.2989998 1.227 96 0 0 0 29.299997
-0.186 5.2740002 1.1440001 93 0 0 0 29.304943
-0.403 5.368 1.091 101 0 0 0 29.309893
-0.63 5.329 1.017 105 0 0 0 29.31484
-0.097999997 5.2820001 1.22 104 0 0 0 29.319786
-0.317 5.4050002 1.173 111 0 0 0 29.324732
-0.52700001 5.3429999 1.091 104 0 0 0 29.329679
-0.75599998 5.3080001 1.022 108 0 0 0 29.334627
-0.21799999 5.2880001 1.2180001 71 0 0 0 29.339575
-0.43900001 5.382 1.17 110 0 0 0 29.344521
-0.64999998 5.3239999 1.092 103 0 0 0 29.349468
-0.87599999 5.2659998 1.023 98 0 0 0 29.354416
-0.34 5.309 1.221 18 0 0 0 29.359362
-0.56 5.3499999 1.165 92 0 0 0 29.364307
-0.77100003 5.2950001 1.092 101 0 0 0 29.369255
-0.99800003 5.243 1.028 98 0 0 0 29.374205
-0.45300001 5.223 1.199 17 0 0 0 29.37915
-0.67799997 5.3080001 1.158 69 0 0 0 29.384096
-0.89300001 5.2729998 1.094 104 0 0 0 29.389044
-1.1210001 5.2160001 1.034 99 0 0 0 29.393991
-0.56599998 5.164 1.184 18 0 0 0 29.398937
-0.796 5.257 1.15 31 0 0 0 29.403885
-1.013 5.2399998 1.094 101 0 0 0 29.408833
-1.242 5.1880002 1.039 98 0 0 0 29.41378
-0.67699999 5.0960002 1.169 17 0 0 0 29.418726
-0.903 5.1620002 1.132 18 0 0 0 29.423672
-1.1339999 5.21 1.095 68 0 0 0 29.428619
-1.363 5.1599998 1.045 98 0 0 0 29.433567
-0.78399998 5.0229998 1.152 16 0 0 0 29.438515
-1.011 5.0879998 1.12 17 0 0 0 29.44346
-1.2410001 5.1240001 1.086 18 0 0 0 29.448408
-1.485 5.125 1.051 58 0 0 0 29.453356
-0.88999999 4.954 1.137 16 0 0 0 29.458302
-1.114 4.9949999 1.105 16 0 0 0 29.463247
-1.336 5.007 1.0700001 16 0 0 0 29.468197
-1.575 4.9970002 1.038 17 0 0 0 29.473145
-0.99599999 4.8909998 1.124 16 0 0 0 29.47809
-1.212 4.8990002 1.089 15 0 0 0 29.483036
-1.427 4.8850002 1.054 16 0 0 0 29.487984
-1.664 4.881 1.028 17 0 0 0 29.492931
-1.098 4.8280001 1.1109999 16 0 0 0 29.497877
-1.306 4.802 1.073 15 0 0 0 29.502825
-1.521 4.7940001 1.043 15 0 0 0 29.507772
-1.7460001 4.7550001 1.015 17 0 0 0 29.51272
-1.194 4.743 1.094 15 0 0 0 29.517666
-1.399 4.7119999 1.0599999 15 0 0 0 29.522612
-1.6109999 4.6960001 1.0319999 15 0 0 0 29.527559
-1.829 4.6459999 1.006 18 0 0 0 29.532509
-1.288 4.6630001 1.0779999 15 0 0 0 29.307348
-1.4910001 4.6290002 1.048 15 0 0 0 29.312294
-1.697 4.598 1.022 16 0 0 0 29.31724
-1.905 4.5279999 0.995 17 0 0 0 29.322187
-1.3839999 4.5949998 1.066 16 0 0 0 29.327135
-1.582 4.5479999 1.0369999 16 0 0 0 29.332083
-1.778 4.4949999 1.01 23 0 0 0 29.337029
-1.98 4.4159999 0.986 18 0 0 0 29.341976
-1.478 4.5279999 1.054 17 0 0 0 29.346924
-1.673 4.473 1.028 22 0 0 0 29.35187
-1.864 4.408 1.003 23 0 0 0 29.356815
-2.0539999 4.3109999 0.97799999 17 0 0 0 29.361765
-1.574 4.4679999 1.046 16 0 0 0 29.366713
-1.762 4.3990002 1.02 23 0 0 0 29.371658
-1.939 4.3060002 0.99199998 21 0 0 0 29.376604
-2.1199999 4.1960001 0.96899998 17 0 0 0 29.381552
-1.6670001 4.4060001 1.036 16 0 0 0 29.386499
-1.8380001 4.2969999 1.005 21 0 0 0 29.391445
-2.0139999 4.2080002 0.98199999 23 0 0 0 29.396393
-2.198 4.1100001 0.96600002 17 0 0 0 29.40134
-1.7539999 4.3309999 1.024 16 0 0 0 29.406288
-1.923 4.223 0.99800003 27 0 0 0 29.411234
-2.0880001 4.1149998 0.97399998 23 0 0 0 29.41618
-2.2639999 4.0079999 0.95999998 25 0 0 0 29.421127
-1.841 4.2579999 1.0140001 24 0 0 0 29.426077
-2.003 4.1420002 0.98900002 24 0 0 0 29.431023
-2.1659999 4.0339999 0.96899998 26 0 0 0 29.435968
-2.3299999 3.9119999 0.95499998 23 0 0 0 29.440916
-1.925 4.184 1.003 22 0 0 0 29.445864
-2.0840001 4.0650001 0.98199999 25 0 0 0 29.450809
-2.2390001 3.948 0.963 26 0 0 0 29.455755
-2.3870001 3.803 0.94700003 25 0 0 0 29.460705
-2.006 4.1069999 0.99199998 27 0 0 0 29.465652
-2.164 3.9909999 0.97500002 27 0 0 0 29.470598
-2.3069999 3.8559999 0.95599997 29 0 0 0 29.475544
-2.4430001 3.6989999 0.94099998 34 0 0 0 29.480492
-2.0929999 4.0419998 0.98500001 26 0 0 0 29.485439
-2.2349999 3.902 0.96600002 28 0 0 0 29.490385
-2.362 3.7460001 0.94499999 30 0 0 0 29.495333
-2.4990001 3.6010001 0.935 26 0 0 0 29.50028
-2.171 3.961 0.97399998 28 0 0 0 29.505228
-2.3039999 3.813 0.95599997 32 0 0 0 29.510174
-2.4330001 3.6689999 0.94199997 30 0 0 0 29.51512
-2.556 3.507 0.93199998 24 0 0 0 29.520067
-2.2509999 3.8889999 0.96600002 29 0 0 0 29.525017
-2.372 3.7260001 0.94800001 37 0 0 0 29.529963
-2.4909999 3.5739999 0.93400002 25 0 0 0 29.534908
-2.6059999 3.408 0.926 23 0 0 0 29.539856
-2.325 3.8110001 0.95599997 32 0 0 0 29.544804
-2.438 3.641 0.94 29 0 0 0 29.549749
-2.5450001 3.4760001 0.926 29 0 0 0 29.554695
-2.6619999 3.322 0.92400002 33 0 0 0 29.559645
-2.3970001 3.7279999 0.94599998 37 0 0 0 29.564592
-2.497 3.5480001 0.93099999 28 0 0 0 29.569538
-2.6070001 3.3940001 0.92299998 29 0 0 0 29.574484
-2.7119999 3.23 0.921 31 0 0 0 29.579432
-2.471 3.652 0.93900001 35 0 0 0 29.584379
-2.566 3.47 0.926 30 0 0 0 29.589327
-2.6700001 3.3150001 0.921 33 0 0 0 29.594273
-2.756 3.132 0.91600001 29 0 0 0 29.59922
-2.5380001 3.5680001 0.92900002 30 0 0 0 29.604168
-2.6370001 3.3970001 0.92299998 32 0 0 0 29.609114
-2.721 3.221 0.91500002 31 0 0 0 29.614059
-2.793 3.0320001 0.91100001 35 0 0 0 29.619007
-2.6099999 3.4920001 0.92199999 32 0 0 0 29.623957
-2.6930001 3.309 0.91500002 33 0 0 0 29.628902
-2.7739999 3.135 0.91000003 32 0 0 0 29.633848
-2.8640001 2.9679999 0.917 56 0 0 0 29.638796
-2.6800001 3.4159999 0.91500002 36 0 0 0 29.643744
-2.7590001 3.2320001 0.91100001 32 0 0 0 29.648689
-2.8169999 3.039 0.90399998 36 0 0 0 29.653637
-2.947 2.9189999 0.92699999 19 0 0 0 29.658585
-2.753 3.3429999 0.91000003 33 0 0 0 29.663532
-2.8150001 3.1459999 0.90499997 32 0 0 0 29.668478
-2.885 2.971 0.90600002 59 0 0 0 29.673424
-2.964 2.8050001 0.917 20 0 0 0 29.678371
-2.8169999 3.26 0.903 34 0 0 0 29.683319
-2.8640001 3.0539999 0.898 35 0 0 0 29.688267
-2.98 2.931 0.917 18 0 0 0 29.693213
-2.983 2.697 0.90899998 13 0 0 0 29.69816
-2.8710001 3.1689999 0.89300001 34 0 0 0 29.703108
-2.925 2.9760001 0.89499998 56 0 0 0 29.708054
-3 2.8169999 0.90600002 23 0 0 0 29.712999
-2.987 2.579 0.89700001 31 0 0 0 29.717949
-2.9319999 3.0869999 0.88700002 36 0 0 0 29.722897
-3.0150001 2.928 0.90100002 38 0 0 0 29.727842
-3.0550001 2.7379999 0.90499997 17 0 0 0 29.732788
-3.0220001 2.4920001 0.89499998 31 0 0 0 29.737736
-2.9960001 3.007 0.88200003 37 0 0 0 29.742683
-3.075 2.8499999 0.89899999 21 0 0 0 29.747629
-3.053 2.6110001 0.889 33 0 0 0 29.752577
-3.0580001 2.4059999 0.89399999 32 0 0 0 29.757524
-3.0710001 2.941 0.88 59 0 0 0 29.762472
-3.1229999 2.76 0.89399999 30 0 0 0 29.767418
-3.0829999 2.517 0.88300002 32 0 0 0 29.772364
-3.085 2.316 0.89200002 42 0 0 0 29.777311
-3.135 2.862 0.87599999 45 0 0 0 29.751556
-3.138 2.6459999 0.88099998 44 0 0 0 29.756502
-3.1159999 2.425 0.87900001 46 0 0 0 29.761448
-3.1129999 2.2279999 0.88999999 34 0 0 0 29.766396
-3.1760001 2.763 0.86699998 48 0 0 0 29.771343
-3.1559999 2.5369999 0.86900002 35 0 0 0 29.776291
-3.1459999 2.335 0.875 38 0 0 0 29.781237
-3.142 2.1440001 0.889 35 0 0 0 29.786184
-3.2190001 2.6689999 0.85900003 35 0 0 0 29.791132
-3.1960001 2.447 0.86500001 35 0 0 0 29.796078
-3.175 2.244 0.87099999 35 0 0 0 29.801023
-3.154 2.0480001 0.884 33 0 0 0 29.805971
-3.2639999 2.579 0.852 35 0 0 0 29.810921
-3.2409999 2.3640001 0.86199999 35 0 0 0 29.815866
-3.2130001 2.161 0.87 35 0 0 0 29.820812
-3.1730001 1.96 0.88099998 33 0 0 0 29.82576
-3.309 2.487 0.84600002 35 0 0 0 29.830708
-3.2809999 2.277 0.85799998 36 0 0 0 29.835653
-3.244 2.075 0.86699998 36 0 0 0 29.840599
-3.201 1.8789999 0.88200003 33 0 0 0 29.845549
-3.3499999 2.3959999 0.83999997 35 0 0 0 29.850496
-3.3180001 2.188 0.85500002 33 0 0 0 29.855442
-3.2679999 1.987 0.86400002 35 0 0 0 29.860388
-3.221 1.794 0.88 32 0 0 0 29.865335
-3.4100001 2.3180001 0.838 36 0 0 0 29.870283
-3.3469999 2.0969999 0.85000002 34 0 0 0 29.875231
-3.2880001 1.895 0.86000001 33 0 0 0 29.880177
-3.237 1.709 0.87900001 30 0 0 0 29.885124
-3.454 2.2279999 0.83399999 35 0 0 0 29.890072
-3.3789999 2.0090001 0.84600002 33 0 0 0 29.895018
-3.3180001 1.812 0.86000001 30 0 0 0 29.899963
-3.2650001 1.63 0.88099998 30 0 0 0 29.904913
-3.4920001 2.1370001 0.829 33 0 0 0 29.909861
-3.414 1.921 0.84399998 32 0 0 0 29.914806
-3.3410001 1.727 0.85699999 31 0 0 0 29.919752
-3.2679999 1.541 0.87699997 28 0 0 0 29.9247
-3.5369999 2.049 0.82599998 32 0 0 0 29.929647
-3.4530001 1.8380001 0.84299999 31 0 0 0 29.934593
-3.3699999 1.6440001 0.85799998 31 0 0 0 29.939541
-3.2880001 1.461 0.87699997 28 0 0 0 29.944489
-3.5880001 1.965 0.82499999 30 0 0 0 29.949436
-3.4890001 1.7539999 0.84200001 31 0 0 0 29.954382
-3.3900001 1.558 0.85600001 28 0 0 0 29.959328
-3.3010001 1.3789999 0.87699997 28 0 0 0 29.964275
-3.6140001 1.868 0.81900001 34 0 0 0 29.969225
-3.5239999 1.668 0.84100002 32 0 0 0 29.974171
-3.4119999 1.474 0.85600001 29 0 0 0 29.979116
-3.3099999 1.296 0.87599999 28 0 0 0 29.984064
-3.651 1.777 0.81599998 33 0 0 0 29.989012
-3.549 1.579 0.83899999 34 0 0 0 29.993958
-3.4330001 1.39 0.85500002 31 0 0 0 29.998903
-3.332 1.219 0.87900001 29 0 0 0 30.003853
-3.6800001 1.683 0.81199998 32 0 0 0 30.008801
-3.5699999 1.489 0.83600003 31 0 0 0 30.013746
-3.471 1.313 0.85900003 41 0 0 0 30.018692
-3.3429999 1.1390001 0.87900001 29 0 0 0 30.02364
-3.721 1.594 0.81 33 0 0 0 30.028587
-3.5929999 1.399 0.83499998 32 0 0 0 30.033533
-3.47 1.223 0.85500002 35 0 0 0 30.038481
-3.3710001 1.0650001 0.88499999 32 0 0 0 30.043428
-3.7539999 1.502 0.80800003 30 0 0 0 30.048376
-3.6170001 1.312 0.83399999 32 0 0 0 30.053322
-3.4890001 1.14 0.85600001 35 0 0 0 30.058268
-3.3789999 0.98500001 0.88499999 39 0 0 0 30.063215
-3.777 1.406 0.80500001 29 0 0 0 30.068165
-3.6329999 1.222 0.83099997 33 0 0 0 30.073111
-3.5090001 1.058 0.85699999 40 0 0 0 30.078056
-3.3940001 0.90700001 0.88800001 43 0 0 0 30.083004
-3.802 1.312 0.80199999 30 0 0 0 30.087952
-3.6619999 1.136 0.833 36 0 0 0 30.092897
-3.5339999 0.977 0.86000001 45 0 0 0 30.097843
-3.8369999 1.222 0.80199999 33 0 0 0 30.10774
-3.684 1.048 0.833 38 0 0 0 30.112686
-3.5599999 0.89700001 0.86400002 14 0 0 0 30.117632
-3.862 1.127 0.80000001 33 0 0 0 30.127527
-3.7079999 0.96100003 0.83399999 42 0 0 0 30.132475
-3.888 1.033 0.79900002 36 0 0 0 30.147316
-3.9649999 0.95099998 0.81 0 0 0 0 30.167105
-4.053 -0.83499998 0.82700002 6 0 0 0 31.130564
-3.806 -0.84600002 0.88099998 1 0 0 0 31.135509
-3.536 -0.84299999 0.91500002 45 0 0 0 31.140455
-3.3110001 -0.83700001 0.95300001 42 0 0 0 31.145405
-4.0380001 -0.93599999 0.82999998 129 0 0 0 31.150352
-3.773 -0.93300003 0.88099998 41 0 0 0 31.155298
-3.5190001 -0.92400002 0.91799998 46 0 0 0 31.160244
-3.29 -0.91000003 0.95599997 41 0 0 0 31.165192
-4.0170002 -1.035 0.83099997 135 0 0 0 31.170139
-3.776 -1.029 0.889 43 0 0 0 31.175085
-3.51 -1.0089999 0.92500001 45 0 0 0 31.180033
-3.2650001 -0.98000002 0.958 42 0 0 0 31.18498
-4 -1.136 0.83499998 150 0 0 0 31.189928
-3.7539999 -1.119 0.89200002 40 0 0 0 31.194874
-3.4979999 -1.092 0.93099999 43 0 0 0 31.19982
-3.2460001 -1.053 0.963 40 0 0 0 31.204767
-3.9809999 -1.2359999 0.83899999 141 0 0 0 31.209717
-3.734 -1.21 0.89700001 41 0 0 0 31.214663
-3.4879999 -1.176 0.93800002 47 0 0 0 31.219608
-3.2260001 -1.125 0.96700001 39 0 0 0 31.224556
-3.9579999 -1.336 0.84299999 137 0 0 0 31.229504
-3.72 -1.304 0.903 41 0 0 0 31.234449
-3.457 -1.2539999 0.94 44 0 0 0 31.239395
-3.2030001 -1.196 0.97100002 39 0 0 0 31.244345
-3.9349999 -1.436 0.847 146 0 0 0 31.249292
-3.694 -1.393 0.90700001 35 0 0 0 31.254238
-3.4289999 -1.334 0.94400001 42 0 0 0 31.259184
-3.184 -1.2690001 0.97600001 37 0 0 0 31.264132
-3.9000001 -1.534 0.85000002 143 0 0 0 31.269079
-3.6849999 -1.49 0.91500002 34 0 0 0 31.274027
-3.4070001 -1.415 0.949 42 0 0 0 31.278973
-3.1630001 -1.3430001 0.98199999 38 0 0 0 31.28392
-3.8829999 -1.638 0.85699999 146 0 0 0 31.288868
-3.6530001 -1.579 0.91900003 41 0 0 0 31.293814
-3.3859999 -1.499 0.95599997 43 0 0 0 31.298759
-3.1389999 -1.414 0.98699999 41 0 0 0 31.303707
-3.859 -1.7410001 0.86299998 150 0 0 0 31.223827
-3.641 -1.677 0.92900002 39 0 0 0 31.228773
-3.3499999 -1.575 0.958 36 0 0 0 31.233721
-3.1129999 -1.4859999 0.99199998 40 0 0 0 31.238668
-3.8399999 -1.846 0.87099999 137 0 0 0 31.243616
-3.608 -1.766 0.93400002 39 0 0 0 31.248562
-3.3340001 -1.661 0.96700001 38 0 0 0 31.253508
-3.0929999 -1.5599999 0.99900001 40 0 0 0 31.258455
-3.809 -1.948 0.87699997 132 0 0 0 31.263405
-3.586 -1.8609999 0.94199997 39 0 0 0 31.268351
-3.3 -1.738 0.97100002 37 0 0 0 31.273296
-3.0639999 -1.63 1.0039999 39 0 0 0 31.278244
-3.7920001 -2.0580001 0.88700002 129 0 0 0 31.283192
-3.552 -1.952 0.94700003 38 0 0 0 31.288137
-3.273 -1.821 0.97899997 38 0 0 0 31.293083
-3.0350001 -1.701 1.0089999 38 0 0 0 31.298033
-3.7690001 -2.1670001 0.89700001 122 0 0 0 31.30298
-3.5179999 -2.0420001 0.954 36 0 0 0 31.307926
-3.2460001 -1.904 0.986 37 0 0 0 31.312872
-3.013 -1.777 1.018 38 0 0 0 31.31782
-3.7460001 -2.276 0.90700001 125 0 0 0 31.322767
-3.493 -2.1400001 0.96399999 36 0 0 0 31.327715
-3.2160001 -1.987 0.99400002 38 0 0 0 31.332661
-2.983 -1.849 1.024 37 0 0 0 31.337608
-3.721 -2.3889999 0.91799998 114 0 0 0 31.342556
-3.4519999 -2.2290001 0.97000003 35 0 0 0 31.347502
-3.184 -2.0680001 1.001 35 0 0 0 31.352448
-2.9579999 -1.924 1.033 34 0 0 0 31.357395
-3.697 -2.503 0.93099999 106 0 0 0 31.362345
-3.4119999 -2.319 0.977 35 0 0 0 31.36729
-3.151 -2.1500001 1.0089999 34 0 0 0 31.372236
-2.921 -1.992 1.0369999 33 0 0 0 31.377184
-3.665 -2.615 0.94199997 94 0 0 0 31.382132
-3.3840001 -2.418 0.98900002 36 0 0 0 31.387077
-3.118 -2.234 1.018 34 0 0 0 31.392023
-2.895 -2.0680001 1.046 33 0 0 0 31.396973
-3.6429999 -2.7360001 0.95700002 78 0 0 0 31.40192
-3.3369999 -2.506 0.995 36 0 0 0 31.406866
-3.079 -2.313 1.025 32 0 0 0 31.411812
-2.8570001 -2.1370001 1.052 31 0 0 0 31.416759
-3.6199999 -2.8599999 0.97299999 80 0 0 0 31.421707
-3.2969999 -2.598 1.0039999 33 0 0 0 31.426655
-3.043 -2.3959999 1.033 32 0 0 0 31.431601
-2.819 -2.207 1.058 32 0 0 0 31.436548
-3.5780001 -2.971 0.98400003 64 0 0 0 31.441496
-3.257 -2.6949999 1.015 33 0 0 0 31.446442
-2.9979999 -2.473 1.04 33 0 0 0 31.451387
-2.7839999 -2.279 1.066 33 0 0 0 31.456335
-3.5350001 -3.085 0.99800003 52 0 0 0 31.461285
-3.207 -2.7839999 1.024 35 0 0 0 31.46623
-2.9619999 -2.559 1.051 33 0 0 0 31.471176
-2.7479999 -2.352 1.074 32 0 0 0 31.476124
-3.4790001 -3.1900001 1.008 38 0 0 0 31.481071
-3.158 -2.8740001 1.033 30 0 0 0 31.486017
-2.9130001 -2.635 1.058 33 0 0 0 31.490965
-2.714 -2.4289999 1.084 32 0 0 0 31.495913
-3.4100001 -3.283 1.015 26 0 0 0 31.50086
-3.1110001 -2.9679999 1.044 30 0 0 0 31.505806
-2.8699999 -2.717 1.068 31 0 0 0 31.510752
-2.6689999 -2.4960001 1.091 34 0 0 0 31.515699
-3.3540001 -3.391 1.028 24 0 0 0 31.520647
-3.056 -3.0569999 1.053 26 0 0 0 31.525595
-2.823 -2.7969999 1.076 32 0 0 0 31.53054
-2.6359999 -2.5739999 1.102 32 0 0 0 31.535488
-3.3010001 -3.5039999 1.0420001 25 0 0 0 31.540436
-3 -3.1459999 1.063 29 0 0 0 31.545382
-2.777 -2.878 1.086 32 0 0 0 31.550327
-2.5899999 -2.6429999 1.109 33 0 0 0 31.555277
-3.2409999 -3.612 1.0549999 58 0 0 0 31.560225
-2.9579999 -3.25 1.079 31 0 0 0 31.56517
-2.727 -2.957 1.096 33 0 0 0 31.570116
-2.5439999 -2.7130001 1.117 31 0 0 0 31.575064
-3.0880001 -3.6159999 1.039 81 0 0 0 31.580011
-2.9059999 -3.3469999 1.092 27 0 0 0 31.584957
-2.6760001 -3.039 1.107 31 0 0 0 31.589905
-2.503 -2.79 1.128 32 0 0 0 31.594852
-2.904 -3.5739999 1.012 81 0 0 0 31.5998
-2.858 -3.454 1.109 33 0 0 0 31.604746
-2.6289999 -3.1270001 1.12 35 0 0 0 31.609692
-2.4560001 -2.8599999 1.136 33 0 0 0 31.614639
-2.7279999 -3.529 0.98500001 80 0 0 0 31.619589
-2.7809999 -3.526 1.115 70 0 0 0 31.624535
-2.5769999 -3.21 1.131 31 0 0 0 31.62948
-2.405 -2.928 1.1440001 31 0 0 0 31.634428
-2.5710001 -3.4990001 0.963 89 0 0 0 31.639376
-2.632 -3.5039999 1.092 79 0 0 0 31.644321
-2.53 -3.3010001 1.146 33 0 0 0 31.649267
-2.3610001 -3.007 1.1569999 34 0 0 0 31.654217
-2.418 -3.464 0.94199997 87 0 0 0 31.659164
-2.48 -3.4679999 1.067 86 0 0 0 31.66411
-2.484 -3.3970001 1.163 41 0 0 0 31.669056
-2.309 -3.0769999 1.166 33 0 0 0 31.674004
-2.28 -3.4400001 0.92500001 86 0 0 0 31.678951
-2.3410001 -3.441 1.045 97 0 0 0 31.683899
-2.3989999 -3.4419999 1.1619999 77 0 0 0 31.688845
-2.2650001 -3.1589999 1.1799999 32 0 0 0 31.693792
-2.141 -3.4089999 0.90700001 91 0 0 0 31.227644
-2.21 -3.418 1.026 90 0 0 0 31.23259
-2.273 -3.425 1.142 90 0 0 0 31.237535
-2.214 -3.2349999 1.191 32 0 0 0 31.242483
-2.013 -3.3829999 0.89200002 104 0 0 0 31.247433
-2.079 -3.388 1.006 87 0 0 0 31.252378
-2.148 -3.4030001 1.122 87 0 0 0 31.257324
-2.168 -3.3239999 1.2079999 37 0 0 0 31.262272
-1.888 -3.3570001 0.87800002 99 0 0 0 31.26722
-1.957 -3.3629999 0.98900002 93 0 0 0 31.272165
-2.026 -3.375 1.1 93 0 0 0 31.277111
-2.092 -3.3659999 1.209 80 0 0 0 31.282061
-1.766 -3.326 0.86299998 91 0 0 0 31.287008
-1.841 -3.342 0.97399998 107 0 0 0 31.291954
-1.91 -3.3529999 1.081 94 0 0 0 31.2969
-1.985 -3.355 1.1900001 90 0 0 0 31.301847
-1.65 -3.299 0.85000002 104 0 0 0 31.306795
-1.722 -3.3069999 0.95499998 91 0 0 0 31.311743
-1.793 -3.3199999 1.0599999 93 0 0 0 31.316689
-1.872 -3.329 1.168 95 0 0 0 31.321636
-1.54 -3.273 0.838 103 0 0 0 31.326584
-1.613 -3.2820001 0.94099998 111 0 0 0 31.33153
-1.687 -3.302 1.045 105 0 0 0 31.336475
-1.766 -3.309 1.148 120 0 0 0 31.341425
-1.436 -3.2550001 0.829 97 0 0 0 31.346373
-1.512 -3.266 0.93000001 101 0 0 0 31.351318
-1.5779999 -3.267 1.025 102 0 0 0 31.356264
-1.66 -3.2820001 1.128 108 0 0 0 31.361212
-1.3329999 -3.23 0.81900001 107 0 0 0 31.366159
-1.406 -3.2349999 0.91500002 108 0 0 0 31.371105
-1.483 -3.257 1.013 100 0 0 0 31.376053
-1.559 -3.2590001 1.109 99 0 0 0 31.381001
-1.233 -3.2049999 0.81 100 0 0 0 31.385948
-1.311 -3.22 0.90499997 96 0 0 0 31.390894
-1.381 -3.2260001 0.99599999 97 0 0 0 31.39584
-1.46 -3.234 1.091 103 0 0 0 31.400787
-1.142 -3.1949999 0.80500001 93 0 0 0 31.405737
-1.2180001 -3.204 0.89700001 110 0 0 0 31.410683
-1.289 -3.2090001 0.98400003 101 0 0 0 31.415628
-1.3710001 -3.2219999 1.077 113 0 0 0 31.420576
-1.05 -3.1760001 0.79799998 98 0 0 0 31.425524
-1.1289999 -3.1930001 0.889 102 0 0 0 31.43047
-1.198 -3.191 0.97299999 107 0 0 0 31.435415
-1.279 -3.1989999 1.061 105 0 0 0 31.440365
-0.95899999 -3.1559999 0.792 93 0 0 0 31.445312
-1.04 -3.1730001 0.88 100 0 0 0 31.450258
-1.115 -3.1860001 0.96600002 101 0 0 0 31.455204
-1.192 -3.1819999 1.0470001 113 0 0 0 31.460152
-0.87400001 -3.145 0.78899997 99 0 0 0 31.465099
-0.95300001 -3.1530001 0.87199998 95 0 0 0 31.470045
-1.027 -3.1630001 0.954 101 0 0 0 31.474993
-1.109 -3.174 1.0369999 105 0 0 0 31.47994
-0.78799999 -3.1229999 0.78299999 98 0 0 0 31.484888
-0.866 -3.1300001 0.86299998 96 0 0 0 31.489834
-0.94300002 -3.145 0.94400001 98 0 0 0 31.49478
-1.026 -3.1570001 1.025 101 0 0 0 31.499727
-0.70499998 -3.1040001 0.778 99 0 0 0 31.504677
-0.78600001 -3.1170001 0.85799998 99 0 0 0 31.509623
-0.861 -3.1270001 0.935 96 0 0 0 31.514568
-0.94400001 -3.1400001 1.013 95 0 0 0 31.519516
-0.62300003 -3.0869999 0.77499998 102 0 0 0 31.524464
-0.704 -3.098 0.852 104 0 0 0 31.529409
-0.78100002 -3.1110001 0.92699999 94 0 0 0 31.534355
-0.86400002 -3.1210001 1.001 93 0 0 0 31.539305
-0.54299998 -3.0710001 0.773 95 0 0 0 31.544252
-0.625 -3.0780001 0.84600002 97 0 0 0 31.549198
-0.70300001 -3.099 0.921 99 0 0 0 31.554144
-0.787 -3.109 0.99199998 98 0 0 0 31.559092
-0.46599999 -3.0539999 0.76999998 107 0 0 0 31.564039
-0.54900002 -3.072 0.84399998 106 0 0 0 31.568987
-0.62599999 -3.0780001 0.912 103 0 0 0 31.573933
-0.708 -3.085 0.98000002 101 0 0 0 31.57888
-0.38999999 -3.0409999 0.76899999 114 0 0 0 31.583828
-0.47299999 -3.0510001 0.838 102 0 0 0 31.588774
-0.551 -3.062 0.90600002 102 0 0 0 31.593719
-0.63499999 -3.075 0.97299999 104 0 0 0 31.598667
-0.31400001 -3.016 0.76499999 95 0 0 0 31.603617
-0.398 -3.0280001 0.833 118 0 0 0 31.608562
-0.479 -3.0539999 0.90200001 107 0 0 0 31.613508
-0.56099999 -3.0569999 0.96399999 110 0 0 0 31.618456
-0.23999999 -3.0020001 0.76499999 102 0 0 0 31.623404
-0.32699999 -3.0280001 0.83399999 115 0 0 0 31.628349
-0.40599999 -3.0369999 0.89600003 109 0 0 0 31.633295
-0.49000001 -3.0480001 0.95700002 107 0 0 0 31.638245
-0.168 -2.9849999 0.76499999 100 0 0 0 31.643192
-0.25400001 -3.0079999 0.82999998 109 0 0 0 31.648138
-0.333 -3.013 0.889 100 0 0 0 31.653084
-0.419 -3.0320001 0.949 114 0 0 0 31.658031
-0.096000001 -2.974 0.76599997 113 0 0 0 31.662979
-0.183 -2.984 0.82599998 108 0 0 0 31.667927
-0.26300001 -3.0009999 0.88499999 104 0 0 0 31.672873
-0.34900001 -3.0150001 0.94199997 122 0 0 0 31.67782
-0.026000001 -2.9519999 0.76499999 107 0 0 0 31.682768
-0.113 -2.97 0.82499999 103 0 0 0 31.687714
-0.193 -2.9809999 0.88 104 0 0 0 31.692659
-0.27900001 -3.0009999 0.93599999 109 0 0 0 31.697609
0.043000001 -2.937 0.76599997 121 0 0 0 31.403427
-0.044 -2.9530001 0.82200003 107 0 0 0 31.408377
-0.125 -2.97 0.87699997 108 0 0 0 31.413324
-0.211 -2.9890001 0.93099999 118 0 0 0 31.41827
0.112 -2.9219999 0.76700002 118 0 0 0 31.423216
0.023 -2.9389999 0.82200003 116 0 0 0 31.428164
-0.057999998 -2.957 0.875 116 0 0 0 31.433111
-0.14399999 -2.967 0.92299998 110 0 0 0 31.438059
0.18000001 -2.9070001 0.76899999 108 0 0 0 31.443005
0.090000004 -2.9219999 0.82099998 121 0 0 0 31.447952
0.0080000004 -2.9449999 0.87300003 118 0 0 0 31.4529
-0.078000002 -2.957 0.91900003 111 0 0 0 31.457846
0.248 -2.8970001 0.773 110 0 0 0 31.462791
0.15700001 -2.9089999 0.82099998 119 0 0 0 31.467739
0.074000001 -2.924 0.86900002 112 0 0 0 31.472689
-0.011 -2.9419999 0.91500002 121 0 0 0 31.477634
0.31600001 -2.882 0.77600002 116 0 0 0 31.48258
0.223 -2.8940001 0.82200003 112 0 0 0 31.487528
0.14 -2.908 0.86699998 116 0 0 0 31.492476
0.052999999 -2.9289999 0.91000003 118 0 0 0 31.497421
0.382 -2.8629999 0.778 117 0 0 0 31.502369
0.289 -2.8789999 0.82300001 116 0 0 0 31.507317
0.205 -2.8959999 0.866 120 0 0 0 31.512264
0.118 -2.9089999 0.90499997 120 0 0 0 31.51721
0.44800001 -2.8529999 0.78299999 124 0 0 0 31.522156
0.35499999 -2.8670001 0.82499999 116 0 0 0 31.527103
0.26899999 -2.881 0.86500001 120 0 0 0 31.532051
0.182 -2.8989999 0.903 115 0 0 0 31.536999
0.514 -2.836 0.78600001 112 0 0 0 31.541945
0.41999999 -2.8559999 0.82800001 113 0 0 0 31.546892
0.33500001 -2.8740001 0.86699998 121 0 0 0 31.55184
0.24600001 -2.8870001 0.90100002 124 0 0 0 31.556786
0.58099997 -2.825 0.792 106 0 0 0 31.561731
0.48500001 -2.8410001 0.82999998 125 0 0 0 31.566681
0.39899999 -2.859 0.86699998 118 0 0 0 31.571629
0.30899999 -2.8699999 0.89700001 122 0 0 0 31.576574
0.64600003 -2.8110001 0.79699999 123 0 0 0 31.58152
0.55000001 -2.829 0.83399999 105 0 0 0 31.586468
0.46200001 -2.8399999 0.866 114 0 0 0 31.591415
0.373 -2.859 0.89600003 121 0 0 0 31.596361
0.71200001 -2.7980001 0.80299997 109 0 0 0 31.601309
0.61500001 -2.813 0.83600003 120 0 0 0 31.606256
0.52700001 -2.8310001 0.86799997 121 0 0 0 31.611204
0.43599999 -2.846 0.89499998 121 0 0 0 31.61615
0.77700001 -2.78 0.80800003 112 0 0 0 31.621096
0.68000001 -2.803 0.84100002 117 0 0 0 31.626043
0.58999997 -2.8180001 0.87 118 0 0 0 31.630993
0.49900001 -2.8310001 0.89399999 122 0 0 0 31.635939
0.84299999 -2.767 0.815 112 0 0 0 31.640884
0.74400002 -2.7869999 0.84500003 115 0 0 0 31.645832
0.653 -2.799 0.87 107 0 0 0 31.65078
0.56199998 -2.8180001 0.89300001 115 0 0 0 31.655725
0.90899998 -2.7490001 0.82099998 106 0 0 0 31.660671
0.80800003 -2.7709999 0.84799999 106 0 0 0 31.665621
0.71700001 -2.7869999 0.87300003 118 0 0 0 31.670568
0.625 -2.803 0.89200002 118 0 0 0 31.675514
0.97399998 -2.734 0.82800001 113 0 0 0 31.68046
0.87199998 -2.7550001 0.85299999 117 0 0 0 31.685408
0.78200001 -2.7780001 0.87699997 113 0 0 0 31.690355
0.68800002 -2.7880001 0.89200002 113 0 0 0 31.695301
1.038 -2.714 0.83499998 120 0 0 0 31.700249
0.93599999 -2.7360001 0.85699999 118 0 0 0 31.705196
0.84399998 -2.7579999 0.87800002 109 0 0 0 31.710144
0.75300002 -2.779 0.89499998 118 0 0 0 31.71509
1.104 -2.6989999 0.84299999 117 0 0 0 31.720036
1.001 -2.7219999 0.86299998 117 0 0 0 31.724983
0.91000003 -2.7479999 0.88300002 121 0 0 0 31.729933
0.815 -2.7639999 0.89499998 114 0 0 0 31.734879
1.173 -2.688 0.85299999 115 0 0 0 31.739824
1.068 -2.711 0.87099999 112 0 0 0 31.744772
0.972 -2.7279999 0.88499999 118 0 0 0 31.74972
0.87800002 -2.7460001 0.89499998 121 0 0 0 31.754665
1.2410001 -2.6730001 0.86299998 117 0 0 0 31.759611
1.1339999 -2.6949999 0.87699997 110 0 0 0 31.764561
1.0369999 -2.711 0.889 113 0 0 0 31.769508
0.94199997 -2.733 0.89700001 120 0 0 0 31.774454
1.3099999 -2.6589999 0.87300003 96 0 0 0 31.7794
1.199 -2.6789999 0.884 113 0 0 0 31.784348
1.104 -2.7019999 0.89600003 116 0 0 0 31.789295
1.007 -2.717 0.89899999 122 0 0 0 31.794243
1.378 -2.642 0.88300002 107 0 0 0 31.799189
1.267 -2.664 0.89200002 113 0 0 0 31.804136
1.169 -2.687 0.89999998 120 0 0 0 31.809084
1.072 -2.7049999 0.903 122 0 0 0 31.81403
1.4450001 -2.6229999 0.89300001 97 0 0 0 31.818975
1.336 -2.652 0.90100002 106 0 0 0 31.823923
1.235 -2.6719999 0.90600002 123 0 0 0 31.828873
1.138 -2.6919999 0.90600002 121 0 0 0 31.833818
1.521 -2.618 0.90899998 120 0 0 0 31.838764
1.403 -2.635 0.91000003 128 0 0 0 31.843712
1.303 -2.6589999 0.91299999 116 0 0 0 31.84866
1.2029999 -2.6760001 0.90899998 123 0 0 0 31.853605
1.5880001 -2.595 0.91900003 130 0 0 0 31.858553
1.476 -2.6270001 0.92199999 119 0 0 0 31.863501
1.372 -2.645 0.92000002 115 0 0 0 31.868448
1.27 -2.661 0.91399997 127 0 0 0 31.873394
1.573 -2.444 0.88300002 91 0 0 0 32.769466
1.5420001 -2.6040001 0.93000001 124 0 0 0 32.774418
1.438 -2.6259999 0.92699999 116 0 0 0 32.779362
1.339 -2.6500001 0.91900003 118 0 0 0 32.784309
1.625 -2.402 0.88700002 111 0 0 0 32.789257
1.5930001 -2.556 0.92799997 113 0 0 0 32.794205
1.511 -2.6159999 0.93699998 121 0 0 0 32.799149
1.409 -2.638 0.92500001 128 0 0 0 32.804096
1.6950001 -2.3859999 0.89999998 106 0 0 0 32.809044
1.584 -2.4159999 0.89399999 107 0 0 0 32.813992
1.579 -2.596 0.94400001 132 0 0 0 32.818939
1.4809999 -2.6270001 0.93300003 129 0 0 0 32.823883
1.768 -2.3740001 0.91600001 104 0 0 0 32.828831
1.652 -2.3989999 0.90499997 115 0 0 0 32.833778
1.562 -2.441 0.90100002 92 0 0 0 32.838726
1.548 -2.6059999 0.93699998 136 0 0 0 32.843674
1.845 -2.365 0.93300003 112 0 0 0 32.848621
1.72 -2.382 0.91600001 106 0 0 0 32.853569
1.6160001 -2.404 0.90200001 127 0 0 0 32.858513
1.584 -2.533 0.92299998 84 0 0 0 32.863461
1.916 -2.3429999 0.94800001 106 0 0 0 32.868408
1.791 -2.3659999 0.92799997 97 0 0 0 32.873356
1.686 -2.3889999 0.912 109 0 0 0 32.878304
1.585 -2.411 0.89099997 121 0 0 0 32.883247
1.993 -2.329 0.96600002 101 0 0 0 32.888195
1.8710001 -2.358 0.94499999 111 0 0 0 32.893143
1.76 -2.3770001 0.92500001 116 0 0 0 32.89809
1.66 -2.4030001 0.90200001 127 0 0 0 32.903034
2.085 -2.3269999 0.99000001 150 0 0 0 32.907986
1.941 -2.336 0.958 112 0 0 0 32.912933
1.8329999 -2.362 0.93599999 110 0 0 0 32.917877
1.729 -2.3829999 0.90899998 121 0 0 0 32.922825
2.2820001 -2.4349999 1.063 105 0 0 0 32.927773
2.0220001 -2.3239999 0.97500002 109 0 0 0 32.93272
1.9069999 -2.346 0.94800001 114 0 0 0 32.937668
1.799 -2.365 0.917 111 0 0 0 32.942612
2.3640001 -2.4100001 1.082 118 0 0 0 32.947559
2.1429999 -2.3529999 1.011 150 0 0 0 32.952507
1.983 -2.329 0.96100003 109 0 0 0 32.957455
1.8789999 -2.3570001 0.92900002 121 0 0 0 32.962399
2.447 -2.3859999 1.102 112 0 0 0 32.967346
2.312 -2.427 1.068 106 0 0 0 32.972298
2.069 -2.3210001 0.97799999 146 0 0 0 32.977242
1.951 -2.335 0.93699998 117 0 0 0 32.982189
2.5369999 -2.3659999 1.124 115 0 0 0 32.987137
2.3970001 -2.4059999 1.086 125 0 0 0 32.992085
2.2750001 -2.438 1.05 126 0 0 0 32.997028
2.033 -2.323 0.94999999 111 0 0 0 33.001976
2.6300001 -2.345 1.148 114 0 0 0 33.006924
2.4809999 -2.3800001 1.103 113 0 0 0 33.011871
2.3610001 -2.4189999 1.066 116 0 0 0 33.016819
2.1719999 -2.3699999 0.98900002 150 0 0 0 33.021763
2.7249999 -2.322 1.173 115 0 0 0 33.026711
2.5710001 -2.358 1.123 98 0 0 0 33.031658
2.45 -2.398 1.0829999 122 0 0 0 33.036606
2.329 -2.427 1.034 112 0 0 0 33.041553
2.8269999 -2.303 1.201 104 0 0 0 33.046501
2.677 -2.346 1.15 113 0 0 0 33.051449
2.5339999 -2.3699999 1.098 110 0 0 0 33.056393
2.415 -2.4030001 1.0470001 130 0 0 0 33.06134
2.924 -2.276 1.227 94 0 0 0 33.066288
2.7720001 -2.3210001 1.1720001 109 0 0 0 33.071236
2.628 -2.3469999 1.1160001 120 0 0 0 33.076183
2.5039999 -2.3789999 1.061 120 0 0 0 33.081127
3.0380001 -2.2579999 1.26 108 0 0 0 33.086075
2.8710001 -2.2969999 1.196 95 0 0 0 33.091022
2.73 -2.329 1.1390001 121 0 0 0 33.09597
2.6010001 -2.3599999 1.0779999 113 0 0 0 33.100918
3.141 -2.2279999 1.289 90 0 0 0 33.105865
2.984 -2.279 1.225 103 0 0 0 33.110813
2.8310001 -2.3069999 1.16 105 0 0 0 33.115757
2.697 -2.336 1.094 127 0 0 0 33.120705
3.2579999 -2.204 1.323 91 0 0 0 33.125652
3.089 -2.2509999 1.252 102 0 0 0 33.1306
2.931 -2.279 1.181 106 0 0 0 33.135548
2.8010001 -2.3139999 1.114 117 0 0 0 33.140491
3.3759999 -2.177 1.358 100 0 0 0 33.145439
3.201 -2.2249999 1.28 101 0 0 0 33.150387
3.052 -2.2639999 1.211 117 0 0 0 33.155334
2.9070001 -2.2909999 1.1339999 114 0 0 0 33.160278
3.4909999 -2.1429999 1.392 94 0 0 0 33.16523
3.3180001 -2.197 1.312 97 0 0 0 33.170177
3.1589999 -2.234 1.234 114 0 0 0 33.175121
3.0239999 -2.2709999 1.158 118 0 0 0 33.180069
3.622 -2.1159999 1.432 89 0 0 0 33.185017
3.431 -2.1630001 1.341 110 0 0 0 33.189964
3.2750001 -2.2049999 1.261 107 0 0 0 33.194908
3.138 -2.2460001 1.181 107 0 0 0 33.199856
3.75 -2.0810001 1.472 78 0 0 0 33.204803
3.5610001 -2.135 1.377 93 0 0 0 33.209751
3.405 -2.1819999 1.294 105 0 0 0 33.214699
3.2550001 -2.217 1.205 119 0 0 0 33.219643
3.901 -2.0539999 1.521 74 0 0 0 33.22459
3.694 -2.1040001 1.414 87 0 0 0 33.229542
3.527 -2.1489999 1.323 98 0 0 0 33.234486
3.3770001 -2.187 1.23 102 0 0 0 33.239433
4.0469999 -2.0190001 1.567 78 0 0 0 33.113522
3.8399999 -2.075 1.456 75 0 0 0 33.118469
3.6559999 -2.115 1.354 83 0 0 0 33.123417
3.5009999 -2.154 1.256 100 0 0 0 33.128365
4.2049999 -1.984 1.619 78 0 0 0 33.133308
3.9860001 -2.04 1.498 82 0 0 0 33.138256
3.8039999 -2.086 1.393 83 0 0 0 33.143204
3.6370001 -2.1229999 1.286 89 0 0 0 33.148151
4.3579998 -1.941 1.669 79 0 0 0 33.153099
4.1430001 -2.0039999 1.544 77 0 0 0 33.158043
3.9560001 -2.0539999 1.433 78 0 0 0 33.162991
3.7839999 -2.092 1.3200001 83 0 0 0 33.167938
4.5320001 -1.9 1.727 75 0 0 0 33.172886
4.303 -1.965 1.592 80 0 0 0 33.177834
4.1090002 -2.0150001 1.473 80 0 0 0 33.182781
3.9389999 -2.059 1.3559999 78 0 0 0 33.187729
4.7140002 -1.857 1.788 72 0 0 0 33.192673
4.474 -1.923 1.643 81 0 0 0 33.19762
4.2810001 -1.98 1.52 84 0 0 0 33.202568
4.0999999 -2.0220001 1.3940001 81 0 0 0 33.207516
4.9089999 -1.812 1.855 75 0 0 0 33.212463
4.664 -1.883 1.702 77 0 0 0 33.217407
4.4520001 -1.937 1.566 88 0 0 0 33.222355
4.2719998 -1.9859999 1.436 81 0 0 0 33.227303
5.1129999 -1.762 1.925 72 0 0 0 33.23225
4.8559999 -1.836 1.762 77 0 0 0 33.237198
4.632 -1.891 1.6160001 87 0 0 0 33.242146
4.447 -1.942 1.478 86 0 0 0 33.247093
5.3330002 -1.7079999 2.003 69 0 0 0 33.252037
5.0630002 -1.786 1.827 73 0 0 0 33.256985
4.8179998 -1.84 1.668 93 0 0 0 33.261932
4.632 -1.896 1.524 81 0 0 0 33.26688
5.5689998 -1.652 2.086 65 0 0 0 33.271828
5.2820001 -1.732 1.896 69 0 0 0 33.276772
4.698 -1.6720001 1.614 61 0 0 0 33.281719
4.8309999 -1.846 1.575 80 0 0 0 33.286667
5.8200002 -1.589 2.175 61 0 0 0 33.291615
5.5279999 -1.677 1.976 65 0 0 0 33.296558
4.6760001 -1.545 1.596 59 0 0 0 33.30151
4.704 -1.6720001 1.5190001 64 0 0 0 33.306458
6.0939999 -1.523 2.2739999 47 0 0 0 33.311401
4.6560001 -1.3 1.658 0 0 0 0 33.316349
4.6690001 -1.426 1.584 83 0 0 0 33.321297
4.6939998 -1.545 1.503 65 0 0 0 33.326244
6.3860002 -1.451 2.3789999 35 0 0 0 33.331188
4.6339998 -1.183 1.6440001 10 0 0 0 33.336136
4.6469998 -1.304 1.568 79 0 0 0 33.341084
4.6719999 -1.418 1.485 75 0 0 0 33.346031
6.5900002 -1.348 2.454 27 0 0 0 33.350979
6.3740001 -1.478 2.2550001 50 0 0 0 33.355923
4.651 -1.191 1.561 56 0 0 0 33.36087
4.665 -1.2970001 1.472 82 0 0 0 33.365822
6.559 -1.1950001 2.441 20 0 0 0 33.370766
6.704 -1.399 2.3659999 34 0 0 0 33.375713
4.9330001 -1.1440001 1.648 16 0 0 0 33.380661
4.6820002 -1.183 1.4680001 46 0 0 0 33.385609
6.5349998 -1.046 2.4319999 15 0 0 0 33.390553
7.0500002 -1.307 2.484 36 0 0 0 33.3955
6.7410002 -1.402 2.244 35 0 0 0 33.400448
5 -1.14 1.558 20 0 0 0 33.405396
6.4959998 -0.89600003 2.4189999 18 0 0 0 33.410343
7.244 -1.178 2.5480001 22 0 0 0 33.415287
7.1209998 -1.311 2.3629999 37 0 0 0 33.420235
5.4510002 -1.109 1.689 7 0 0 0 33.425182
6.4200001 -0.745 2.392 13 0 0 0 33.43013
7.1739998 -1.0039999 2.52 21 0 0 0 33.435078
7.5510001 -1.2130001 2.4979999 38 0 0 0 33.440025
7.2270002 -1.293 2.23 39 0 0 0 33.444973
6.4359999 -0.60799998 2.401 18 0 0 0 33.449917
7.1009998 -0.833 2.494 16 0 0 0 33.454865
7.96 -1.0930001 2.6270001 37 0 0 0 33.459812
7.6690001 -1.187 2.3559999 39 0 0 0 33.46476
6.4070001 -0.46700001 2.3940001 18 0 0 0 33.469707
7.0630002 -0.67000002 2.48 15 0 0 0 33.474651
8.0109997 -0.91299999 2.6400001 18 0 0 0 33.479599
8.1800003 -1.069 2.5039999 40 0 0 0 33.484547
6.3509998 -0.32600001 2.378 16 0 0 0 33.489494
7.0419998 -0.50999999 2.474 15 0 0 0 33.494438
7.9910002 -0.727 2.6300001 16 0 0 0 33.49939
8.7580004 -0.93400002 2.674 39 0 0 0 33.504337
6.2909999 -0.18799999 2.3610001 18 0 0 0 33.509281
7.0770001 -0.35600001 2.487 19 0 0 0 33.514229
7.9689999 -0.54000002 2.6210001 13 0 0 0 33.519176
9.2030001 -0.76300001 2.803 33 0 0 0 33.524124
6.2589998 -0.052000001 2.355 19 0 0 0 33.529072
7.0219998 -0.197 2.471 19 0 0 0 33.534016
7.9320002 -0.35600001 2.6070001 15 0 0 0 33.538963
9.276 -0.54900002 2.8199999 19 0 0 0 33.543911
6.2210002 0.079999998 2.348 19 0 0 0 33.548859
6.9660001 -0.041999999 2.4549999 21 0 0 0 33.553802
7.8930001 -0.17399999 2.595 16 0 0 0 33.55875
9.1820002 -0.32499999 2.789 16 0 0 0 33.563702
6.1459999 0.20999999 2.3269999 20 0 0 0 33.568649
6.9369998 0.112 2.451 20 0 0 0 33.573593
7.8390002 0.0060000001 2.579 17 0 0 0 33.578541
9.1420002 -0.107 2.7750001 16 0 0 0 33.583488
6.0939999 0.33899999 2.3169999 20 0 0 0 33.117294
6.823 0.26100001 2.4159999 13 0 0 0 33.122242
7.8140001 0.186 2.575 16 0 0 0 33.12719
9.0790005 0.107 2.756 14 0 0 0 33.132137
6.04 0.46599999 2.306 20 0 0 0 33.137085
6.8140001 0.412 2.4200001 19 0 0 0 33.142029
7.77 0.36199999 2.5639999 16 0 0 0 33.146976
9.0279999 0.322 2.743 13 0 0 0 33.151924
5.9840002 0.59100002 2.296 21 0 0 0 33.156872
6.7459998 0.55900002 2.404 19 0 0 0 33.161819
7.6919999 0.537 2.5450001 14 0 0 0 33.166763
8.9589996 0.53200001 2.7249999 12 0 0 0 33.171711
5.9359999 0.713 2.2880001 20 0 0 0 33.176659
6.684 0.704 2.391 20 0 0 0 33.181606
7.6370001 0.708 2.5339999 15 0 0 0 33.18655
8.8889999 0.741 2.71 14 0 0 0 33.191502
5.8590002 0.83099997 2.27 21 0 0 0 33.196449
6.6149998 0.84399998 2.3770001 18 0 0 0 33.201393
7.5890002 0.87900001 2.526 14 0 0 0 33.206341
8.8199997 0.94599998 2.6949999 14 0 0 0 33.211288
5.8060002 0.949 2.263 20 0 0 0 33.216236
6.5359998 0.98199999 2.3599999 22 0 0 0 33.221184
7.4819999 1.041 2.5 16 0 0 0 33.226128
8.717 1.1440001 2.671 14 0 0 0 33.231075
5.7319999 1.064 2.2479999 20 0 0 0 33.236023
6.4790001 1.12 2.352 23 0 0 0 33.240971
7.4120002 1.206 2.4879999 15 0 0 0 33.245914
8.618 1.339 2.651 13 0 0 0 33.250862
5.6669998 1.176 2.237 20 0 0 0 33.255814
6.3940001 1.251 2.3340001 21 0 0 0 33.260757
7.3010001 1.36 2.4630001 16 0 0 0 33.265705
8.4960003 1.529 2.6259999 15 0 0 0 33.270653
5.586 1.284 2.22 21 0 0 0 33.2756
6.3140001 1.382 2.3199999 19 0 0 0 33.280544
7.198 1.5140001 2.4419999 16 0 0 0 33.285492
8.3800001 1.716 2.6029999 14 0 0 0 33.29044
5.513 1.391 2.207 20 0 0 0 33.295387
6.23 1.5089999 2.3039999 20 0 0 0 33.300335
7.1040001 1.664 2.424 18 0 0 0 33.305279
8.2530003 1.896 2.5780001 15 0 0 0 33.310226
5.4260001 1.493 2.1889999 18 0 0 0 33.315174
6.158 1.637 2.2939999 22 0 0 0 33.320122
6.9949999 1.8099999 2.404 15 0 0 0 33.325069
8.1330004 2.072 2.556 15 0 0 0 33.330017
5.3429999 1.592 2.1719999 20 0 0 0 33.334965
6.0679998 1.757 2.277 20 0 0 0 33.339909
6.9439998 1.966 2.4030001 20 0 0 0 33.344856
7.9889998 2.2390001 2.5280001 16 0 0 0 33.349804
5.2729998 1.694 2.1619999 19 0 0 0 33.354752
5.9640002 1.87 2.256 20 0 0 0 33.359699
6.8099999 2.099 2.375 12 0 0 0 33.364643
7.8839998 2.4130001 2.513 12 0 0 0 33.369591
5.1810002 1.786 2.1429999 20 0 0 0 33.374538
5.8540001 1.98 2.234 19 0 0 0 33.379486
6.6919999 2.2320001 2.3529999 15 0 0 0 33.384434
7.7360001 2.572 2.487 15 0 0 0 33.389381
5.086 1.875 2.1229999 20 0 0 0 33.394329
5.7620001 2.092 2.2190001 19 0 0 0 33.399273
6.5469999 2.3529999 2.323 12 0 0 0 33.404221
7.612 2.734 2.4690001 11 0 0 0 33.409168
5.0009999 1.966 2.108 21 0 0 0 33.414116
5.6599998 2.197 2.2 21 0 0 0 33.419064
6.4829998 2.5 2.322 18 0 0 0 33.424007
7.3969998 2.859 2.4230001 14 0 0 0 33.428955
4.9219999 2.056 2.096 22 0 0 0 33.433903
5.553 2.299 2.1800001 21 0 0 0 33.43885
6.3249998 2.6059999 2.2880001 13 0 0 0 33.443794
7.25 3.003 2.3989999 14 0 0 0 33.448746
4.8579998 2.151 2.0899999 23 0 0 0 33.453693
5.4569998 2.402 2.1659999 20 0 0 0 33.458637
6.197 2.723 2.267 19 0 0 0 33.463585
7.0949998 3.138 2.3740001 15 0 0 0 33.468533
4.8049998 2.2509999 2.0910001 22 0 0 0 33.47348
5.3559999 2.5 2.1489999 21 0 0 0 33.478428
6.079 2.839 2.2490001 19 0 0 0 33.483372
6.9489999 3.2739999 2.3529999 13 0 0 0 33.488319
4.6700001 2.309 2.0550001 19 0 0 0 33.493267
5.2389998 2.589 2.128 19 0 0 0 33.498215
5.9460001 2.9449999 2.2260001 19 0 0 0 33.503159
6.7659998 3.3889999 2.3199999 14 0 0 0 33.508106
4.5739999 2.3840001 2.0369999 19 0 0 0 33.513058
5.04 2.6300001 2.072 63 0 0 0 33.518002
5.8010001 3.043 2.2 18 0 0 0 33.522949
6.5830002 3.4960001 2.2869999 14 0 0 0 33.527897
4.4840002 2.46 2.0220001 19 0 0 0 33.532845
5.0050001 2.7550001 2.0840001 21 0 0 0 33.537788
5.6620002 3.138 2.1760001 18 0 0 0 33.542736
6.4250002 3.6129999 2.2650001 14 0 0 0 33.547684
4.395 2.5339999 2.0079999 20 0 0 0 33.552631
4.8889999 2.8340001 2.0639999 20 0 0 0 33.557575
5.5170002 3.2260001 2.1500001 18 0 0 0 33.562523
6.2490001 3.7119999 2.2360001 14 0 0 0 33.567471
4.2950001 2.599 1.989 19 0 0 0 33.572418
4.7789998 2.9130001 2.046 19 0 0 0 33.57737
5.3720002 3.309 2.125 19 0 0 0 33.582314
6.0879998 3.816 2.2119999 12 0 0 0 33.587261
4.2020001 2.665 1.972 20 0 0 0 33.670132
4.6659999 2.9879999 2.027 20 0 0 0 33.675079
5.2329998 3.392 2.102 20 0 0 0 33.680027
5.8920002 3.892 2.1760001 16 0 0 0 33.684975
4.118 2.7360001 1.962 19 0 0 0 33.689919
4.5619998 3.0650001 2.0120001 19 0 0 0 33.694866
5.1020002 3.4760001 2.0829999 19 0 0 0 33.699818
5.7129998 3.9749999 2.148 13 0 0 0 33.704762
4.006 2.786 1.938 18 0 0 0 33.709709
4.4369998 3.1270001 1.989 18 0 0 0 33.714657
4.96 3.549 2.059 19 0 0 0 33.719604
5.5209999 4.04 2.1140001 13 0 0 0 33.724552
3.901 2.8380001 1.9170001 18 0 0 0 33.729496
4.3140001 3.1849999 1.966 19 0 0 0 33.734444
4.7969999 3.6029999 2.0280001 19 0 0 0 33.739391
5.348 4.1149998 2.0880001 15 0 0 0 33.744335
3.8150001 2.902 1.906 17 0 0 0 33.749283
4.197 3.2449999 1.947 18 0 0 0 33.75423
4.6599998 3.6700001 2.007 19 0 0 0 33.759178
5.2129998 4.2129998 2.0769999 17 0 0 0 33.76413
3.7179999 2.9560001 1.89 17 0 0 0 33.769073
4.0929999 3.312 1.934 18 0 0 0 33.774021
4.527 3.74 1.99 19 0 0 0 33.778969
5.0339999 4.2709999 2.049 17 0 0 0 33.783913
3.6270001 3.0109999 1.876 17 0 0 0 33.78886
3.98 3.3710001 1.9170001 19 0 0 0 33.793808
4.3730001 3.783 1.96 18 0 0 0 33.798756
4.8629999 4.3280001 2.023 15 0 0 0 33.803703
3.5309999 3.059 1.859 17 0 0 0 33.808647
3.8610001 3.418 1.896 18 0 0 0 33.813595
4.2350001 3.8369999 1.939 18 0 0 0 33.818542
4.6609998 4.3540001 1.985 17 0 0 0 33.823486
3.4319999 3.102 1.841 17 0 0 0 33.828438
3.734 3.4560001 1.872 18 0 0 0 33.833385
4.0910001 3.8840001 1.9170001 19 0 0 0 33.838333
4.4790001 4.3889999 1.955 21 0 0 0 33.843281
3.339 3.151 1.8279999 17 0 0 0 33.848225
3.612 3.494 1.85 18 0 0 0 33.853172
3.948 3.925 1.893 19 0 0 0 33.85812
4.3520002 4.473 1.949 23 0 0 0 33.863064
3.2390001 3.191 1.811 17 0 0 0 33.868011
3.4990001 3.5420001 1.834 18 0 0 0 33.872959
3.8099999 3.9690001 1.874 18 0 0 0 33.877907
4.1849999 4.5159998 1.927 11 0 0 0 33.882854
3.1359999 3.224 1.7920001 16 0 0 0 33.887798
3.388 3.585 1.818 18 0 0 0 33.89275
3.6589999 3.9909999 1.846 18 0 0 0 33.897697
4.0050001 4.5359998 1.898 19 0 0 0 33.902641
3.0350001 3.256 1.773 16 0 0 0 33.907589
3.2709999 3.619 1.799 17 0 0 0 33.912537
3.5179999 4.0190001 1.823 19 0 0 0 33.917484
3.799 4.5120001 1.852 22 0 0 0 33.922432
2.948 3.3 1.762 24 0 0 0 33.927376
3.1489999 3.641 1.775 17 0 0 0 33.932323
3.3859999 4.052 1.803 18 0 0 0 33.937271
3.6240001 4.5190001 1.822 20 0 0 0 33.942215
2.8559999 3.3380001 1.749 24 0 0 0 33.947163
3.0369999 3.6730001 1.758 16 0 0 0 33.95211
3.2539999 4.0799999 1.784 18 0 0 0 33.957062
3.457 4.5300002 1.796 19 0 0 0 33.962009
2.7620001 3.3699999 1.734 28 0 0 0 33.966953
2.9260001 3.7049999 1.742 16 0 0 0 33.971901
3.1210001 4.1040001 1.7640001 16 0 0 0 33.976849
3.3 4.5450001 1.774 19 0 0 0 33.981792
2.661 3.3929999 1.715 16 0 0 0 33.98674
2.813 3.7290001 1.724 16 0 0 0 33.991688
2.977 4.112 1.74 17 0 0 0 33.996635
3.1530001 4.5710001 1.758 20 0 0 0 34.001583
2.5639999 3.4189999 1.7 21 0 0 0 34.006527
2.707 3.7620001 1.712 24 0 0 0 34.011475
2.8410001 4.1199999 1.716 17 0 0 0 34.016422
2.9879999 4.5630002 1.7309999 17 0 0 0 34.021366
2.464 3.4349999 1.681 22 0 0 0 34.026318
2.5899999 3.773 1.691 15 0 0 0 34.031265
2.707 4.1279998 1.6950001 17 0 0 0 34.036213
2.8280001 4.5510001 1.7029999 18 0 0 0 34.041161
2.3710001 3.461 1.6670001 22 0 0 0 34.046104
2.4690001 3.773 1.666 15 0 0 0 34.051052
2.589 4.152 1.682 17 0 0 0 34.056
2.6800001 4.5510001 1.682 18 0 0 0 34.060944
2.28 3.4849999 1.653 23 0 0 0 34.065891
2.362 3.7909999 1.651 21 0 0 0 34.070839
2.461 4.1570001 1.663 16 0 0 0 34.075787
2.5339999 4.5489998 1.663 20 0 0 0 34.080734
2.187 3.5050001 1.6390001 30 0 0 0 34.085678
2.2539999 3.8039999 1.635 22 0 0 0 34.09063
2.326 4.1440001 1.637 16 0 0 0 34.095577
2.3959999 4.553 1.647 17 0 0 0 34.100521
2.0969999 3.5280001 1.627 32 0 0 0 34.105469
2.1470001 3.816 1.619 23 0 0 0 34.110416
2.204 4.1490002 1.62 16 0 0 0 34.115364
2.2390001 4.5139999 1.6160001 17 0 0 0 34.120312
2.0039999 3.5439999 1.613 26 0 0 0 34.125256
2.053 3.8510001 1.615 43 0 0 0 34.130203
2.079 4.145 1.602 16 0 0 0 34.135151
2.0940001 4.4920001 1.594 18 0 0 0 34.140095
1.909 3.5539999 1.597 27 0 0 0 33.894955
1.971 3.902 1.617 13 0 0 0 33.899902
1.9630001 4.151 1.5880001 22 0 0 0 33.904846
1.964 4.4879999 1.58 17 0 0 0 33.909798
1.818 3.5669999 1.584 29 0 0 0 33.914745
1.858 3.895 1.597 12 0 0 0 33.919689
1.836 4.125 1.563 21 0 0 0 33.924637
1.8279999 4.4619999 1.558 17 0 0 0 33.929585
1.733 3.5840001 1.573 29 0 0 0 33.934532
1.751 3.888 1.577 13 0 0 0 33.93948
1.72 4.1170001 1.546 21 0 0 0 33.944424
1.689 4.4200001 1.533 17 0 0 0 33.949371
1.641 3.592 1.558 30 0 0 0 33.954319
1.649 3.891 1.563 13 0 0 0 33.959263
1.604 4.1020002 1.528 22 0 0 0 33.964211
1.5599999 4.3959999 1.515 17 0 0 0 33.969158
1.556 3.6099999 1.55 29 0 0 0 33.97411
1.534 3.858 1.536 24 0 0 0 33.979057
1.4960001 4.1009998 1.516 22 0 0 0 33.984001
1.436 4.3740001 1.499 17 0 0 0 33.988949
1.46 3.599 1.529 28 0 0 0 33.993896
1.429 3.842 1.516 30 0 0 0 33.99884
1.381 4.0819998 1.499 25 0 0 0 34.003788
1.313 4.3530002 1.4859999 16 0 0 0 34.008736
1.369 3.602 1.517 28 0 0 0 34.013683
1.327 3.8329999 1.501 25 0 0 0 34.018631
1.27 4.0619998 1.483 20 0 0 0 34.023575
1.1900001 4.3109999 1.465 16 0 0 0 34.028522
1.28 3.5999999 1.501 28 0 0 0 34.03347
1.226 3.816 1.484 23 0 0 0 34.038418
1.161 4.0370002 1.465 22 0 0 0 34.043365
1.069 4.2719998 1.447 15 0 0 0 34.048313
1.191 3.5969999 1.487 30 0 0 0 34.053261
1.132 3.8110001 1.471 26 0 0 0 34.058208
1.057 4.0190001 1.451 24 0 0 0 34.063152
0.95499998 4.2350001 1.429 15 0 0 0 34.0681
1.105 3.5940001 1.473 32 0 0 0 34.073048
1.0369999 3.8 1.457 26 0 0 0 34.077991
0.95200002 3.993 1.4349999 25 0 0 0 34.082939
0.84500003 4.21 1.418 15 0 0 0 34.087887
1.023 3.602 1.465 33 0 0 0 34.092834
0.94099998 3.786 1.443 29 0 0 0 34.097782
0.85299999 3.9849999 1.426 23 0 0 0 34.10273
0.73500001 4.178 1.405 14 0 0 0 34.107677
0.93699998 3.5969999 1.452 32 0 0 0 34.112625
0.85000002 3.779 1.433 34 0 0 0 34.117569
0.75099999 3.9549999 1.411 20 0 0 0 34.122517
0.625 4.125 1.386 14 0 0 0 34.127464
0.852 3.5969999 1.443 30 0 0 0 34.132412
0.75599998 3.7590001 1.418 31 0 0 0 34.13736
0.648 3.9059999 1.39 23 0 0 0 34.142303
0.51899999 4.086 1.373 13 0 0 0 34.147251
0.764 3.5710001 1.423 28 0 0 0 34.152199
0.66500002 3.74 1.405 31 0 0 0 34.157143
0.55199999 3.8840001 1.3789999 24 0 0 0 34.16209
0.41600001 4.04 1.357 13 0 0 0 34.167042
0.68000001 3.5610001 1.411 30 0 0 0 34.171989
0.57599998 3.723 1.393 29 0 0 0 34.176937
0.458 3.8570001 1.367 23 0 0 0 34.181881
0.317 3.997 1.344 13 0 0 0 34.186829
0.59899998 3.55 1.398 29 0 0 0 34.191776
0.48899999 3.7 1.38 30 0 0 0 34.19672
0.36500001 3.822 1.353 21 0 0 0 34.201668
0.22 3.9679999 1.336 19 0 0 0 34.206615
0.51700002 3.5369999 1.386 29 0 0 0 34.211563
0.40099999 3.675 1.367 28 0 0 0 34.216511
0.27500001 3.8050001 1.346 24 0 0 0 34.221455
0.124 3.911 1.3200001 12 0 0 0 34.226402
0.43599999 3.5209999 1.374 29 0 0 0 34.231354
0.315 3.652 1.355 29 0 0 0 34.236298
0.184 3.757 1.329 24 0 0 0 34.241245
0.030999999 3.8599999 1.306 20 0 0 0 34.246193
0.35600001 3.5109999 1.364 31 0 0 0 34.251141
0.23 3.6199999 1.341 28 0 0 0 34.256088
0.094999999 3.7160001 1.316 24 0 0 0 34.261032
-0.059 3.8 1.29 20 0 0 0 34.26598
0.27700001 3.4979999 1.354 28 0 0 0 34.270927
0.146 3.592 1.329 27 0 0 0 34.275871
0.0099999998 3.6860001 1.306 26 0 0 0 34.280819
-0.148 3.763 1.283 21 0 0 0 34.285767
0.197 3.47 1.339 27 0 0 0 34.290714
0.064999998 3.5680001 1.319 27 0 0 0 34.295666
-0.074000001 3.6389999 1.2920001 27 0 0 0 34.30061
-0.234 3.7219999 1.275 23 0 0 0 34.305557
0.12 3.457 1.33 29 0 0 0 34.310505
-0.014 3.5380001 1.307 27 0 0 0 34.315449
-0.156 3.602 1.281 32 0 0 0 34.320396
-0.317 3.6719999 1.263 22 0 0 0 34.325344
0.044 3.437 1.319 28 0 0 0 34.330292
-0.093999997 3.4990001 1.293 26 0 0 0 34.335239
-0.237 3.569 1.273 34 0 0 0 34.340183
-0.398 3.6110001 1.25 22 0 0 0 34.345131
-0.030999999 3.4070001 1.3049999 28 0 0 0 34.350079
-0.17200001 3.4749999 1.285 26 0 0 0 34.355022
-0.31799999 3.5450001 1.2690001 46 0 0 0 34.35997
-0.47600001 3.549 1.2359999 28 0 0 0 34.364922
-0.107 3.3940001 1.298 29 0 0 0 34.850353
-0.248 3.4389999 1.273 27 0 0 0 34.855301
-0.39899999 3.5250001 1.266 45 0 0 0 34.860249
-0.55400002 3.5009999 1.228 47 0 0 0 34.865196
-0.183 3.3759999 1.291 28 0 0 0 34.870144
-0.32699999 3.428 1.271 47 0 0 0 34.875088
-0.47799999 3.494 1.261 21 0 0 0 34.880035
-0.63300002 3.4660001 1.225 64 0 0 0 34.884983
-0.257 3.359 1.284 27 0 0 0 34.889927
-0.40400001 3.415 1.27 26 0 0 0 34.894875
-0.55500001 3.4579999 1.255 23 0 0 0 34.899822
-0.71200001 3.434 1.223 28 0 0 0 34.904774
