# .PCD v0.7 - Point Cloud Data file format
VERSION 0.7
FIELDS x y z intensity normal_x normal_y normal_z curvature
SIZE 4 4 4 4 4 4 4 4
TYPE F F F F F F F F
COUNT 1 1 1 1 1 1 1 1
WIDTH 1118
HEIGHT 1
VIEWPOINT 0 0 0 1 0 0 0
POINTS 1118
DATA ascii
-0.81699997 0.81900001 1.303 65 0 0 0 70.641121
-0.89300001 0.88499999 1.313 30 0 0 0 70.65596
-0.93599999 0.921 1.2819999 54 0 0 0 70.670799
-1.008 0.98100001 1.281 41 0 0 0 70.685638
-0.84799999 0.74900001 1.28 56 0 0 0 70.700478
-0.92699999 0.80599999 1.283 71 0 0 0 70.715317
-1.01 0.86500001 1.295 32 0 0 0 70.730164
-1.057 0.89200002 1.252 68 0 0 0 70.74501
-0.88800001 0.69 1.277 54 0 0 0 70.75985
-0.96399999 0.73299998 1.266 55 0 0 0 70.774689
-1.0369999 0.77200001 1.255 61 0 0 0 70.789528
-1.105 0.80500001 1.23 54 0 0 0 70.768044
-0.92000002 0.62699997 1.2690001 61 0 0 0 70.782883
-1.006 0.66500002 1.262 55 0 0 0 70.797729
-1.0779999 0.69300002 1.2410001 53 0 0 0 70.812569
-1.1569999 0.72399998 1.222 47 0 0 0 70.827408
-0.94999999 0.56300002 1.2640001 53 0 0 0 70.842247
-1.036 0.59100002 1.249 57 0 0 0 70.857086
-1.1160001 0.61500001 1.2309999 44 0 0 0 70.871925
-1.199 0.63599998 1.21 41 0 0 0 70.886765
-0.97899997 0.50099999 1.262 60 0 0 0 70.901611
-1.066 0.51800001 1.2410001 54 0 0 0 70.916451
-1.151 0.53500003 1.224 49 0 0 0 70.931297
-1.24 0.54900002 1.205 39 0 0 0 70.946136
-1.006 0.43799999 1.263 54 0 0 0 70.960976
-1.089 0.44400001 1.232 53 0 0 0 70.975815
-1.181 0.45300001 1.2180001 46 0 0 0 70.990654
-1.279 0.461 1.204 43 0 0 0 71.005493
-1.023 0.37200001 1.256 59 0 0 0 71.020332
-1.117 0.37200001 1.235 52 0 0 0 71.035187
-1.209 0.37200001 1.217 44 0 0 0 71.050026
-1.295 0.36500001 1.189 44 0 0 0 71.064865
-1.0369999 0.30500001 1.249 55 0 0 0 71.079704
-1.13 0.296 1.225 56 0 0 0 71.094543
-1.226 0.287 1.21 46 0 0 0 71.109383
-1.319 0.273 1.188 48 0 0 0 71.124222
-1.054 0.23999999 1.25 56 0 0 0 71.139061
-1.1440001 0.221 1.223 59 0 0 0 71.153908
-1.239 0.20200001 1.207 52 0 0 0 71.168755
-1.3329999 0.17900001 1.1849999 58 0 0 0 71.183594
-1.058 0.17200001 1.2410001 59 0 0 0 71.198433
-1.155 0.146 1.222 61 0 0 0 71.213272
-1.251 0.118 1.2079999 56 0 0 0 71.228111
-1.339 0.085000001 1.182 54 0 0 0 71.864296
-1.066 0.106 1.24 61 0 0 0 71.879135
-1.1619999 0.07 1.223 64 0 0 0 71.893974
-1.255 0.033 1.207 59 0 0 0 71.908813
-1.341 -0.0089999996 1.183 57 0 0 0 71.92366
-1.0700001 0.039000001 1.239 60 0 0 0 71.938507
-1.164 -0.0049999999 1.223 63 0 0 0 71.953346
-1.251 -0.050999999 1.205 56 0 0 0 71.968185
-1.339 -0.103 1.186 60 0 0 0 71.983025
-1.0700001 -0.027000001 1.237 61 0 0 0 71.997864
-1.161 -0.081 1.222 62 0 0 0 72.012703
-1.248 -0.13600001 1.209 56 0 0 0 72.02755
-1.3279999 -0.19599999 1.188 61 0 0 0 72.042389
-1.0700001 -0.093999997 1.24 64 0 0 0 72.057236
-1.153 -0.15700001 1.223 65 0 0 0 72.072075
-1.235 -0.22 1.21 58 0 0 0 72.086914
-1.306 -0.287 1.187 58 0 0 0 72.101753
-1.062 -0.161 1.237 64 0 0 0 72.116592
-1.143 -0.23199999 1.225 70 0 0 0 72.131432
-1.217 -0.303 1.211 58 0 0 0 72.146271
-1.283 -0.377 1.1900001 54 0 0 0 72.161118
-1.054 -0.228 1.239 62 0 0 0 72.175957
-1.125 -0.30599999 1.224 68 0 0 0 72.190804
-1.192 -0.384 1.212 60 0 0 0 72.205643
-1.253 -0.465 1.194 59 0 0 0 72.220482
-1.046 -0.29699999 1.245 57 0 0 0 72.235321
-1.1059999 -0.38 1.228 62 0 0 0 72.25016
-1.164 -0.463 1.215 55 0 0 0 72.265007
-1.216 -0.55000001 1.199 56 0 0 0 72.279846
-1.028 -0.36399999 1.245 62 0 0 0 72.294685
-1.086 -0.454 1.2359999 63 0 0 0 72.309525
-1.135 -0.542 1.224 58 0 0 0 72.324371
-1.178 -0.634 1.2079999 55 0 0 0 72.236816
-1.01 -0.43099999 1.248 56 0 0 0 72.251656
-1.0549999 -0.52399999 1.2359999 62 0 0 0 72.266495
-1.097 -0.61699998 1.227 58 0 0 0 72.281334
-1.136 -0.71600002 1.219 54 0 0 0 72.296173
-0.98900002 -0.49900001 1.253 56 0 0 0 72.311028
-1.025 -0.59600002 1.243 64 0 0 0 72.325867
-1.057 -0.69199997 1.235 57 0 0 0 72.340706
-1.085 -0.792 1.227 61 0 0 0 72.355545
-0.96100003 -0.565 1.255 53 0 0 0 72.370384
-0.99000001 -0.66500002 1.249 56 0 0 0 72.385223
-1.013 -0.764 1.244 58 0 0 0 72.400063
-1.03 -0.86500001 1.237 56 0 0 0 72.414902
-0.93599999 -0.63499999 1.266 57 0 0 0 72.429741
-0.95200002 -0.73500001 1.2589999 57 0 0 0 72.444595
-0.96499997 -0.83399999 1.2539999 60 0 0 0 72.459435
-0.97000003 -0.93400002 1.247 57 0 0 0 72.474274
-0.90100002 -0.69999999 1.27 54 0 0 0 72.489113
-0.91000003 -0.80199999 1.2690001 57 0 0 0 72.503952
-0.912 -0.89999998 1.2640001 57 0 0 0 72.518791
-0.90499997 -0.99800003 1.258 62 0 0 0 72.53363
-0.86400002 -0.76599997 1.276 51 0 0 0 72.548477
-0.86299998 -0.86699998 1.278 55 0 0 0 72.563316
-0.85399997 -0.96200001 1.274 54 0 0 0 72.578163
-0.83899999 -1.0599999 1.272 56 0 0 0 72.593002
-0.82099998 -0.82999998 1.2819999 49 0 0 0 72.607841
-0.80800003 -0.926 1.2819999 57 0 0 0 72.622681
-0.79299998 -1.023 1.286 51 0 0 0 72.63752
-0.76800001 -1.1160001 1.286 47 0 0 0 72.652359
-0.77700001 -0.89499998 1.293 52 0 0 0 72.667198
-0.75 -0.98299998 1.289 52 0 0 0 72.682045
-0.72600001 -1.076 1.294 50 0 0 0 72.696892
-0.69199997 -1.165 1.296 48 0 0 0 72.23999
-0.72299999 -0.95300001 1.295 51 0 0 0 72.254829
-0.69199997 -1.0420001 1.301 55 0 0 0 72.269676
-0.65600002 -1.125 1.304 47 0 0 0 72.284523
-0.61400002 -1.209 1.309 55 0 0 0 72.299362
-0.667 -1.012 1.302 51 0 0 0 72.314201
-0.62900001 -1.096 1.312 53 0 0 0 72.329041
-0.58399999 -1.171 1.3150001 49 0 0 0 72.34388
-0.53399998 -1.247 1.322 49 0 0 0 72.358719
-0.60799998 -1.0700001 1.311 49 0 0 0 72.373558
-0.56 -1.145 1.321 47 0 0 0 72.388397
-0.50999999 -1.216 1.329 44 0 0 0 72.403252
-0.45199999 -1.283 1.3380001 61 0 0 0 72.418091
-0.54400003 -1.127 1.323 47 0 0 0 72.43293
-0.49000001 -1.193 1.335 44 0 0 0 72.447769
-0.43399999 -1.2589999 1.347 55 0 0 0 72.462608
-0.37 -1.3150001 1.3559999 49 0 0 0 72.477448
-0.47600001 -1.182 1.336 46 0 0 0 72.492287
-0.41600001 -1.2410001 1.351 44 0 0 0 72.507133
-0.352 -1.29 1.358 53 0 0 0 72.521973
-0.285 -1.341 1.373 52 0 0 0 72.536819
-0.403 -1.234 1.349 42 0 0 0 72.551659
-0.338 -1.281 1.365 48 0 0 0 72.566498
-0.27000001 -1.322 1.375 50 0 0 0 72.581337
-0.198 -1.358 1.388 48 0 0 0 72.596176
-0.32499999 -1.28 1.3609999 44 0 0 0 72.611015
-0.257 -1.323 1.385 44 0 0 0 72.625854
-0.186 -1.351 1.395 48 0 0 0 72.640701
-0.111 -1.3710001 1.405 52 0 0 0 72.65554
-0.244 -1.332 1.3839999 50 0 0 0 72.670387
-0.171 -1.355 1.399 46 0 0 0 72.685226
-0.098999999 -1.365 1.405 48 0 0 0 72.700066
-0.024 -1.374 1.416 49 0 0 0 72.787399
-0.156 -1.3710001 1.398 49 0 0 0 72.802238
-0.082000002 -1.3789999 1.4119999 45 0 0 0 72.817078
-0.0099999998 -1.376 1.416 47 0 0 0 72.831917
0.061999999 -1.373 1.4299999 46 0 0 0 72.846764
-0.063000001 -1.398 1.405 46 0 0 0 72.861603
0.0080000004 -1.395 1.4220001 45 0 0 0 72.87645
0.078000002 -1.387 1.4349999 44 0 0 0 72.891289
0.148 -1.37 1.447 49 0 0 0 72.906128
0.033 -1.4299999 1.424 45 0 0 0 72.920967
0.102 -1.41 1.436 46 0 0 0 72.935806
0.169 -1.392 1.452 44 0 0 0 72.950645
0.234 -1.358 1.46 46 0 0 0 72.965485
0.133 -1.4529999 1.439 53 0 0 0 72.980331
0.198 -1.423 1.456 50 0 0 0 72.995171
0.25999999 -1.39 1.4680001 46 0 0 0 73.010017
0.31900001 -1.345 1.477 46 0 0 0 73.024857
0.23800001 -1.474 1.46 44 0 0 0 73.039696
0.29800001 -1.434 1.48 51 0 0 0 73.054535
0.35100001 -1.377 1.479 51 0 0 0 73.069374
0.403 -1.329 1.497 47 0 0 0 73.084213
0.34799999 -1.488 1.482 46 0 0 0 73.099052
0.39899999 -1.436 1.501 49 0 0 0 73.113907
0.44400001 -1.368 1.5 46 0 0 0 73.128746
0.484 -1.3 1.507 53 0 0 0 73.143585
0.45899999 -1.492 1.502 47 0 0 0 73.158424
0.5 -1.424 1.515 47 0 0 0 73.173264
0.53600001 -1.351 1.5190001 41 0 0 0 73.188103
0.56099999 -1.265 1.5140001 51 0 0 0 73.202942
0.57200003 -1.483 1.516 44 0 0 0 73.217781
0.602 -1.405 1.528 46 0 0 0 73.23262
0.625 -1.321 1.529 43 0 0 0 73.247475
0.64099997 -1.234 1.5319999 46 0 0 0 73.025696
0.68699998 -1.47 1.536 47 0 0 0 73.040535
0.70300001 -1.38 1.543 47 0 0 0 73.055374
0.713 -1.2869999 1.5420001 46 0 0 0 73.070213
0.71600002 -1.196 1.5470001 46 0 0 0 73.085052
0.80400002 -1.447 1.554 49 0 0 0 73.099907
0.80699998 -1.352 1.564 48 0 0 0 73.114746
0.801 -1.25 1.557 46 0 0 0 73.129585
0.78899997 -1.152 1.558 45 0 0 0 73.144424
0.92900002 -1.426 1.586 43 0 0 0 73.159264
0.91100001 -1.317 1.585 44 0 0 0 73.174103
0.88999999 -1.211 1.577 45 0 0 0 73.188942
0.861 -1.1059999 1.573 44 0 0 0 73.203789
1.0470001 -1.387 1.607 45 0 0 0 73.218636
1.013 -1.273 1.603 55 0 0 0 73.233475
0.97600001 -1.164 1.595 51 0 0 0 73.248314
0.93099999 -1.057 1.587 49 0 0 0 73.263153
1.158 -1.3279999 1.618 41 0 0 0 73.277992
1.108 -1.215 1.614 49 0 0 0 73.292831
1.057 -1.108 1.608 42 0 0 0 73.307671
0.99299997 -0.99900001 1.594 49 0 0 0 73.32251
1.278 -1.274 1.646 48 0 0 0 73.337357
1.206 -1.156 1.6339999 44 0 0 0 73.352203
1.136 -1.048 1.622 49 0 0 0 73.367043
1.059 -0.94400001 1.61 50 0 0 0 73.381882
1.39 -1.204 1.666 46 0 0 0 73.396721
1.2970001 -1.086 1.649 46 0 0 0 73.41156
1.209 -0.97899997 1.631 48 0 0 0 73.426399
1.117 -0.88 1.618 47 0 0 0 73.441246
1.502 -1.127 1.691 46 0 0 0 73.456085
1.392 -1.015 1.673 45 0 0 0 73.470924
1.281 -0.90799999 1.6440001 55 0 0 0 73.485771
1.175 -0.81599998 1.631 46 0 0 0 74.005722
1.602 -1.034 1.707 50 0 0 0 74.020561
1.47 -0.926 1.6799999 41 0 0 0 74.0354
1.349 -0.83099997 1.656 49 0 0 0 74.05024
1.229 -0.74699998 1.642 50 0 0 0 74.065086
1.696 -0.93300003 1.723 42 0 0 0 74.079926
1.562 -0.84299999 1.71 52 0 0 0 74.094765
1.411 -0.74900001 1.6670001 47 0 0 0 74.109612
1.278 -0.67500001 1.65 50 0 0 0 74.124451
1.778 -0.82099998 1.734 47 0 0 0 74.13929
1.633 -0.74400002 1.722 52 0 0 0 74.154129
1.474 -0.66399997 1.683 44 0 0 0 74.168976
1.322 -0.59799999 1.654 47 0 0 0 74.183815
1.855 -0.704 1.748 45 0 0 0 74.198654
1.691 -0.63599998 1.727 54 0 0 0 74.213493
1.528 -0.57300001 1.6950001 49 0 0 0 74.228333
1.3660001 -0.51999998 1.665 46 0 0 0 74.243179
1.924 -0.579 1.762 45 0 0 0 74.258018
1.7410001 -0.52399999 1.7309999 49 0 0 0 74.272858
1.574 -0.477 1.702 45 0 0 0 74.287697
1.4069999 -0.43900001 1.674 47 0 0 0 74.302544
1.979 -0.447 1.773 49 0 0 0 74.317383
1.79 -0.40900001 1.742 51 0 0 0 74.332222
1.609 -0.375 1.705 43 0 0 0 74.347061
1.4450001 -0.35499999 1.6849999 50 0 0 0 74.3619
2.0179999 -0.30899999 1.778 49 0 0 0 74.376747
1.826 -0.289 1.747 50 0 0 0 74.391586
1.652 -0.27399999 1.72 57 0 0 0 74.406433
1.476 -0.26699999 1.692 54 0 0 0 74.421272
2.0510001 -0.168 1.785 52 0 0 0 74.436111
1.853 -0.16599999 1.752 50 0 0 0 74.450951
1.676 -0.167 1.723 61 0 0 0 74.46579
1.5 -0.176 1.6950001 53 0 0 0 74.331024
2.0650001 -0.024 1.7869999 55 0 0 0 74.345871
1.8710001 -0.039999999 1.756 47 0 0 0 74.36071
1.6900001 -0.057 1.723 59 0 0 0 74.375549
1.517 -0.082000002 1.696 53 0 0 0 74.390388
2.0680001 0.119 1.788 51 0 0 0 74.405235
1.882 0.086000003 1.76 47 0 0 0 74.420074
1.705 0.052999999 1.729 54 0 0 0 74.434914
1.5319999 0.013 1.699 52 0 0 0 74.44976
2.056 0.26300001 1.786 53 0 0 0 74.4646
1.87 0.213 1.752 48 0 0 0 74.479439
1.7029999 0.16599999 1.726 51 0 0 0 74.494278
1.539 0.111 1.699 50 0 0 0 74.509117
2.0320001 0.40599999 1.7819999 49 0 0 0 74.523956
1.863 0.34200001 1.758 44 0 0 0 74.538803
1.704 0.28 1.732 53 0 0 0 74.553642
1.541 0.20999999 1.699 47 0 0 0 74.568481
1.997 0.546 1.779 47 0 0 0 74.583328
1.84 0.46799999 1.756 42 0 0 0 74.598167
1.686 0.39300001 1.727 49 0 0 0 74.613007
1.5369999 0.31099999 1.699 45 0 0 0 74.627846
1.951 0.68199998 1.774 51 0 0 0 74.642685
1.802 0.59100002 1.748 39 0 0 0 74.657532
1.665 0.50599998 1.725 46 0 0 0 74.672371
1.525 0.41299999 1.696 44 0 0 0 74.687218
1.887 0.81 1.762 43 0 0 0 74.702057
1.757 0.71100003 1.7410001 40 0 0 0 74.716896
1.633 0.61699998 1.719 46 0 0 0 74.731735
1.512 0.51700002 1.699 44 0 0 0 74.746574
1.8150001 0.93199998 1.751 40 0 0 0 74.761414
1.698 0.82499999 1.728 40 0 0 0 74.776253
1.589 0.72500002 1.709 46 0 0 0 74.7911
1.485 0.61900002 1.693 39 0 0 0 74.837502
1.73 1.046 1.735 36 0 0 0 74.852341
1.6339999 0.93599999 1.7180001 42 0 0 0 74.867188
1.546 0.83399999 1.7079999 46 0 0 0 74.882027
1.451 0.72100002 1.686 38 0 0 0 74.896866
1.642 1.154 1.724 43 0 0 0 74.911713
1.558 1.039 1.7029999 38 0 0 0 74.926552
1.4859999 0.935 1.6950001 46 0 0 0 74.941391
1.4119999 0.82300001 1.682 38 0 0 0 74.95623
1.5700001 1.272 1.738 21 0 0 0 74.971069
1.4859999 1.1440001 1.701 52 0 0 0 74.985909
1.421 1.034 1.6849999 47 0 0 0 75.000755
1.3609999 0.921 1.6720001 39 0 0 0 75.015602
1.465 1.363 1.723 17 0 0 0 75.030441
1.418 1.253 1.711 22 0 0 0 75.04528
1.354 1.132 1.6799999 50 0 0 0 75.06012
1.306 1.017 1.664 40 0 0 0 75.074959
1.324 1.4119999 1.67 54 0 0 0 75.089798
1.299 1.3150001 1.6670001 83 0 0 0 75.104637
1.275 1.221 1.668 65 0 0 0 75.119476
1.238 1.107 1.649 37 0 0 0 75.134323
1.2 1.467 1.638 42 0 0 0 75.14917
1.1849999 1.374 1.632 38 0 0 0 75.164009
1.171 1.284 1.63 33 0 0 0 75.178848
1.1670001 1.196 1.637 35 0 0 0 75.193687
1.0829999 1.525 1.6210001 45 0 0 0 75.208527
1.079 1.437 1.612 43 0 0 0 75.223366
1.079 1.358 1.615 37 0 0 0 75.238205
1.085 1.276 1.62 34 0 0 0 75.253059
0.96200001 1.568 1.597 49 0 0 0 75.267899
0.97100002 1.494 1.595 40 0 0 0 75.282738
0.98100001 1.423 1.598 37 0 0 0 75.297577
0.99699998 1.352 1.604 38 0 0 0 75.050766
0.83600003 1.595 1.568 41 0 0 0 75.065613
0.85799998 1.538 1.573 43 0 0 0 75.08046
0.87800002 1.4809999 1.579 38 0 0 0 75.095299
0.903 1.42 1.586 37 0 0 0 75.110138
0.71700001 1.623 1.55 41 0 0 0 75.124977
0.745 1.5779999 1.5549999 46 0 0 0 75.139816
0.77399999 1.535 1.5650001 41 0 0 0 75.154655
0.80500001 1.485 1.571 41 0 0 0 75.169495
0.59899998 1.646 1.535 49 0 0 0 75.184334
0.63099998 1.6109999 1.538 45 0 0 0 75.199181
0.66299999 1.575 1.544 42 0 0 0 75.214027
0.70099998 1.541 1.554 42 0 0 0 75.228867
0.479 1.651 1.512 43 0 0 0 75.243706
0.51499999 1.63 1.516 39 0 0 0 75.258545
0.55199999 1.6109999 1.528 41 0 0 0 75.273384
0.59100002 1.587 1.534 43 0 0 0 75.288223
0.36199999 1.646 1.487 41 0 0 0 75.30307
0.39899999 1.638 1.493 42 0 0 0 75.317909
0.43599999 1.6289999 1.501 43 0 0 0 75.332748
0.47799999 1.622 1.512 45 0 0 0 75.347595
0.248 1.636 1.465 44 0 0 0 75.362434
0.285 1.6440001 1.474 46 0 0 0 75.377274
0.31999999 1.641 1.478 43 0 0 0 75.392113
0.361 1.646 1.488 40 0 0 0 75.406952
0.13699999 1.622 1.447 37 0 0 0 75.421791
0.171 1.637 1.452 42 0 0 0 75.436638
0.205 1.646 1.456 41 0 0 0 75.451477
0.243 1.665 1.467 44 0 0 0 75.466316
0.030999999 1.602 1.429 40 0 0 0 75.481163
0.059999999 1.636 1.442 41 0 0 0 75.496002
0.090000004 1.652 1.442 39 0 0 0 75.510841
0.124 1.678 1.448 43 0 0 0 75.919769
-0.071999997 1.579 1.416 40 0 0 0 75.934608
-0.048 1.6109999 1.4170001 43 0 0 0 75.949448
-0.023 1.646 1.425 42 0 0 0 75.964287
0.0040000002 1.682 1.4299999 44 0 0 0 75.979126
-0.171 1.544 1.396 43 0 0 0 75.993965
-0.154 1.5880001 1.401 46 0 0 0 76.00882
-0.13500001 1.625 1.402 41 0 0 0 76.023659
-0.115 1.67 1.406 42 0 0 0 76.038498
-0.266 1.5 1.375 53 0 0 0 76.053337
-0.25600001 1.551 1.3789999 47 0 0 0 76.068176
-0.245 1.597 1.381 41 0 0 0 76.083015
-0.233 1.65 1.3839999 42 0 0 0 76.097855
-0.35699999 1.46 1.362 46 0 0 0 76.112694
-0.35299999 1.505 1.354 48 0 0 0 76.127533
-0.35299999 1.568 1.364 40 0 0 0 76.142387
-0.34900001 1.62 1.3609999 45 0 0 0 76.157227
-0.44400001 1.415 1.348 48 0 0 0 76.172066
-0.45199999 1.473 1.348 47 0 0 0 76.186905
-0.45699999 1.527 1.345 39 0 0 0 76.201744
-0.463 1.587 1.342 43 0 0 0 76.216583
-0.528 1.368 1.3380001 53 0 0 0 76.231422
-0.54400003 1.427 1.334 45 0 0 0 76.246269
-0.55800003 1.4809999 1.3279999 49 0 0 0 76.261108
-0.57499999 1.545 1.325 44 0 0 0 76.275955
-0.60299999 1.307 1.318 51 0 0 0 76.290794
-0.63099998 1.373 1.318 47 0 0 0 76.305634
-0.653 1.426 1.309 49 0 0 0 76.320473
-0.68000001 1.489 1.303 47 0 0 0 76.335312
-0.67799997 1.253 1.309 55 0 0 0 76.350151
-0.71200001 1.3099999 1.3 45 0 0 0 76.36499
-0.74299997 1.364 1.289 43 0 0 0 76.379837
-0.78100002 1.428 1.283 51 0 0 0 76.304108
-0.74400002 1.187 1.291 51 0 0 0 76.318947
-0.79000002 1.248 1.286 50 0 0 0 76.333786
-0.82999998 1.3 1.275 49 0 0 0 76.348625
-0.875 1.358 1.263 54 0 0 0 76.363472
-0.80800003 1.124 1.279 56 0 0 0 76.378311
-0.861 1.1799999 1.271 52 0 0 0 76.39315
-0.912 1.232 1.26 47 0 0 0 76.40799
-0.97000003 1.291 1.252 48 0 0 0 76.422829
-0.88 1.074 1.2869999 73 0 0 0 76.437675
-0.93099999 1.1109999 1.2589999 48 0 0 0 76.452515
-0.99000001 1.16 1.249 48 0 0 0 76.467361
-1.056 1.212 1.237 51 0 0 0 76.482201
-0.94999999 1.021 1.296 26 0 0 0 76.49704
-1.006 1.051 1.263 59 0 0 0 76.511879
-1.061 1.081 1.2359999 56 0 0 0 76.526718
-1.1339999 1.126 1.221 55 0 0 0 76.541557
-0.98900002 0.93599999 1.267 68 0 0 0 76.556396
-1.058 0.96700001 1.243 71 0 0 0 76.571243
-1.1289999 1.001 1.226 61 0 0 0 76.586082
-1.209 1.038 1.209 52 0 0 0 76.600929
-1.025 0.85500002 1.245 52 0 0 0 76.615768
-1.11 0.88800001 1.232 47 0 0 0 76.630608
-1.189 0.91600001 1.215 48 0 0 0 76.645447
-1.273 0.94300002 1.1950001 46 0 0 0 76.660286
-1.075 0.78799999 1.244 49 0 0 0 76.675125
-1.156 0.80500001 1.22 46 0 0 0 76.689964
-1.2410001 0.82599998 1.204 40 0 0 0 76.704819
-1.331 0.84500003 1.183 37 0 0 0 76.719658
-1.105 0.708 1.226 50 0 0 0 76.734497
-1.199 0.722 1.21 38 0 0 0 76.749336
-1.2869999 0.73400003 1.193 32 0 0 0 76.764175
-1.385 0.745 1.175 35 0 0 0 76.787758
-1.14 0.63300002 1.219 45 0 0 0 76.802605
-1.2359999 0.63700002 1.202 39 0 0 0 76.817451
-1.33 0.64099997 1.1849999 33 0 0 0 76.832291
-1.433 0.64300001 1.17 29 0 0 0 76.84713
-1.173 0.55800003 1.215 42 0 0 0 76.861969
-1.273 0.55299997 1.198 36 0 0 0 76.876808
-1.368 0.546 1.181 32 0 0 0 76.891647
-1.475 0.53899997 1.166 38 0 0 0 76.906487
-1.2029999 0.48199999 1.212 42 0 0 0 76.921326
-1.3049999 0.46700001 1.196 38 0 0 0 76.936172
-1.404 0.45199999 1.1799999 38 0 0 0 76.951019
-1.502 0.43000001 1.1569999 37 0 0 0 76.965858
-1.229 0.405 1.21 42 0 0 0 76.980698
-1.33 0.37900001 1.192 41 0 0 0 76.995537
-1.423 0.352 1.171 39 0 0 0 77.010376
-1.52 0.31999999 1.149 48 0 0 0 77.025215
-1.245 0.32499999 1.202 44 0 0 0 77.040062
-1.346 0.28999999 1.1849999 47 0 0 0 77.054901
-1.437 0.252 1.164 39 0 0 0 77.06974
-1.262 0.24600001 1.199 48 0 0 0 77.099426
-1.3559999 0.199 1.179 54 0 0 0 77.114265
-1.447 0.153 1.16 30 0 0 0 77.129105
-1.53 0.1 1.131 2 0 0 0 77.143944
-1.278 0.16599999 1.199 50 0 0 0 77.158783
-1.365 0.11 1.176 50 0 0 0 77.17363
-1.45 0.052999999 1.156 33 0 0 0 77.188469
-1.53 -0.0070000002 1.1289999 2 0 0 0 77.203316
-1.2819999 0.083999999 1.194 52 0 0 0 77.218155
-1.375 0.018999999 1.179 57 0 0 0 77.232994
-1.457 -0.045000002 1.161 33 0 0 0 77.247833
-1.538 -0.116 1.14 51 0 0 0 77.194954
-1.29 0.003 1.1950001 54 0 0 0 77.209793
-1.3710001 -0.07 1.177 53 0 0 0 77.224632
-1.456 -0.145 1.165 55 0 0 0 77.239471
-1.54 -0.226 1.152 68 0 0 0 77.254318
-1.291 -0.078000002 1.1950001 54 0 0 0 77.269157
-1.3710001 -0.161 1.182 55 0 0 0 77.283997
-1.446 -0.244 1.168 55 0 0 0 77.298843
-1.5190001 -0.333 1.153 68 0 0 0 77.313683
-1.288 -0.161 1.1950001 54 0 0 0 77.328522
-1.36 -0.25099999 1.182 53 0 0 0 77.343361
-1.425 -0.34099999 1.168 53 0 0 0 77.358208
-1.493 -0.43799999 1.156 67 0 0 0 77.373047
-1.28 -0.244 1.1950001 55 0 0 0 77.387886
-1.3430001 -0.34099999 1.182 52 0 0 0 77.402725
-1.401 -0.43700001 1.171 58 0 0 0 77.417564
-1.46 -0.54100001 1.161 57 0 0 0 77.432411
-1.27 -0.32800001 1.197 53 0 0 0 77.44725
-1.322 -0.43099999 1.1849999 48 0 0 0 77.46209
-1.373 -0.53299999 1.176 54 0 0 0 77.476929
-1.419 -0.64099997 1.166 59 0 0 0 77.491776
-1.25 -0.41 1.1950001 52 0 0 0 77.506615
-1.296 -0.51800001 1.187 51 0 0 0 77.521454
-1.337 -0.62599999 1.1799999 57 0 0 0 77.536293
-1.373 -0.73799998 1.1720001 54 0 0 0 77.551132
-1.23 -0.49399999 1.198 52 0 0 0 77.565979
-1.266 -0.60699999 1.192 54 0 0 0 77.580818
-1.296 -0.71600002 1.1849999 57 0 0 0 77.595665
-1.325 -0.833 1.182 61 0 0 0 77.610504
-1.206 -0.57800001 1.202 50 0 0 0 77.625343
-1.234 -0.69400001 1.2 52 0 0 0 77.640182
-1.253 -0.80699998 1.1950001 63 0 0 0 77.655022
-1.266 -0.92299998 1.189 58 0 0 0 77.885536
-1.1799999 -0.66399997 1.209 52 0 0 0 77.900375
-1.196 -0.78100002 1.2079999 61 0 0 0 77.915215
-1.202 -0.89300001 1.202 59 0 0 0 77.930054
-1.205 -1.01 1.199 60 0 0 0 77.944893
-1.151 -0.75099999 1.22 53 0 0 0 77.95974
-1.151 -0.866 1.216 53 0 0 0 77.974579
-1.15 -0.97899997 1.215 61 0 0 0 77.989418
-1.1390001 -1.094 1.212 56 0 0 0 78.004257
-1.109 -0.83200002 1.222 49 0 0 0 78.019104
-1.102 -0.949 1.225 51 0 0 0 78.033943
-1.085 -1.057 1.22 62 0 0 0 78.048782
-1.066 -1.171 1.223 54 0 0 0 78.063622
-1.064 -0.91500002 1.229 50 0 0 0 78.078461
-1.044 -1.027 1.2309999 55 0 0 0 78.093307
-1.023 -1.138 1.2359999 54 0 0 0 78.108147
-0.991 -1.247 1.238 60 0 0 0 78.122993
-1.015 -0.99699998 1.237 54 0 0 0 78.137833
-0.98799998 -1.11 1.2460001 56 0 0 0 78.152672
-0.954 -1.214 1.249 50 0 0 0 78.167511
-0.91500002 -1.323 1.258 58 0 0 0 78.18235
-0.95899999 -1.077 1.245 54 0 0 0 78.197189
-0.92400002 -1.187 1.258 54 0 0 0 78.212029
-0.88 -1.288 1.265 51 0 0 0 78.226875
-0.82700002 -1.3839999 1.2690001 55 0 0 0 78.241714
-0.90200001 -1.1619999 1.26 57 0 0 0 78.256561
-0.85399997 -1.262 1.271 50 0 0 0 78.2714
-0.801 -1.355 1.279 52 0 0 0 78.28624
-0.74000001 -1.446 1.288 52 0 0 0 78.301079
-0.83700001 -1.243 1.273 52 0 0 0 78.315918
-0.78200001 -1.339 1.29 59 0 0 0 78.330757
-0.71600002 -1.4170001 1.2920001 53 0 0 0 78.345596
-0.64600003 -1.497 1.301 50 0 0 0 78.255379
-0.76300001 -1.316 1.2819999 57 0 0 0 78.270218
-0.699 -1.404 1.3 47 0 0 0 78.285057
-0.62800002 -1.478 1.309 47 0 0 0 78.299896
-0.55199999 -1.5470001 1.3200001 46 0 0 0 78.314735
-0.68599999 -1.395 1.299 51 0 0 0 78.329575
-0.61000001 -1.462 1.3099999 50 0 0 0 78.344414
-0.53500003 -1.53 1.324 42 0 0 0 78.359253
-0.456 -1.6 1.346 59 0 0 0 78.3741
-0.59799999 -1.46 1.308 52 0 0 0 78.388947
-0.52100003 -1.529 1.331 47 0 0 0 78.403786
-0.442 -1.591 1.352 55 0 0 0 78.418625
-0.361 -1.666 1.3890001 34 0 0 0 78.433464
-0.50800002 -1.5319999 1.327 44 0 0 0 78.448303
-0.42699999 -1.5930001 1.355 57 0 0 0 78.463142
-0.347 -1.663 1.393 29 0 0 0 78.477982
-0.25299999 -1.679 1.393 29 0 0 0 78.492828
-0.41499999 -1.6160001 1.36 43 0 0 0 78.507675
-0.331 -1.674 1.397 29 0 0 0 78.522514
-0.237 -1.681 1.3940001 48 0 0 0 78.537354
-0.145 -1.6950001 1.405 57 0 0 0 78.552193
-0.31200001 -1.689 1.388 24 0 0 0 78.567032
-0.219 -1.696 1.3940001 60 0 0 0 78.581871
-0.12899999 -1.705 1.406 42 0 0 0 78.59671
-0.037999999 -1.692 1.4069999 50 0 0 0 78.611549
-0.199 -1.743 1.406 49 0 0 0 78.626404
-0.106 -1.72 1.401 49 0 0 0 78.641243
-0.017000001 -1.716 1.413 50 0 0 0 78.656082
0.068999998 -1.705 1.428 53 0 0 0 78.670921
-0.077 -1.761 1.399 44 0 0 0 78.68576
0.0089999996 -1.755 1.421 50 0 0 0 78.7006
0.093999997 -1.738 1.4349999 45 0 0 0 78.715439
0.177 -1.707 1.4450001 47 0 0 0 78.258728
0.046 -1.807 1.423 62 0 0 0 78.273567
0.12899999 -1.781 1.441 69 0 0 0 78.288406
0.20900001 -1.749 1.4529999 45 0 0 0 78.303246
0.285 -1.704 1.4630001 51 0 0 0 78.318092
0.176 -1.844 1.4450001 45 0 0 0 78.332939
0.25400001 -1.8099999 1.4680001 46 0 0 0 78.347778
0.32699999 -1.7589999 1.477 57 0 0 0 78.362617
0.39500001 -1.7 1.4859999 45 0 0 0 78.377457
0.31099999 -1.8660001 1.464 40 0 0 0 78.392296
0.382 -1.8200001 1.489 41 0 0 0 78.407135
0.44600001 -1.756 1.497 49 0 0 0 78.421982
0.50400001 -1.689 1.5089999 50 0 0 0 78.436821
0.458 -1.91 1.507 46 0 0 0 78.451668
0.514 -1.8279999 1.5140001 43 0 0 0 78.466507
0.57099998 -1.762 1.531 51 0 0 0 78.481346
0.61199999 -1.666 1.527 44 0 0 0 78.496185
0.60600001 -1.921 1.533 43 0 0 0 78.511024
0.65200001 -1.834 1.546 45 0 0 0 78.525864
0.69099998 -1.7410001 1.548 51 0 0 0 78.540703
0.72000003 -1.64 1.5470001 42 0 0 0 78.55555
0.75800002 -1.9170001 1.557 42 0 0 0 78.570389
0.78799999 -1.8150001 1.564 50 0 0 0 78.585236
0.81300002 -1.716 1.569 48 0 0 0 78.600075
0.82599998 -1.605 1.5650001 42 0 0 0 78.614914
0.91100001 -1.9 1.5779999 40 0 0 0 78.629753
0.93000001 -1.8 1.596 44 0 0 0 78.644592
0.93800002 -1.687 1.594 54 0 0 0 78.659439
0.93699998 -1.574 1.594 55 0 0 0 78.674278
1.072 -1.883 1.6109999 34 0 0 0 78.689117
1.071 -1.768 1.62 48 0 0 0 78.703957
1.061 -1.647 1.617 59 0 0 0 78.718803
1.043 -1.5319999 1.6160001 57 0 0 0 78.962708
1.234 -1.848 1.6390001 42 0 0 0 78.977547
1.207 -1.717 1.638 42 0 0 0 78.992386
1.179 -1.594 1.6339999 49 0 0 0 79.007233
1.142 -1.473 1.63 49 0 0 0 79.022072
1.395 -1.799 1.6670001 34 0 0 0 79.036911
1.348 -1.665 1.665 40 0 0 0 79.05175
1.296 -1.534 1.653 43 0 0 0 79.066589
1.238 -1.41 1.642 51 0 0 0 79.081429
1.5549999 -1.735 1.694 33 0 0 0 79.096275
1.4859999 -1.6 1.6900001 45 0 0 0 79.111115
1.411 -1.466 1.6720001 45 0 0 0 79.125954
1.3329999 -1.3430001 1.659 47 0 0 0 79.1408
1.719 -1.664 1.728 34 0 0 0 79.15564
1.6289999 -1.531 1.722 55 0 0 0 79.170479
1.527 -1.393 1.6950001 42 0 0 0 79.185318
1.431 -1.275 1.6799999 51 0 0 0 79.200157
1.872 -1.569 1.752 33 0 0 0 79.214996
1.781 -1.459 1.765 21 0 0 0 79.229843
1.648 -1.318 1.726 77 0 0 0 79.24469
1.521 -1.196 1.696 43 0 0 0 79.259529
2.0450001 -1.482 1.801 32 0 0 0 79.274368
1.913 -1.3609999 1.793 29 0 0 0 79.289207
1.753 -1.225 1.745 50 0 0 0 79.304047
1.614 -1.1160001 1.7180001 48 0 0 0 79.318886
2.1830001 -1.355 1.821 47 0 0 0 79.333725
2.0090001 -1.232 1.791 39 0 0 0 79.348572
1.841 -1.115 1.75 48 0 0 0 79.363411
1.692 -1.022 1.729 45 0 0 0 79.378258
2.2939999 -1.209 1.829 34 0 0 0 79.393097
2.115 -1.105 1.8049999 40 0 0 0 79.407936
1.941 -1.0089999 1.773 44 0 0 0 79.422775
1.772 -0.926 1.744 45 0 0 0 80.168213
2.4170001 -1.0599999 1.851 36 0 0 0 80.18306
2.2130001 -0.97000003 1.819 40 0 0 0 80.197899
2.0250001 -0.889 1.785 48 0 0 0 80.212738
1.8430001 -0.82200003 1.755 45 0 0 0 80.227577
2.5239999 -0.89999998 1.8710001 36 0 0 0 80.242416
2.2980001 -0.82599998 1.831 40 0 0 0 80.257263
2.1029999 -0.764 1.799 47 0 0 0 80.272102
1.909 -0.713 1.766 42 0 0 0 80.286942
2.6199999 -0.72899997 1.8890001 36 0 0 0 80.301781
2.3840001 -0.67699999 1.849 34 0 0 0 80.316628
2.1730001 -0.63099998 1.811 46 0 0 0 80.331467
1.974 -0.59899998 1.78 45 0 0 0 80.346306
2.694 -0.54699999 1.902 38 0 0 0 80.361145
2.4419999 -0.51599997 1.854 36 0 0 0 80.375984
2.223 -0.49000001 1.814 43 0 0 0 80.390831
2.0350001 -0.48100001 1.796 47 0 0 0 80.40567
2.7509999 -0.359 1.9119999 38 0 0 0 80.420509
2.5 -0.35100001 1.867 35 0 0 0 80.435349
2.2750001 -0.34599999 1.825 44 0 0 0 80.450195
2.0739999 -0.354 1.7970001 50 0 0 0 80.465034
2.7909999 -0.16500001 1.92 37 0 0 0 80.479874
2.539 -0.18099999 1.874 35 0 0 0 80.49472
2.316 -0.197 1.8329999 41 0 0 0 80.50956
2.1059999 -0.223 1.798 52 0 0 0 80.524399
2.8139999 0.032000002 1.927 38 0 0 0 80.539238
2.562 -0.0070000002 1.8789999 35 0 0 0 80.554077
2.339 -0.044 1.835 38 0 0 0 80.568916
2.1500001 -0.090000004 1.814 41 0 0 0 80.583763
2.806 0.23 1.923 37 0 0 0 80.598602
2.5769999 0.17 1.885 35 0 0 0 80.613441
2.3510001 0.111 1.836 37 0 0 0 80.628288
2.1670001 0.046999998 1.814 39 0 0 0 80.466377
2.7869999 0.42699999 1.921 35 0 0 0 80.481216
2.5639999 0.34599999 1.881 35 0 0 0 80.496056
2.3570001 0.27000001 1.839 36 0 0 0 80.510895
2.1800001 0.189 1.816 43 0 0 0 80.525734
2.74 0.62 1.91 38 0 0 0 80.540573
2.5420001 0.523 1.878 35 0 0 0 80.555428
2.3529999 0.43000001 1.8430001 33 0 0 0 80.570267
2.1860001 0.33399999 1.819 38 0 0 0 80.585106
2.6860001 0.80900002 1.904 38 0 0 0 80.599945
2.5050001 0.69700003 1.874 35 0 0 0 80.614784
2.3329999 0.58999997 1.842 33 0 0 0 80.629623
2.174 0.479 1.8150001 38 0 0 0 80.644463
2.6099999 0.99000001 1.892 35 0 0 0 80.659309
2.45 0.866 1.8660001 34 0 0 0 80.674149
2.2920001 0.74699998 1.8329999 31 0 0 0 80.688995
2.1559999 0.62699997 1.813 36 0 0 0 80.703835
2.527 1.166 1.885 36 0 0 0 80.718674
2.3729999 1.027 1.849 34 0 0 0 80.733513
2.244 0.90200001 1.826 31 0 0 0 80.748352
2.125 0.77399999 1.808 30 0 0 0 80.763191
2.4130001 1.324 1.863 36 0 0 0 80.77803
2.2880001 1.183 1.834 33 0 0 0 80.792877
2.174 1.05 1.8099999 29 0 0 0 80.807716
2.086 0.921 1.804 29 0 0 0 80.822563
2.279 1.464 1.8329999 34 0 0 0 80.837402
2.1819999 1.324 1.811 32 0 0 0 80.852242
2.095 1.193 1.795 30 0 0 0 80.867081
2.027 1.063 1.791 30 0 0 0 80.88192
2.145 1.599 1.8099999 34 0 0 0 80.896767
2.0769999 1.464 1.796 32 0 0 0 80.911606
2.0079999 1.331 1.78 31 0 0 0 80.926445
1.9630001 1.205 1.7819999 31 0 0 0 80.73587
1.998 1.716 1.7819999 33 0 0 0 80.75071
1.954 1.5880001 1.774 32 0 0 0 80.765549
1.914 1.466 1.768 28 0 0 0 80.780396
1.8839999 1.341 1.7690001 31 0 0 0 80.795235
1.854 1.827 1.763 33 0 0 0 80.810074
1.83 1.7079999 1.757 31 0 0 0 80.824913
1.8049999 1.589 1.75 28 0 0 0 80.83976
1.7970001 1.474 1.757 44 0 0 0 80.854599
1.692 1.913 1.7309999 31 0 0 0 80.869438
1.684 1.802 1.724 30 0 0 0 80.884277
1.679 1.6950001 1.723 27 0 0 0 80.899117
1.688 1.591 1.732 28 0 0 0 80.913963
1.52 1.975 1.691 30 0 0 0 80.928802
1.531 1.88 1.689 30 0 0 0 80.943642
1.544 1.79 1.694 28 0 0 0 80.958481
1.5700001 1.7 1.707 28 0 0 0 80.973328
1.362 2.0439999 1.668 39 0 0 0 80.988167
1.382 1.957 1.664 29 0 0 0 81.003006
1.41 1.881 1.6720001 30 0 0 0 81.017845
1.446 1.801 1.682 29 0 0 0 81.032684
1.1950001 2.0869999 1.635 31 0 0 0 81.047531
1.237 2.0339999 1.648 36 0 0 0 81.06237
1.27 1.9630001 1.65 31 0 0 0 81.077217
1.3150001 1.895 1.659 31 0 0 0 81.092056
1.034 2.128 1.6109999 31 0 0 0 81.106895
1.0779999 2.0780001 1.615 32 0 0 0 81.121735
1.125 2.0339999 1.627 37 0 0 0 81.136574
1.179 1.985 1.6390001 36 0 0 0 81.151413
0.87 2.1470001 1.58 35 0 0 0 81.16626
0.91799998 2.112 1.584 33 0 0 0 81.181099
0.96899998 2.079 1.594 31 0 0 0 81.195938
1.0319999 2.0550001 1.613 31 0 0 0 80.921295
0.70999998 2.1570001 1.552 40 0 0 0 80.936134
0.76200002 2.141 1.558 36 0 0 0 80.950974
0.81400001 2.1210001 1.566 38 0 0 0 80.965813
0.88 2.1129999 1.584 33 0 0 0 80.980659
0.55599999 2.1659999 1.5319999 37 0 0 0 80.995499
0.60699999 2.161 1.535 34 0 0 0 81.010338
0.66100001 2.1589999 1.545 37 0 0 0 81.025177
0.72299999 2.158 1.556 37 0 0 0 81.040016
0.40200001 2.1500001 1.501 36 0 0 0 81.054863
0.45300001 2.1670001 1.5089999 34 0 0 0 81.069702
0.505 2.1789999 1.5190001 40 0 0 0 81.084541
0.565 2.197 1.531 34 0 0 0 81.09938
0.252 2.1210001 1.469 39 0 0 0 81.114227
0.29899999 2.154 1.479 37 0 0 0 81.129066
0.34799999 2.1830001 1.49 31 0 0 0 81.143906
0.40400001 2.2190001 1.5039999 37 0 0 0 81.158752
0.109 2.0940001 1.4450001 39 0 0 0 81.173592
0.15000001 2.131 1.449 37 0 0 0 81.188431
0.192 2.1700001 1.4579999 37 0 0 0 81.20327
0.241 2.2149999 1.4680001 31 0 0 0 81.218109
-0.027000001 2.066 1.427 40 0 0 0 81.232948
0.0049999999 2.112 1.429 40 0 0 0 81.247795
0.039999999 2.1559999 1.433 33 0 0 0 81.262634
0.079999998 2.217 1.444 37 0 0 0 81.277473
-0.16 2.0220001 1.404 37 0 0 0 81.29232
-0.13500001 2.0780001 1.405 41 0 0 0 81.307159
-0.109 2.138 1.4119999 44 0 0 0 81.321999
-0.079000004 2.2030001 1.4170001 38 0 0 0 81.336838
-0.28400001 1.952 1.368 34 0 0 0 81.351677
-0.27200001 2.0339999 1.381 42 0 0 0 81.366524
-0.25400001 2.096 1.383 37 0 0 0 81.381363
-0.236 2.1730001 1.39 37 0 0 0 81.841049
-0.405 1.902 1.351 39 0 0 0 81.855888
-0.40000001 1.969 1.35 37 0 0 0 81.870728
-0.39500001 2.046 1.3559999 40 0 0 0 81.885567
-0.38800001 2.1199999 1.355 35 0 0 0 81.900414
-0.51999998 1.845 1.335 42 0 0 0 81.915253
-0.52600002 1.9170001 1.332 38 0 0 0 81.930099
-0.53299999 1.998 1.337 39 0 0 0 81.944939
-0.537 2.0739999 1.3329999 40 0 0 0 81.959778
-0.62800002 1.776 1.314 45 0 0 0 81.974617
-0.64499998 1.851 1.311 43 0 0 0 81.989456
-0.66299999 1.9299999 1.312 45 0 0 0 82.004303
-0.68099999 2.0139999 1.309 43 0 0 0 82.019142
-0.72899997 1.7029999 1.294 53 0 0 0 82.033981
-0.755 1.772 1.285 45 0 0 0 82.04882
-0.78200001 1.846 1.281 37 0 0 0 82.063667
-0.81599998 1.9349999 1.28 42 0 0 0 82.078506
-0.82200003 1.624 1.273 43 0 0 0 82.093346
-0.86199999 1.696 1.267 56 0 0 0 82.108185
-0.898 1.7640001 1.258 44 0 0 0 82.123024
-0.94599998 1.852 1.256 50 0 0 0 82.137871
-0.91100001 1.544 1.256 48 0 0 0 82.15271
-0.95999998 1.6109999 1.247 46 0 0 0 82.167549
-1.011 1.682 1.24 50 0 0 0 82.182388
-1.063 1.753 1.227 41 0 0 0 82.197235
-0.99599999 1.465 1.243 47 0 0 0 82.212074
-1.056 1.527 1.232 48 0 0 0 82.226913
-1.114 1.589 1.22 45 0 0 0 82.24176
-1.179 1.658 1.2079999 49 0 0 0 82.256599
-1.077 1.383 1.23 49 0 0 0 82.271439
-1.145 1.4400001 1.2180001 42 0 0 0 82.286278
-1.212 1.495 1.204 45 0 0 0 82.301117
-1.2869999 1.556 1.189 47 0 0 0 82.19072
-1.15 1.2970001 1.2180001 48 0 0 0 82.205559
-1.226 1.345 1.202 50 0 0 0 82.220398
-1.299 1.39 1.1849999 45 0 0 0 82.235245
-1.381 1.441 1.1670001 46 0 0 0 82.250092
-1.215 1.205 1.202 44 0 0 0 82.264931
-1.299 1.2460001 1.187 52 0 0 0 82.27977
-1.3789999 1.284 1.169 44 0 0 0 82.294609
-1.469 1.324 1.149 54 0 0 0 82.309448
-1.278 1.1160001 1.192 47 0 0 0 82.324287
-1.364 1.1440001 1.171 52 0 0 0 82.339134
-1.457 1.177 1.1569999 46 0 0 0 82.353973
-1.553 1.2079999 1.136 49 0 0 0 82.368813
-1.334 1.022 1.1799999 60 0 0 0 82.383659
-1.432 1.045 1.164 43 0 0 0 82.398499
-1.527 1.066 1.147 38 0 0 0 82.413338
-1.633 1.089 1.127 39 0 0 0 82.428177
-1.386 0.92799997 1.171 38 0 0 0 82.443016
-1.49 0.94199997 1.156 30 0 0 0 82.457855
-1.591 0.95300001 1.138 25 0 0 0 82.472702
-1.696 0.96100003 1.115 31 0 0 0 82.487541
-1.433 0.833 1.1619999 29 0 0 0 82.50238
-1.54 0.83499998 1.147 21 0 0 0 82.517227
-1.646 0.83600003 1.1289999 25 0 0 0 82.532066
-1.7589999 0.83399999 1.109 29 0 0 0 82.546906
-1.4809999 0.73900002 1.159 28 0 0 0 82.561745
-1.586 0.72799999 1.1390001 26 0 0 0 82.576591
-1.692 0.71600002 1.1210001 26 0 0 0 82.591431
-1.8049999 0.70099998 1.1 34 0 0 0 82.60627
-1.523 0.64200002 1.156 30 0 0 0 82.621109
-1.631 0.62 1.137 28 0 0 0 82.635956
-1.728 0.59399998 1.112 17 0 0 0 82.650795
-1.55 0.54000002 1.146 26 0 0 0 82.209366
-1.642 0.50199997 1.117 1 0 0 0 82.224205
-1.582 0.44 1.1440001 29 0 0 0 82.268738
-1.589 0.33399999 1.128 19 0 0 0 82.328094
-1.8609999 -0.37900001 1.074 12 0 0 0 82.610077
-1.64 -0.18700001 1.124 16 0 0 0 82.624924
-1.707 -0.292 1.109 50 0 0 0 82.639763
-1.772 -0.398 1.095 47 0 0 0 82.654602
-1.839 -0.51200002 1.082 52 0 0 0 82.864197
-1.635 -0.294 1.126 58 0 0 0 82.879044
-1.689 -0.40700001 1.11 59 0 0 0 82.893883
-1.753 -0.52200001 1.102 52 0 0 0 82.908722
-1.8049999 -0.64099997 1.0880001 53 0 0 0 82.923561
-1.626 -0.403 1.1289999 54 0 0 0 82.9384
-1.677 -0.52399999 1.12 55 0 0 0 82.953239
-1.719 -0.64200002 1.107 54 0 0 0 82.968079
-1.7640001 -0.76899999 1.097 56 0 0 0 82.982925
-1.608 -0.51200002 1.132 55 0 0 0 82.997765
-1.649 -0.639 1.125 57 0 0 0 83.012611
-1.676 -0.75999999 1.11 57 0 0 0 83.027451
-1.714 -0.89399999 1.1059999 59 0 0 0 83.04229
-1.586 -0.62199998 1.135 56 0 0 0 83.057129
-1.614 -0.75300002 1.1289999 55 0 0 0 83.071968
-1.6390001 -0.88099998 1.123 59 0 0 0 83.086815
-1.656 -1.016 1.115 60 0 0 0 83.101654
-1.55 -0.72899997 1.135 64 0 0 0 83.116493
-1.575 -0.86699998 1.137 53 0 0 0 83.131332
-1.5829999 -0.99599999 1.1289999 57 0 0 0 83.146179
-1.5930001 -1.135 1.127 59 0 0 0 83.161018
-1.518 -0.83999997 1.142 56 0 0 0 83.175858
-1.526 -0.97799999 1.143 55 0 0 0 83.190697
-1.53 -1.113 1.1440001 50 0 0 0 83.205536
-1.52 -1.248 1.1390001 58 0 0 0 83.220383
-1.4809999 -0.95300001 1.151 51 0 0 0 83.235222
-1.473 -1.089 1.152 54 0 0 0 83.250061
-1.464 -1.225 1.154 51 0 0 0 83.2649
-1.443 -1.3609999 1.154 54 0 0 0 83.279747
-1.432 -1.062 1.1569999 54 0 0 0 83.294586
-1.416 -1.201 1.163 53 0 0 0 83.309425
-1.391 -1.3329999 1.166 53 0 0 0 83.324272
-1.359 -1.467 1.17 68 0 0 0 83.18824
-1.381 -1.175 1.168 52 0 0 0 83.203079
-1.35 -1.3099999 1.175 51 0 0 0 83.217918
-1.309 -1.4349999 1.177 54 0 0 0 83.232758
-1.268 -1.5700001 1.187 49 0 0 0 83.247597
-1.3200001 -1.285 1.177 46 0 0 0 83.262444
-1.276 -1.416 1.187 53 0 0 0 83.277283
-1.228 -1.543 1.196 49 0 0 0 83.29213
-1.166 -1.66 1.2 51 0 0 0 83.306969
-1.253 -1.396 1.1900001 47 0 0 0 83.321808
-1.194 -1.518 1.198 53 0 0 0 83.336647
-1.135 -1.6390001 1.21 45 0 0 0 83.351486
-1.064 -1.7539999 1.219 45 0 0 0 83.366325
-1.178 -1.506 1.202 49 0 0 0 83.381165
-1.11 -1.625 1.216 46 0 0 0 83.396011
-1.035 -1.7309999 1.225 43 0 0 0 83.410851
-0.95899999 -1.848 1.245 60 0 0 0 83.425697
-1.094 -1.614 1.216 49 0 0 0 83.440536
-1.017 -1.727 1.235 49 0 0 0 83.455376
-0.93599999 -1.8329999 1.252 52 0 0 0 83.470215
-0.84299999 -1.927 1.2640001 52 0 0 0 83.485054
-1.001 -1.717 1.23 46 0 0 0 83.499893
-0.91500002 -1.823 1.252 44 0 0 0 83.514732
-0.82599998 -1.923 1.274 58 0 0 0 83.529587
-0.72299999 -2.0020001 1.2869999 50 0 0 0 83.544426
-0.903 -1.825 1.249 41 0 0 0 83.559265
-0.80900002 -1.924 1.276 61 0 0 0 83.574104
-0.70599997 -2.0009999 1.2920001 48 0 0 0 83.588943
-0.597 -2.0680001 1.309 45 0 0 0 83.603783
-0.80000001 -1.941 1.277 57 0 0 0 83.618622
-0.69199997 -2.017 1.299 51 0 0 0 83.633461
-0.58200002 -2.0769999 1.314 44 0 0 0 83.648308
-0.46700001 -2.128 1.332 44 0 0 0 83.992073
-0.67900002 -2.0380001 1.295 48 0 0 0 84.006912
-0.565 -2.099 1.318 43 0 0 0 84.021759
-0.44800001 -2.1340001 1.33 42 0 0 0 84.036598
-0.33199999 -2.1800001 1.355 47 0 0 0 84.051437
-0.551 -2.1329999 1.316 43 0 0 0 84.066277
-0.43099999 -2.175 1.339 47 0 0 0 84.081123
-0.31299999 -2.2049999 1.359 45 0 0 0 84.095963
-0.193 -2.2249999 1.3789999 44 0 0 0 84.110802
-0.41100001 -2.2179999 1.336 41 0 0 0 84.125648
-0.28999999 -2.2479999 1.364 43 0 0 0 84.140488
-0.17 -2.2650001 1.386 45 0 0 0 84.155327
-0.050000001 -2.2679999 1.4069999 39 0 0 0 84.170166
-0.26300001 -2.3069999 1.363 41 0 0 0 84.185005
-0.141 -2.322 1.393 41 0 0 0 84.199844
-0.021 -2.3169999 1.414 40 0 0 0 84.214691
0.094999999 -2.29 1.429 40 0 0 0 84.22953
-0.104 -2.3900001 1.392 46 0 0 0 84.24437
0.015 -2.3770001 1.418 37 0 0 0 84.259216
0.132 -2.352 1.437 39 0 0 0 84.274055
0.245 -2.316 1.4579999 37 0 0 0 84.288895
0.064000003 -2.4679999 1.424 39 0 0 0 84.303734
0.182 -2.4389999 1.452 38 0 0 0 84.318573
0.29300001 -2.392 1.47 46 0 0 0 84.33342
0.398 -2.3310001 1.4859999 42 0 0 0 84.348259
0.245 -2.5350001 1.457 31 0 0 0 84.363106
0.35600001 -2.4860001 1.485 36 0 0 0 84.377945
0.45899999 -2.4189999 1.502 37 0 0 0 84.392784
0.55400002 -2.3440001 1.5190001 48 0 0 0 84.407623
0.43900001 -2.605 1.497 51 0 0 0 84.422462
0.54000002 -2.5309999 1.522 65 0 0 0 84.437302
0.63099998 -2.441 1.536 34 0 0 0 84.452141
0.71200001 -2.3369999 1.545 39 0 0 0 84.230911
0.616 -2.5450001 1.471 108 0 0 0 84.24575
0.72100002 -2.5250001 1.538 120 0 0 0 84.26059
0.80599999 -2.4449999 1.567 38 0 0 0 84.275429
0.87199998 -2.329 1.5779999 42 0 0 0 84.290276
0.80000001 -2.5109999 1.4680001 113 0 0 0 84.305122
0.903 -2.5020001 1.55 117 0 0 0 84.319962
0.98400003 -2.4360001 1.597 39 0 0 0 84.334801
1.0319999 -2.303 1.604 38 0 0 0 84.34964
0.995 -2.4949999 1.484 126 0 0 0 84.364479
1.133 -2.5780001 1.633 37 0 0 0 84.379318
1.171 -2.427 1.636 35 0 0 0 84.394157
1.198 -2.28 1.64 34 0 0 0 84.409004
1.2640001 -2.615 1.592 108 0 0 0 84.423851
1.342 -2.5599999 1.668 39 0 0 0 84.43869
1.354 -2.392 1.665 36 0 0 0 84.453529
1.358 -2.2320001 1.666 40 0 0 0 84.468369
1.483 -2.579 1.617 99 0 0 0 84.483208
1.5549999 -2.5309999 1.706 41 0 0 0 84.498047
1.539 -2.348 1.698 33 0 0 0 84.512886
1.517 -2.1760001 1.693 42 0 0 0 84.527725
1.717 -2.549 1.658 108 0 0 0 84.54258
1.774 -2.4879999 1.7460001 43 0 0 0 84.557419
1.73 -2.2939999 1.733 35 0 0 0 84.572258
1.6799999 -2.115 1.724 36 0 0 0 84.587097
1.96 -2.503 1.702 104 0 0 0 84.601936
1.992 -2.424 1.784 43 0 0 0 84.616776
1.91 -2.214 1.7589999 34 0 0 0 84.631615
1.839 -2.0409999 1.753 35 0 0 0 84.646461
2.2309999 -2.464 1.768 114 0 0 0 84.661301
2.204 -2.336 1.817 40 0 0 0 84.676147
2.096 -2.132 1.793 38 0 0 0 84.690987
1.994 -1.9529999 1.779 35 0 0 0 84.845215
2.536 -2.4260001 1.852 100 0 0 0 84.860054
2.4260001 -2.2409999 1.859 41 0 0 0 84.874893
2.28 -2.033 1.826 41 0 0 0 84.889732
2.151 -1.859 1.8099999 36 0 0 0 84.904579
2.8510001 -2.362 1.942 57 0 0 0 84.919418
2.628 -2.1140001 1.8890001 38 0 0 0 84.934258
2.467 -1.925 1.865 37 0 0 0 84.949104
2.3099999 -1.756 1.8430001 38 0 0 0 84.963943
3.0910001 -2.207 1.979 35 0 0 0 84.978783
2.8559999 -1.99 1.939 43 0 0 0 84.993622
2.6470001 -1.798 1.898 39 0 0 0 85.008461
2.45 -1.632 1.865 39 0 0 0 85.023308
3.335 -2.0380001 2.0239999 33 0 0 0 85.038147
3.049 -1.827 1.97 37 0 0 0 85.052994
2.8199999 -1.656 1.932 41 0 0 0 85.067833
2.586 -1.498 1.887 40 0 0 0 85.082672
3.5610001 -1.839 2.063 33 0 0 0 85.097511
3.247 -1.653 2.0079999 33 0 0 0 85.11235
2.964 -1.4859999 1.95 37 0 0 0 85.12719
2.7190001 -1.354 1.91 39 0 0 0 85.142029
3.7720001 -1.617 2.1010001 29 0 0 0 85.156876
3.4289999 -1.459 2.0439999 39 0 0 0 85.171715
3.1240001 -1.317 1.984 37 0 0 0 85.186562
2.8429999 -1.201 1.932 41 0 0 0 85.201401
3.9779999 -1.378 2.1440001 29 0 0 0 85.21624
3.592 -1.242 2.073 31 0 0 0 85.231079
3.266 -1.1289999 2.0120001 34 0 0 0 85.245918
2.9579999 -1.034 1.951 39 0 0 0 85.260757
4.204 -1.127 2.2060001 12 0 0 0 85.275597
3.723 -1.008 2.0929999 30 0 0 0 85.290451
3.3829999 -0.92400002 2.0309999 40 0 0 0 85.30529
3.0699999 -0.86000001 1.973 34 0 0 0 85.174225
4.2779999 -0.82599998 2.1989999 18 0 0 0 85.189064
3.849 -0.75999999 2.118 28 0 0 0 85.203903
3.4879999 -0.708 2.049 34 0 0 0 85.21875
3.161 -0.67199999 1.987 34 0 0 0 85.233589
4.3670001 -0.523 2.21 18 0 0 0 85.248428
3.9389999 -0.49900001 2.132 33 0 0 0 85.263275
3.5699999 -0.47999999 2.062 33 0 0 0 85.278114
3.2509999 -0.47799999 2.007 36 0 0 0 85.292953
4.4310002 -0.213 2.2219999 18 0 0 0 85.307793
4.007 -0.23 2.145 26 0 0 0 85.322632
3.6500001 -0.245 2.0799999 28 0 0 0 85.337471
3.3340001 -0.273 2.027 35 0 0 0 85.352318
4.4619999 0.104 2.227 17 0 0 0 85.367157
4.0489998 0.048 2.152 25 0 0 0 85.382004
3.697 -0.001 2.089 31 0 0 0 85.396843
3.3829999 -0.059 2.0339999 32 0 0 0 85.411682
4.4559999 0.421 2.227 18 0 0 0 85.426521
4.0549998 0.32800001 2.152 23 0 0 0 85.44136
3.7379999 0.249 2.1029999 32 0 0 0 85.456207
3.428 0.162 2.0450001 33 0 0 0 85.471046
4.4180002 0.73699999 2.2219999 18 0 0 0 85.485886
4.0510001 0.61199999 2.1559999 23 0 0 0 85.500725
3.733 0.50199997 2.099 35 0 0 0 85.515572
3.4449999 0.38800001 2.0469999 33 0 0 0 85.530411
4.3400002 1.043 2.2090001 18 0 0 0 85.54525
4 0.889 2.1470001 25 0 0 0 85.560089
3.717 0.75700003 2.099 32 0 0 0 85.574928
3.451 0.61900002 2.05 34 0 0 0 85.589775
4.2340002 1.341 2.194 25 0 0 0 85.604614
3.9260001 1.163 2.1340001 23 0 0 0 85.619453
3.6719999 1.01 2.0910001 34 0 0 0 85.634293
3.4349999 0.85299999 2.0480001 33 0 0 0 85.972504
4.1300001 1.635 2.191 34 0 0 0 85.987343
3.8280001 1.427 2.1199999 26 0 0 0 86.002182
3.6029999 1.258 2.0799999 32 0 0 0 86.017021
3.4059999 1.0880001 2.0480001 30 0 0 0 86.03186
3.9070001 1.876 2.1340001 17 0 0 0 86.046707
3.75 1.702 2.1259999 9 0 0 0 86.061554
3.5139999 1.502 2.066 28 0 0 0 86.076393
3.3429999 1.319 2.0350001 33 0 0 0 86.091232
3.7079999 2.1129999 2.0999999 17 0 0 0 86.106071
3.539 1.911 2.0669999 28 0 0 0 86.120911
3.3940001 1.7309999 2.043 28 0 0 0 86.13575
3.26 1.545 2.0190001 31 0 0 0 86.150589
3.494 2.3280001 2.0639999 28 0 0 0 86.165443
3.368 2.132 2.039 20 0 0 0 86.180283
3.253 1.95 2.0179999 26 0 0 0 86.195122
3.1619999 1.768 2.0039999 29 0 0 0 86.209961
3.2509999 2.5109999 2.0190001 20 0 0 0 86.2248
3.1600001 2.3199999 1.9960001 27 0 0 0 86.239639
3.095 2.154 1.989 26 0 0 0 86.254478
3.0480001 1.9859999 1.988 30 0 0 0 86.269318
3.003 2.6730001 1.975 20 0 0 0 86.284157
2.9590001 2.5050001 1.965 25 0 0 0 86.299011
2.9200001 2.345 1.959 26 0 0 0 86.31385
2.8970001 2.1819999 1.957 34 0 0 0 86.32869
2.7390001 2.8010001 1.925 26 0 0 0 86.343529
2.7309999 2.6559999 1.923 21 0 0 0 86.358368
2.7179999 2.507 1.918 24 0 0 0 86.373207
2.7279999 2.3629999 1.923 25 0 0 0 86.388046
2.4690001 2.901 1.873 29 0 0 0 86.402893
2.4879999 2.777 1.874 27 0 0 0 86.417732
2.5050001 2.6530001 1.876 24 0 0 0 86.432579
2.54 2.527 1.883 26 0 0 0 86.287056
2.2119999 2.997 1.831 29 0 0 0 86.301895
2.2520001 2.8929999 1.834 30 0 0 0 86.316734
2.2909999 2.7880001 1.839 33 0 0 0 86.331573
2.3529999 2.688 1.854 28 0 0 0 86.346413
1.937 3.0409999 1.774 26 0 0 0 86.361259
2 2.97 1.785 24 0 0 0 86.376099
2.0639999 2.898 1.798 27 0 0 0 86.390938
2.1459999 2.8269999 1.817 26 0 0 0 86.405777
1.681 3.0869999 1.7309999 31 0 0 0 86.420624
1.747 3.026 1.734 30 0 0 0 86.435463
1.824 2.9790001 1.75 30 0 0 0 86.450302
1.919 2.9330001 1.77 25 0 0 0 86.465141
1.4220001 3.099 1.6799999 30 0 0 0 86.47998
1.5039999 3.076 1.692 30 0 0 0 86.494827
1.59 3.0550001 1.711 29 0 0 0 86.509666
1.696 3.0380001 1.734 29 0 0 0 86.524513
1.173 3.096 1.633 31 0 0 0 86.539352
1.258 3.096 1.646 29 0 0 0 86.554192
1.348 3.0969999 1.663 29 0 0 0 86.569031
1.461 3.115 1.691 29 0 0 0 86.58387
0.94099998 3.1040001 1.602 31 0 0 0 86.598709
1.024 3.1159999 1.609 31 0 0 0 86.613548
1.1109999 3.131 1.622 28 0 0 0 86.628395
1.221 3.168 1.647 28 0 0 0 86.643234
0.708 3.0680001 1.557 30 0 0 0 86.658081
0.78899997 3.108 1.568 30 0 0 0 86.67292
0.87699997 3.1559999 1.586 34 0 0 0 86.687759
0.98000002 3.2060001 1.604 31 0 0 0 86.702599
0.48699999 3.0280001 1.518 34 0 0 0 86.717438
0.56099999 3.0799999 1.525 35 0 0 0 86.732277
0.64300001 3.1500001 1.544 35 0 0 0 86.747124
0.736 3.214 1.557 30 0 0 0 86.810501
0.27500001 2.9749999 1.4809999 33 0 0 0 86.82534
0.34200001 3.056 1.492 36 0 0 0 86.840187
0.412 3.1229999 1.5 33 0 0 0 86.855026
0.49900001 3.2249999 1.521 29 0 0 0 86.869865
0.072999999 2.9100001 1.444 34 0 0 0 86.884705
0.12899999 2.9979999 1.451 34 0 0 0 86.899551
0.189 3.0929999 1.464 33 0 0 0 86.914391
0.26100001 3.2 1.476 28 0 0 0 86.92923
-0.117 2.846 1.415 33 0 0 0 86.944069
-0.074000001 2.934 1.415 33 0 0 0 86.958916
-0.027000001 3.0420001 1.425 32 0 0 0 86.973755
0.028999999 3.1600001 1.4349999 28 0 0 0 86.988594
-0.29800001 2.757 1.3789999 31 0 0 0 87.003433
-0.26899999 2.8670001 1.3839999 33 0 0 0 87.018272
-0.236 2.984 1.392 30 0 0 0 87.033119
-0.19499999 3.1029999 1.3940001 26 0 0 0 87.047958
-0.46700001 2.6570001 1.3430001 30 0 0 0 87.062798
-0.45300001 2.77 1.344 31 0 0 0 87.077637
-0.43599999 2.8989999 1.353 28 0 0 0 87.092484
-0.41299999 3.0280001 1.354 27 0 0 0 87.107323
-0.62900001 2.5680001 1.317 29 0 0 0 87.122162
-0.63 2.684 1.316 30 0 0 0 87.137009
-0.62699997 2.8069999 1.318 27 0 0 0 87.151848
-0.62400001 2.9530001 1.321 34 0 0 0 87.166687
-0.77899998 2.464 1.288 28 0 0 0 87.181526
-0.792 2.575 1.2819999 30 0 0 0 87.196365
-0.80699998 2.704 1.284 27 0 0 0 87.211205
-0.82099998 2.8440001 1.281 29 0 0 0 87.226051
-0.91600001 2.3469999 1.257 29 0 0 0 87.240891
-0.94499999 2.4619999 1.251 29 0 0 0 87.25573
-0.97299999 2.5799999 1.2460001 27 0 0 0 87.270576
-1.006 2.72 1.242 30 0 0 0 87.136299
-1.045 2.233 1.23 35 0 0 0 87.151138
-1.09 2.3469999 1.224 29 0 0 0 87.165977
-1.131 2.4579999 1.215 27 0 0 0 87.180817
-1.184 2.5999999 1.211 30 0 0 0 87.195656
-1.169 2.1240001 1.21 35 0 0 0 87.210495
-1.2309999 2.237 1.204 38 0 0 0 87.225334
-1.2869999 2.345 1.193 28 0 0 0 87.240173
-1.351 2.4690001 1.181 30 0 0 0 87.255028
-1.283 2.0090001 1.1900001 34 0 0 0 87.269867
-1.353 2.1070001 1.177 36 0 0 0 87.284706
-1.42 2.2049999 1.163 34 0 0 0 87.299545
-1.494 2.3110001 1.1440001 29 0 0 0 87.314384
-1.387 1.888 1.169 40 0 0 0 87.329224
-1.465 1.972 1.152 40 0 0 0 87.344063
-1.5470001 2.066 1.138 33 0 0 0 87.35891
-1.641 2.171 1.122 34 0 0 0 87.373749
-1.483 1.765 1.15 47 0 0 0 87.388596
-1.569 1.8380001 1.13 40 0 0 0 87.403435
-1.661 1.919 1.113 44 0 0 0 87.418274
-1.771 2.017 1.097 31 0 0 0 87.433113
-1.577 1.648 1.137 50 0 0 0 87.447952
-1.673 1.71 1.115 45 0 0 0 87.462791
-1.7819999 1.7869999 1.101 41 0 0 0 87.477631
-1.891 1.858 1.076 39 0 0 0 87.492477
-1.66 1.523 1.1210001 46 0 0 0 87.507317
-1.771 1.581 1.104 52 0 0 0 87.522163
-1.881 1.638 1.0829999 44 0 0 0 87.537003
-1.995 1.693 1.0549999 42 0 0 0 87.551842
-1.74 1.4 1.11 53 0 0 0 87.566681
-1.852 1.4400001 1.0880001 48 0 0 0 87.58152
-1.967 1.482 1.0650001 45 0 0 0 87.596367
-2.095 1.528 1.039 47 0 0 0 87.922829
-1.816 1.277 1.101 44 0 0 0 87.937675
-1.923 1.2970001 1.072 43 0 0 0 87.952515
-2.039 1.323 1.0470001 37 0 0 0 87.967361
-2.178 1.3559999 1.023 42 0 0 0 87.982201
-1.875 1.145 1.0880001 38 0 0 0 87.99704
-1.99 1.154 1.0599999 37 0 0 0 88.011879
-2.1140001 1.168 1.036 38 0 0 0 88.026718
-2.2539999 1.184 1.01 40 0 0 0 88.041557
-1.915 1.006 1.068 28 0 0 0 88.056396
-2.049 1.011 1.051 38 0 0 0 88.071251
-2.177 1.011 1.026 40 0 0 0 88.08609
