# .PCD v0.7 - Point Cloud Data file format
VERSION 0.7
FIELDS x y z intensity normal_x normal_y normal_z curvature
SIZE 4 4 4 4 4 4 4 4
TYPE F F F F F F F F
COUNT 1 1 1 1 1 1 1 1
WIDTH 950
HEIGHT 1
VIEWPOINT 0 0 0 1 0 0 0
POINTS 950
DATA ascii
0.39515549 5.3825822 0.70840079 944 0 0 0 28.064257
-36.120792 -6.0699186 5.9609852 8 0 0 0 99.969276
-14.445991 -5.0320506 3.0413806 59 0 0 0 92.515076
-9.5632172 5.7587304 7.5147257 41 0 0 0 11.427328
15.16018 -3.1341596 -4.6086931 18 0 0 0 54.074112
-32.532867 3.1526644 7.9164562 8 0 0 0 3.5143681
23.694504 -27.424706 4.6328683 8 0 0 0 64.150528
4.5252004 4.8150368 0.96126962 572 0 0 0 37.357822
26.004803 -4.8596387 -4.0910273 19 0 0 0 55.142654
-5.3728724 -31.824245 5.919651 5 0 0 0 80.041214
14.801071 3.6242342 -1.2659949 178 0 0 0 43.61805
-34.06144 -2.6735623 12.926231 17 0 0 0 1.167104
11.08812 4.0702982 -1.7395563 65 0 0 0 45.085697
3.178664 4.9572129 1.4282945 563 0 0 0 31.180288
-1.4238559 -4.8674021 -2.1637239 342 0 0 0 81.908989
20.126268 -30.006771 -2.8780451 18 0 0 0 67.772675
26.645639 1.543579 -3.3184605 31 0 0 0 49.679104
10.631083 4.1289778 -2.6745541 100 0 0 0 43.323902
2.6026137 3.5254397 -1.9564474 288 0 0 0 34.610687
-2.0559256 -25.538382 -1.4766783 16 0 0 0 76.996353
16.18154 2.9041424 2.8211725 26 0 0 0 48.985855
17.376959 3.0605085 2.1306512 88 0 0 0 49.091072
26.171257 -11.012559 4.7130151 17 0 0 0 53.488895
-13.093339 4.0503931 2.8668544 6 0 0 0 1.8624001
-3.8425205 -11.663004 -2.5720735 74 0 0 0 82.394371
19.737621 -26.685787 -6.9332867 5 0 0 0 63.953152
8.4097729 4.558176 -1.9988147 150 0 0 0 39.704575
23.283869 -23.313751 -5.8765368 18 0 0 0 64.739075
25.003443 -10.52976 -2.2317109 26 0 0 0 53.774849
25.109249 -13.06772 -1.6519307 14 0 0 0 58.169346
-3.9932442 5.3172035 4.6507802 127 0 0 0 12.111616
13.013929 2.8296523 -3.5112226 37 0 0 0 47.422722
24.13187 -24.213055 -0.2752164 19 0 0 0 61.505791
26.272694 -13.503541 7.4484487 23 0 0 0 56.218113
23.292114 -4.3480515 -5.7827859 17 0 0 0 53.684479
23.916363 -21.291553 -4.0571589 8 0 0 0 63.756802
-5.0277047 5.6448998 2.5859897 251 0 0 0 13.768192
-0.60420531 -3.9824731 -2.1749659 513 0 0 0 78.081284
24.01655 -26.611004 0.72597802 20 0 0 0 65.426689
25.402483 -19.595247 2.6470304 4 0 0 0 60.91853
-34.176537 -4.0014553 14.421418 10 0 0 0 95.946754
6.0743561 5.3089356 -1.0811113 43 0 0 0 36.087807
-13.310048 -19.02376 -2.0489566 8 0 0 0 85.537788
-12.896832 -14.346246 -1.4169699 44 0 0 0 85.931778
12.594395 3.1416428 7.7255106 47 0 0 0 45.86496
25.012665 -9.0451908 -3.4355769 30 0 0 0 52.991489
24.832361 -26.04549 3.2155321 3 0 0 0 61.795326
8.1788816 5.2940669 -2.2145941 45 0 0 0 41.665791
-3.5178478 1.7523197 -1.3315001 228 0 0 0 6.2497282
-32.209694 -2.5340254 3.5961139 6 0 0 0 0.390912
5.5906725 3.0348141 -2.4377232 173 0 0 0 41.556992
25.359638 1.9378701 5.442852 7 0 0 0 50.548737
-5.6041813 -3.6341469 -1.6966006 192 0 0 0 88.488449
17.92626 2.6165483 6.7015071 16 0 0 0 44.394497
0.9714883 -12.991314 -3.5849352 18 0 0 0 76.116989
-8.6454687 6.1675124 3.5918965 127 0 0 0 8.6909437
32.236301 0.72019237 -4.9612603 5 0 0 0 47.129856
24.413561 -12.997979 -2.9826062 16 0 0 0 58.365952
-14.956893 -4.8099675 2.3344436 40 0 0 0 92.907265
1.7488601 5.1941957 3.8139269 36 0 0 0 31.966463
-5.676146 6.0071564 0.95118952 304 0 0 0 9.8662395
15.645329 3.2941029 -0.97814858 55 0 0 0 47.229183
-13.415488 -19.172613 -1.5975305 26 0 0 0 82.394371
23.803946 -23.766029 -2.6229873 28 0 0 0 64.644356
-32.591831 5.0046153 8.3140392 23 0 0 0 0
-4.7134356 -0.82490671 -1.4724823 263 0 0 0 96.639748
23.661083 -23.548782 -3.8897016 20 0 0 0 63.0784
20.316509 -33.500629 1.4991223 5 0 0 0 65.328125
2.0677094 4.9772148 3.8071127 43 0 0 0 31.290367
-9.8597164 6.0014 5.4636593 71 0 0 0 11.034624
-32.364487 6.1256323 8.8298473 14 0 0 0 3.4206719
-12.020222 -0.52566838 0.48331884 85 0 0 0 98.790909
10.224133 -16.46294 -5.5000482 17 0 0 0 68.467972
25.785109 -15.833047 4.0991893 5 0 0 0 59.151871
28.635984 -6.0236506 7.4826646 20 0 0 0 53.488895
6.1897469 -6.7241659 -3.4563715 110 0 0 0 63.953152
12.221035 3.0319982 4.7964911 44 0 0 0 42.83699
20.979528 -28.082342 1.7360523 16 0 0 0 62.186241
1.9843152 5.6283455 -0.97322112 273 0 0 0 30.987007
9.9916048 3.8930018 -2.954257 34 0 0 0 41.754879
27.96954 0.90028441 5.1168752 11 0 0 0 48.110847
2.0837512 -8.446785 -3.1663408 6 0 0 0 70.233345
17.67528 -8.4051313 -5.6720109 11 0 0 0 54.660095
-6.0839472 -31.613323 7.6024799 5 0 0 0 80.435966
-4.8924613 5.1838517 7.9802036 44 0 0 0 12.503552
6.8731961 -5.8277016 -3.5175495 124 0 0 0 63.664894
-8.3284101 5.5029645 10.516709 20 0 0 0 11.034624
-6.359549 -4.3863764 -1.6501883 137 0 0 0 89.665535
11.547189 3.9203112 -1.8249276 90 0 0 0 45.475327
1.5756955 5.5637865 0.98238647 7 0 0 0 31.290367
3.0756845 4.951026 1.7262225 444 0 0 0 30.896128
-13.099672 4.04533 3.5788908 3 0 0 0 1.951232
8.734355 -12.4333 -4.6230659 24 0 0 0 62.771713
-0.64467698 3.9003317 -1.4431677 291 0 0 0 19.255297
-17.246168 -23.752142 -1.1477849 17 0 0 0 85.835266
24.869921 -19.438475 -1.7069745 9 0 0 0 59.542526
1.6137252 7.2927823 -0.067330748 188 0 0 0 28.841728
23.764223 -22.246101 -3.7741809 8 0 0 0 62.577152
24.957674 -23.438074 4.1168361 11 0 0 0 64.055809
-12.378921 -4.0582671 0.34257594 59 0 0 0 95.946754
26.854635 0.9338116 -1.724568 43 0 0 0 48.399361
-15.865004 -16.833693 -0.80174506 19 0 0 0 87.897346
24.225508 -15.675598 -3.5381217 12 0 0 0 61.308929
25.762535 -11.167373 2.5819991 22 0 0 0 56.903934
24.523703 -17.683153 -2.7840652 12 0 0 0 57.388542
19.287983 -30.202896 -7.1640301 10 0 0 0 63.468544
-7.4492316 6.1076035 2.8064814 90 0 0 0 9.671936
27.349661 1.7327092 0.9947139 42 0 0 0 47.814655
-9.695303 -11.723236 -1.881216 28 0 0 0 85.245438
19.636938 -29.440247 -6.369699 20 0 0 0 67.880707
-2.3473611 6.1056094 1.8899244 192 0 0 0 21.010431
2.9602408 -35.281155 5.0815687 6 0 0 0 72.773117
14.824291 3.0028491 7.9146867 21 0 0 0 46.647041
20.642683 -28.965412 -0.0013421276 12 0 0 0 62.577152
27.416647 1.3498404 1.6642605 33 0 0 0 51.136768
-32.000484 6.3811665 11.020197 12 0 0 0 2.1470721
7.0630469 -32.771286 -1.8676405 13 0 0 0 70.722557
-0.37565768 -33.853313 4.3206277 6 0 0 0 77.490944
25.07592 -18.088095 1.0680875 15 0 0 0 60.427265
25.165682 -19.018902 -0.48044169 5 0 0 0 60.816383
25.256632 2.6227295 5.7796426 28 0 0 0 48.501503
24.849138 -21.387808 2.3416445 19 0 0 0 63.361534
-11.168319 -30.248055 -0.92644709 10 0 0 0 78.277634
12.217762 -13.145121 -5.4340343 16 0 0 0 60.621056
-11.500426 12.07721 3.5533676 20 0 0 0 9.9548159
8.8667116 3.0496418 -2.8654246 64 0 0 0 45.669376
5.2375774 -6.8086686 -3.0735221 92 0 0 0 62.092033
16.766735 3.6280136 -2.1329412 43 0 0 0 48.79232
25.201088 -16.779247 3.2401524 14 0 0 0 56.610046
-33.567856 -0.93128979 13.388987 6 0 0 0 0.390912
-11.354807 -30.167244 -1.2364128 18 0 0 0 79.941376
25.249674 2.3143091 5.7451706 18 0 0 0 48.69632
7.9812355 -7.3842721 -3.8657911 80 0 0 0 59.449089
27.292086 -5.8122158 6.8502364 8 0 0 0 55.142654
22.648951 -26.970997 -0.69220638 13 0 0 0 64.447746
-35.151356 -6.6095691 11.844405 5 0 0 0 98.112
8.8590727 2.0998597 -3.0215075 78 0 0 0 48.894463
20.478033 -32.281185 -1.1593549 4 0 0 0 68.163582
-9.1735086 -16.719278 -2.4949863 17 0 0 0 82.19725
-32.491459 4.1853828 12.543639 7 0 0 0 1.167104
-8.2167492 5.5934958 -0.14593239 43 0 0 0 7.712256
-11.771864 -10.918334 -1.4817506 20 0 0 0 90.547203
16.783779 3.4024467 -3.4261131 22 0 0 0 45.956608
-7.2436409 -6.8618608 -1.7910618 84 0 0 0 88.772095
5.9193897 -9.4731112 -3.493772 63 0 0 0 65.232895
-8.7248621 5.3906727 11.511767 21 0 0 0 6.8323841
26.220423 -12.460467 7.7666993 12 0 0 0 54.074112
13.865242 -2.4513466 -4.3746657 16 0 0 0 55.246078
-12.486239 -11.015579 -0.98778832 63 0 0 0 86.228989
7.9165368 4.9770536 -0.010885199 48 0 0 0 38.437634
-9.153718 -10.677519 -1.8804958 22 0 0 0 87.113472
-12.2349 6.4181042 4.4623613 46 0 0 0 6.536448
-32.196831 3.6015267 8.1872272 8 0 0 0 99.68026
25.858131 -11.609192 3.7106125 26 0 0 0 58.666752
13.278534 3.271915 3.4804914 60 0 0 0 44.696575
8.1003656 2.4819963 -2.8596992 70 0 0 0 43.033089
4.5178957 1.9574769 -2.4710357 199 0 0 0 41.470207
28.064295 -0.45230523 5.0217028 11 0 0 0 48.894463
-0.34070116 -25.855875 1.5024589 10 0 0 0 72.773117
-5.1580763 -24.501652 0.13513812 7 0 0 0 77.490944
6.5711026 -32.357269 -3.1534412 8 0 0 0 69.345795
1.0090396 -20.442463 -4.559339 18 0 0 0 76.513023
-3.9689977 -25.61149 -2.2111807 15 0 0 0 75.035393
-2.3529899 -31.220242 -4.3177357 23 0 0 0 73.754112
26.473204 -3.1803062 -1.3461685 32 0 0 0 53.970432
-4.6703234 4.2233191 -0.83659106 164 0 0 0 8.1031675
25.67745 -11.28322 2.2833767 20 0 0 0 58.562561
23.959833 -15.836856 -5.4932985 9 0 0 0 56.805634
11.40644 -3.3172097 -4.0948434 53 0 0 0 53.774849
24.782816 3.4396632 2.296165 31 0 0 0 46.542847
2.4612207 5.0559845 1.4204612 599 0 0 0 29.328896
25.719206 -15.656365 6.3256974 22 0 0 0 55.826942
6.3228016 -32.118092 -5.0490985 18 0 0 0 71.013634
16.721462 3.3949895 -0.84397823 29 0 0 0 45.762047
3.5238986 5.1865139 1.2278847 301 0 0 0 36.372738
4.4140644 -33.043762 1.4578938 8 0 0 0 71.992828
7.8467283 1.9786479 -2.867758 75 0 0 0 45.475327
24.236017 -22.801836 -1.875957 14 0 0 0 61.010689
27.485643 0.95464945 2.2833655 31 0 0 0 48.204033
25.107338 -8.9301014 -3.0120227 18 0 0 0 57.583874
-2.2183738 6.753469 6.0208163 4 0 0 0 18.759424
2.517092 -9.6691895 -1.1289396 7 0 0 0 71.599358
26.078522 -10.603663 2.9322512 22 0 0 0 54.945793
-11.049642 5.8178234 9.2666368 23 0 0 0 10.74048
-10.028735 1.680691 -0.34300375 75 0 0 0 2.2492161
-2.6330721 -7.2468376 -2.2237728 230 0 0 0 79.648514
-9.1725235 6.4601293 2.87395 37 0 0 0 11.623168
-3.8071017 7.8748851 1.1823035 84 0 0 0 19.543552
-7.7419047 -14.776713 -2.5563166 22 0 0 0 85.048576
25.39669 -16.734713 4.4188886 13 0 0 0 58.082302
-6.0208335 -15.514465 -2.9417157 23 0 0 0 78.473724
24.54409 -14.062884 -2.7804372 27 0 0 0 57.297409
-9.3572235 5.4157963 11.61441 17 0 0 0 8.2982397
-8.5048695 -22.873087 -3.1098857 19 0 0 0 78.277634
16.979246 3.2470157 -1.0879802 68 0 0 0 47.523582
-9.0201006 5.6191187 9.6813745 37 0 0 0 6.7297282
-8.7601881 -12.993813 -2.1609683 27 0 0 0 85.245438
-34.389214 -3.2198107 9.5859337 6 0 0 0 99.57325
-11.766232 6.1554418 1.0927494 85 0 0 0 4.4953599
-7.8883896 -8.4957285 -1.8708638 57 0 0 0 84.554237
25.26124 -17.616625 4.8146305 20 0 0 0 56.903934
6.2392907 -1.7095939 -3.0567937 71 0 0 0 55.338753
-10.909185 -1.4755431 -0.34844342 127 0 0 0 0
25.806807 -11.962584 3.70841 21 0 0 0 58.862591
-10.09767 0.5455882 -0.45619655 58 0 0 0 98.790909
12.305853 3.7368205 -0.85593641 73 0 0 0 47.422722
2.2762449 -9.9670639 -1.663414 28 0 0 0 72.097023
-7.8994431 -8.202364 -1.8295535 47 0 0 0 84.851456
24.394297 -13.598925 -2.4447744 23 0 0 0 55.535358
11.94651 -10.436178 -5.0941863 16 0 0 0 62.186241
20.352278 -30.419249 -1.1081117 17 0 0 0 67.772675
7.2697515 -32.740589 -2.2015972 13 0 0 0 72.188927
27.749256 -1.8228952 5.9469261 21 0 0 0 51.235073
26.020655 -12.206269 5.4841895 18 0 0 0 57.297409
5.9480176 3.0861728 -2.5010726 123 0 0 0 40.187904
20.612581 -33.079601 4.5961399 6 0 0 0 68.271362
-34.521049 -4.1085091 12.564621 6 0 0 0 95.946754
3.8619766 2.0093927 -2.3717272 264 0 0 0 45.565441
-14.649394 -3.1777015 2.2489991 8 0 0 0 94.480385
24.365114 -14.278242 -4.1908669 21 0 0 0 57.492992
-12.120139 -2.8641155 0.63541287 82 0 0 0 94.17421
24.294809 -15.968214 -2.9253333 20 0 0 0 58.277119
-14.762671 -4.894906 3.3329201 31 0 0 0 97.524223
13.057449 2.4714022 9.0113382 18 0 0 0 44.889599
-2.9627528 6.7006502 6.0056486 24 0 0 0 19.059711
-0.19356002 -26.779957 -1.6047047 10 0 0 0 75.819519
-9.1364508 -6.4294238 -1.4050162 41 0 0 0 91.139069
26.882292 -2.9225979 1.3351072 24 0 0 0 53.684479
3.9482565 4.6463771 3.5221384 147 0 0 0 32.752895
23.986073 -25.579195 -0.66551745 15 0 0 0 63.558655
5.470211 -10.948045 -3.7186873 88 0 0 0 65.130241
23.333868 -24.656992 -4.9852929 19 0 0 0 60.427265
5.0418792 -6.4266777 -2.9966471 98 0 0 0 63.558655
19.354576 -34.013264 -2.7166491 5 0 0 0 67.383041
4.2250714 4.7733617 2.0216935 516 0 0 0 35.102718
-34.477791 -2.8027642 9.6003647 18 0 0 0 99.7696
16.065554 2.1110139 10.563763 25 0 0 0 47.618561
-3.1193993 -26.616974 2.972435 18 0 0 0 74.44429
7.1602044 -33.299725 1.107497 12 0 0 0 72.29261
-2.2728846 5.4204059 3.8032691 279 0 0 0 20.917248
23.956476 -15.331998 -6.0273857 9 0 0 0 59.738369
24.261278 3.0577936 -1.0959495 39 0 0 0 45.370369
10.117146 6.0856595 4.4826474 12 0 0 0 41.361919
-2.451757 -34.745243 6.2756739 9 0 0 0 78.473724
26.287392 -12.724443 7.3985162 9 0 0 0 55.826942
8.48458 4.5718493 -1.9211603 195 0 0 0 44.499969
24.960136 -17.36154 2.2545774 10 0 0 0 61.701378
-15.849558 -9.3116608 2.2088189 7 0 0 0 92.515076
26.463644 -0.45699465 -2.8167157 22 0 0 0 47.719681
16.901047 3.2865577 -1.714497 67 0 0 0 45.956608
-4.1342416 -25.644579 -2.2108591 21 0 0 0 75.131393
-35.827904 -5.828289 7.7697496 12 0 0 0 100.0727
6.9993882 2.6092429 -2.6717138 114 0 0 0 45.370369
21.572418 -26.582384 -2.0048947 11 0 0 0 63.164417
17.994007 2.8194625 0.81412792 25 0 0 0 46.348289
23.921925 -10.998931 -6.7989917 5 0 0 0 57.583874
25.129076 -18.181421 1.7372266 10 0 0 0 57.297409
24.646395 -26.076845 2.4952819 7 0 0 0 65.036797
3.9420097 -32.463139 0.82776934 19 0 0 0 75.328003
-5.2617006 5.2081118 8.2533836 41 0 0 0 12.012288
24.141733 -15.324601 -5.4488201 21 0 0 0 56.513535
25.017477 -11.524473 -1.2442124 27 0 0 0 55.826942
-6.8898387 -0.37721682 -1.0629044 172 0 0 0 98.597122
2.3171024 7.0517669 0.49749404 29 0 0 0 31.966463
25.925598 -11.265371 3.7160378 14 0 0 0 58.472706
18.40447 2.56299 2.8934455 13 0 0 0 44.889599
-16.337387 -18.886614 -0.63803762 18 0 0 0 85.64019
9.5216112 3.2905281 -2.934128 57 0 0 0 44.00563
25.357607 2.2966583 6.4725008 16 0 0 0 45.475327
8.2704172 4.2892718 1.6360463 197 0 0 0 41.077248
-3.4972758 -24.608824 -0.16693228 10 0 0 0 77.972733
-35.263859 -6.2341604 10.93265 7 0 0 0 95.065346
-10.609286 6.165256 4.5150433 60 0 0 0 8.8857603
-4.0701957 5.3270578 4.8679771 137 0 0 0 15.43808
11.428335 1.9610283 -3.4352365 46 0 0 0 44.978943
25.375273 -20.068312 4.9904661 10 0 0 0 57.887745
9.8931952 -17.950193 -5.5580063 9 0 0 0 67.684608
25.51379 -7.1630821 -3.3053236 29 0 0 0 51.823872
-5.0890179 -1.4919747 -1.5062175 222 0 0 0 98.112
-15.525523 -15.313612 -0.72966677 14 0 0 0 88.488449
2.8954039 2.9755919 -2.0907214 222 0 0 0 40.383232
27.501308 -4.3438406 6.4981403 13 0 0 0 49.482754
-3.4977391 5.592711 4.1756144 161 0 0 0 13.376512
-11.975776 5.9714756 8.3624201 15 0 0 0 6.7297282
2.0684762 5.4402933 -0.50629181 340 0 0 0 28.153088
-2.6413624 -7.8017082 -2.3128917 182 0 0 0 77.687553
26.596189 1.0084094 -4.6915464 46 0 0 0 50.065662
26.17967 -10.057436 6.1497698 18 0 0 0 52.902145
-5.8856444 6.1222272 1.8149856 29 0 0 0 9.8662395
-8.4796171 -10.677972 -1.9962245 33 0 0 0 88.094719
14.105221 3.7113848 -3.4229605 39 0 0 0 43.519745
-34.124741 -0.41534609 9.9192991 10 0 0 0 99.289597
-10.393543 -9.4800224 -1.5307609 42 0 0 0 85.931778
8.5722342 -10.952574 -4.3502131 30 0 0 0 63.558655
26.268072 -2.9455395 -4.3412328 60 0 0 0 49.2864
24.538847 -17.965393 -2.2689707 22 0 0 0 62.186241
-1.0624514 5.3928323 3.0216501 430 0 0 0 20.621056
20.790577 -27.698048 -0.34443584 10 0 0 0 63.756802
-1.4007038 -6.6703849 -2.3144531 222 0 0 0 75.721985
-8.5199795 3.2280939 -0.3799372 67 0 0 0 3.8054399
11.110885 3.700598 11.891716 11 0 0 0 46.256386
-9.2576199 6.485929 2.0529253 253 0 0 0 8.2982397
6.8349304 -32.666832 -2.5231566 11 0 0 0 73.950974
-6.1363583 5.3733182 6.980608 50 0 0 0 14.462464
27.357414 1.2039592 1.2867776 17 0 0 0 46.542847
25.039194 -9.504384 -4.8423104 14 0 0 0 53.292801
-0.86775857 5.434865 1.9642435 648 0 0 0 22.768127
-5.9857831 5.3879476 7.0521088 43 0 0 0 12.896256
24.467949 -12.645148 -2.9561851 20 0 0 0 58.169346
0.31143206 -27.553545 -0.58266091 15 0 0 0 77.099266
-1.4056581 -28.071064 3.0544682 13 0 0 0 73.361404
-10.479329 4.602252 0.54906833 169 0 0 0 6.4445438
23.727671 3.6934924 -4.6405506 22 0 0 0 45.085697
15.401987 3.0573571 2.7206495 45 0 0 0 48.69632
3.013623 11.750014 -1.0107492 40 0 0 0 26.1952
5.8305087 -9.2513647 -3.9278095 15 0 0 0 63.558655
-12.853021 -0.49900669 0.36637154 86 0 0 0 0
2.5623326 5.0861111 1.0533789 710 0 0 0 31.180288
26.624542 -1.8899965 -1.2604388 18 0 0 0 53.188351
5.7846727 -0.91616267 -3.0001733 174 0 0 0 52.018688
24.700348 -25.508049 2.4756927 4 0 0 0 64.841469
25.728376 -12.191175 3.2289755 19 0 0 0 54.269695
23.464239 -26.111765 -3.4219952 13 0 0 0 60.816383
-5.3162732 -33.342281 5.1004152 7 0 0 0 76.708611
24.503513 -12.788046 -4.0445991 23 0 0 0 56.709377
26.007853 -4.481833 -2.7287273 20 0 0 0 54.856194
29.257431 -1.0860864 8.2270966 20 0 0 0 49.091072
5.9570093 4.5986381 1.6384745 312 0 0 0 41.361919
10.977487 0.82800794 -3.4835854 59 0 0 0 48.110847
-3.9520926 3.1208985 -1.0744889 295 0 0 0 10.062336
-33.226532 3.507046 6.388782 10 0 0 0 3.5143681
7.0473781 -32.651829 -3.1990905 7 0 0 0 69.150208
-10.936234 5.3041129 12.87946 12 0 0 0 7.2217598
23.414642 -27.644598 1.4242578 11 0 0 0 62.771713
26.353844 -11.391526 6.7293572 6 0 0 0 58.365952
1.3808798 7.0151062 1.6013876 27 0 0 0 29.915648
-2.139051 -22.452833 -4.2303629 10 0 0 0 74.054657
-13.962102 -23.778822 -1.9670618 17 0 0 0 81.120514
8.7795582 4.2356634 1.55194 166 0 0 0 43.129856
-0.34808898 -12.385789 -3.0888238 43 0 0 0 74.542084
17.689529 2.6672871 4.3885627 19 0 0 0 46.15168
23.934782 -19.764673 -4.4679999 19 0 0 0 58.472706
-4.4970398 3.5521197 -0.94153762 257 0 0 0 10.150656
25.137108 -8.059639 -3.3530743 37 0 0 0 52.407551
-8.3622665 -11.502579 -2.1032231 39 0 0 0 87.403008
-6.3638363 -28.386915 -2.9723384 19 0 0 0 79.254524
26.464752 -1.9573749 -4.5778289 10 0 0 0 50.262016
23.26862 -23.963394 -5.2190747 13 0 0 0 61.795326
25.89715 -7.8880315 0.6081152 29 0 0 0 52.018688
-14.19329 -25.217281 -2.0862272 15 0 0 0 80.8256
-65.213219 -37.405594 16.537989 7 0 0 0 92.710655
27.624035 -2.6521389 5.8726025 13 0 0 0 51.724289
24.947224 2.6855042 3.8244569 19 0 0 0 45.370369
24.290903 -15.299087 -3.5085254 21 0 0 0 61.114624
-8.813797 -33.857944 7.1747341 4 0 0 0 78.277634
25.774586 -4.4701638 -4.6955581 24 0 0 0 51.823872
-0.49044076 8.1453896 -0.90378577 15 0 0 0 25.908224
-0.10954479 5.6095986 -0.51814693 544 0 0 0 25.026049
-2.7839422 6.0046215 8.8342457 28 0 0 0 15.139072
5.7902904 -8.4800243 -4.0456252 10 0 0 0 67.880707
23.617308 -16.538906 -6.513453 14 0 0 0 61.990398
23.013876 -27.144503 1.0484103 8 0 0 0 64.346115
24.806124 -25.351118 4.2384076 10 0 0 0 64.739075
-11.954289 -7.9971256 -1.0974646 22 0 0 0 91.534332
26.983292 2.3829818 0.70431256 29 0 0 0 48.985855
-0.83349705 -4.8296566 -2.2345467 397 0 0 0 75.035393
-6.7903819 1.1857343 -0.89133596 212 0 0 0 2.0549121
24.989567 -16.513332 1.7237996 14 0 0 0 56.610046
-3.6262832 8.5157576 1.5290551 66 0 0 0 17.194752
-14.402327 -2.4914391 1.1141382 46 0 0 0 98.307587
-9.9718876 -30.300339 -2.5400007 12 0 0 0 77.687553
12.574068 3.0730441 6.4831653 41 0 0 0 42.641151
25.110886 -18.855892 2.2956622 11 0 0 0 62.290176
-1.1555701 5.7471232 1.6638854 294 0 0 0 18.9568
-7.346344 5.5054283 11.183674 15 0 0 0 10.150656
-34.463638 0.5357008 4.7614827 11 0 0 0 0.390912
-10.131977 -33.259506 6.830205 6 0 0 0 80.530174
27.952208 -0.84912682 6.8080487 18 0 0 0 47.422722
15.079992 2.5632434 10.329559 10 0 0 0 45.174526
-34.066067 -4.0330834 9.5197735 13 0 0 0 99.180031
13.666239 3.4367664 0.93129188 65 0 0 0 43.323902
-33.726391 -0.80748242 13.093922 14 0 0 0 2.0549121
2.445065 -3.1816349 -2.5255554 403 0 0 0 65.523712
16.701525 -3.6124935 -4.8871813 14 0 0 0 52.601856
1.9405922 -32.395477 1.473667 8 0 0 0 73.165825
10.255788 4.1329236 7.4178472 53 0 0 0 45.370369
2.9071164 4.973989 -1.7776591 152 0 0 0 30.987007
-7.051208 -10.276517 -2.201643 40 0 0 0 83.764481
-5.0058961 5.6563153 5.8277669 27 0 0 0 10.934784
13.214616 3.2462461 4.0001245 55 0 0 0 46.256386
-5.1010799 5.0621271 8.4605703 35 0 0 0 16.022272
16.380468 3.4593101 -3.5561578 46 0 0 0 47.422722
15.50693 3.0851939 6.152318 82 0 0 0 48.501503
-34.34993 -4.265161 7.7954946 9 0 0 0 99.092735
24.35886 -23.022776 0.098689385 18 0 0 0 59.449089
1.3433595 -32.101883 -1.3458061 11 0 0 0 71.900414
-9.7793789 -32.503891 5.672471 8 0 0 0 77.295357
-14.767032 -10.688498 -0.32782722 35 0 0 0 89.364479
3.8148296 -0.25655946 -2.684365 298 0 0 0 49.091072
-8.7209044 5.5307732 10.461028 19 0 0 0 6.927104
26.105335 -11.094665 4.3481407 13 0 0 0 55.142654
-0.66601259 7.017168 -0.99538368 30 0 0 0 23.749121
9.0391474 1.7937096 -3.0904725 72 0 0 0 49.482754
7.2777381 2.1678436 -2.7697296 130 0 0 0 46.45248
-11.506928 6.6053047 1.4431511 84 0 0 0 8.2982397
26.344843 -9.4746685 5.7986002 21 0 0 0 54.164223
25.336826 -20.538382 5.0188522 8 0 0 0 58.082302
-8.3075142 -32.684906 5.2023396 8 0 0 0 78.16909
24.462494 -24.657728 2.4287658 9 0 0 0 64.644356
20.821302 -26.532843 -3.9817269 8 0 0 0 65.036797
15.512296 3.5452414 -3.1448379 44 0 0 0 45.565441
8.4302797 -12.322935 -4.5433421 27 0 0 0 62.96883
-11.885692 6.6997108 0.98841542 79 0 0 0 6.536448
2.6434546 -2.3766758 -2.4896913 318 0 0 0 62.771713
4.381701 4.9177651 3.4201856 55 0 0 0 38.242561
-8.0121527 -7.2774124 -1.7119856 56 0 0 0 85.931778
-10.060869 -30.691122 1.246241 11 0 0 0 82.394371
-7.9813862 -33.513565 6.3949285 4 0 0 0 81.120514
24.753372 -18.672876 -0.79394579 5 0 0 0 62.380798
3.1355252 -32.458057 1.1415969 11 0 0 0 74.149376
0.88521278 -35.856972 6.660583 5 0 0 0 75.328003
17.430126 -8.8238783 -5.6860185 9 0 0 0 55.05024
-9.7875834 -4.0636296 -1.0442755 56 0 0 0 91.534332
26.755091 0.77060258 -4.0982647 18 0 0 0 47.035904
-10.738976 6.1385598 5.2446599 49 0 0 0 8.8857603
-6.4119878 -3.3121326 -1.5156739 154 0 0 0 91.73069
-0.50544119 -25.94384 -2.8173528 14 0 0 0 76.016899
12.477277 3.6075258 0.26267996 81 0 0 0 42.83699
24.045862 -19.123335 -4.4059663 13 0 0 0 58.169346
25.444918 -15.70137 5.5602617 16 0 0 0 59.151871
12.177714 3.6697459 0.40932417 92 0 0 0 47.326466
-34.043545 -0.6914323 12.323014 7 0 0 0 97.524223
26.201284 -10.871834 5.7995267 23 0 0 0 54.945793
-1.9877908 5.6639066 1.0949745 290 0 0 0 16.70784
-14.625541 -5.6049724 2.3123085 75 0 0 0 92.020737
-5.8759499 -31.676224 5.2559061 10 0 0 0 75.524864
-11.69371 6.0365973 7.810287 20 0 0 0 10.256128
24.780416 -16.028149 -0.38108447 10 0 0 0 59.644417
20.476425 -33.337822 1.9107211 6 0 0 0 63.664894
-7.6978002 -4.8544884 -1.4778762 92 0 0 0 90.351105
17.778257 -32.429157 -7.73843 5 0 0 0 66.115585
-8.0916395 5.9290099 3.8042424 133 0 0 0 10.545152
-32.467976 5.3504157 7.421699 8 0 0 0 1.362944
5.4572225 -34.480438 3.219033 9 0 0 0 71.599358
25.78587 -7.1306748 -2.2917805 41 0 0 0 53.292801
-23.468683 -16.173418 0.87655932 24 0 0 0 89.759232
23.662752 -26.82489 -0.69381046 13 0 0 0 64.055809
-7.6625547 -4.2674408 -1.4111352 103 0 0 0 91.240448
-36.026455 -17.209526 3.3079607 5 0 0 0 92.319229
26.663227 -2.710367 -1.3208826 9 0 0 0 53.684479
17.322897 2.9107404 3.4299505 45 0 0 0 45.956608
25.118111 2.6442389 4.7780304 17 0 0 0 46.93504
4.5179853 3.7747738 -0.94852358 103 0 0 0 39.704575
-12.733888 0.52890825 0.66821587 98 0 0 0 98.597122
18.93255 -30.320633 -7.8544936 6 0 0 0 66.795006
-3.4931397 -1.3049155 -1.7537904 359 0 0 0 91.82618
7.983058 -9.6417246 -4.0482063 50 0 0 0 64.739075
10.100076 -8.6427841 -4.4478354 29 0 0 0 63.664894
-35.831779 -15.79527 3.2677202 9 0 0 0 92.807167
10.308371 3.4870007 7.8716407 38 0 0 0 40.773376
-0.090242989 -5.7293677 -2.175621 343 0 0 0 77.583359
7.1713581 0.62212962 -3.0009108 114 0 0 0 46.45248
-8.4097948 -3.886446 -1.2386497 102 0 0 0 95.65773
2.5519459 -23.246 -4.9808731 12 0 0 0 73.950974
27.469534 -3.9777818 5.7769027 22 0 0 0 52.510208
6.8153524 4.7308455 -1.6325477 240 0 0 0 37.944065
20.87108 -26.117378 -6.0044918 13 0 0 0 66.507011
24.434181 -20.340611 -1.4163021 13 0 0 0 58.472706
6.3023839 -3.5802994 -3.2088411 183 0 0 0 60.816383
-7.856019 5.46592 7.9219174 41 0 0 0 7.4155521
20.372948 -32.492325 -2.6633575 5 0 0 0 66.702591
-9.373745 5.6546426 8.2114325 25 0 0 0 11.623168
17.642912 1.0798894 -4.4810848 8 0 0 0 46.647041
11.533309 2.6322434 9.7473774 18 0 0 0 45.956608
10.936932 4.1649375 11.971089 18 0 0 0 45.565441
31.089298 -15.353849 -0.30163261 11 0 0 0 57.778175
-35.908897 -16.112316 4.7730117 4 0 0 0 94.284035
-37.736412 -4.2411075 9.9187603 15 0 0 0 0.29593599
-13.698895 0.88621038 3.2597404 5 0 0 0 2.9294081
0.47842634 5.100462 3.6029658 244 0 0 0 23.268097
-15.949528 -17.341331 -1.080385 31 0 0 0 89.273087
10.200271 3.7847111 7.0900187 56 0 0 0 40.486912
25.638002 -14.840027 4.7320414 9 0 0 0 55.535358
-7.0968294 5.48106 -0.33098888 56 0 0 0 11.81824
-15.46903 -15.073226 -0.71864319 22 0 0 0 88.577026
-17.084381 -8.4063578 0.6617192 13 0 0 0 92.12365
26.368729 -7.8133454 2.7034032 11 0 0 0 54.945793
10.780474 3.5536079 3.292223 79 0 0 0 46.647041
-8.0514345 -6.4666433 -1.6109792 62 0 0 0 86.916611
0.11194212 -27.451088 -3.8491318 12 0 0 0 72.487938
20.480047 -30.267233 -0.0078799333 10 0 0 0 62.96883
-29.646366 6.3949709 4.3933606 8 0 0 0 0.390912
-15.753094 -16.312805 -0.77684277 27 0 0 0 88.094719
21.690454 -26.768587 -1.0270455 17 0 0 0 66.310654
-30.349884 9.0809946 4.9500589 7 0 0 0 1.6675839
26.782084 -1.9491141 -0.6250028 29 0 0 0 50.065662
25.409414 -20.412663 5.6265054 8 0 0 0 62.771713
10.622177 -5.9838977 -4.3570342 24 0 0 0 57.388542
11.956143 2.9360828 8.7523966 24 0 0 0 42.149376
6.883492 2.8080554 -2.6348679 98 0 0 0 44.889599
-2.6680722 6.1384883 1.9293009 207 0 0 0 20.328447
-2.5472233 5.909514 2.198693 200 0 0 0 20.427263
14.7015 2.0162029 11.10875 6 0 0 0 45.565441
24.885445 -23.942154 4.1444888 8 0 0 0 64.250366
26.385881 -7.4178209 1.6759067 26 0 0 0 53.188351
-1.7909242 -7.4826455 -2.1868527 156 0 0 0 76.212479
16.980162 2.2070818 9.7453709 23 0 0 0 49.482754
24.355936 -26.897139 3.6346405 10 0 0 0 60.621056
-32.773441 6.2197495 15.078088 5 0 0 0 2.2492161
-8.3355122 -31.221119 3.0713782 6 0 0 0 79.941376
4.1260748 -32.318665 -1.7511888 23 0 0 0 72.097023
24.962276 2.8400156 3.8427644 19 0 0 0 45.280769
9.2810907 3.5281241 -2.8602905 35 0 0 0 43.519745
-10.682216 6.4112964 1.8368579 110 0 0 0 10.256128
-10.233887 -33.437222 7.2256765 6 0 0 0 78.955009
24.093054 -15.755699 -4.3256884 23 0 0 0 58.277119
16.978012 2.273515 9.4689207 19 0 0 0 44.200703
-12.08622 6.2658267 6.1838088 22 0 0 0 5.0810881
24.218954 1.8222896 -4.8667383 27 0 0 0 46.348289
-10.373198 5.6088042 8.5980244 8 0 0 0 5.6634879
4.4305725 -6.0543656 -2.8403926 66 0 0 0 65.720833
24.432741 -17.375778 -3.0547907 11 0 0 0 58.862591
24.101969 -15.267152 -5.7222905 18 0 0 0 58.082302
-2.337806 5.5906792 2.4936235 470 0 0 0 19.059711
-13.111092 4.1748428 2.0020392 9 0 0 0 3.4206719
27.344826 -5.5070772 6.4238014 12 0 0 0 50.156288
25.16954 -13.420928 0.34524584 26 0 0 0 55.142654
0.94119281 5.5869856 1.0796125 759 0 0 0 27.957504
25.675045 -6.3412104 -3.5324409 35 0 0 0 52.902145
14.111548 3.8798919 -1.910588 28 0 0 0 43.228416
25.938122 -14.130487 6.2697258 16 0 0 0 55.05024
12.53385 2.9061177 8.5481892 31 0 0 0 46.060799
-12.958252 -9.2472372 -1.057192 20 0 0 0 89.469696
5.3711987 -32.250488 -5.7182159 6 0 0 0 74.641663
26.650272 -4.8787594 1.2113055 22 0 0 0 54.856194
-15.515797 -15.304432 -0.49608219 39 0 0 0 86.916611
7.5802031 -11.853902 -4.2814927 24 0 0 0 63.468544
20.020433 -32.918499 -0.7884174 5 0 0 0 66.89843
24.583586 -24.223518 2.7492089 16 0 0 0 62.88205
2.4852812 -9.2627163 -2.0536082 10 0 0 0 71.508476
-6.2711082 5.5623145 5.3410192 82 0 0 0 12.401152
16.758287 3.4173007 -1.0581529 33 0 0 0 47.326466
-7.6735754 -5.1704702 -1.5105947 114 0 0 0 89.861885
25.726112 -2.8034523 -5.5780983 29 0 0 0 49.2864
-7.1991429 6.0229678 1.7823361 241 0 0 0 9.671936
-8.1436577 -32.255482 4.5000486 8 0 0 0 81.318657
24.421213 -17.837046 -2.7906764 7 0 0 0 57.492992
16.79283 3.054832 0.80151665 51 0 0 0 45.956608
-7.5096617 -32.858658 5.1702194 8 0 0 0 77.778175
9.1651115 -0.37742314 -3.4050922 60 0 0 0 48.399361
-2.1059353 -26.319843 0.028119829 24 0 0 0 75.429375
1.4287232 -9.4820566 -2.940629 86 0 0 0 71.703293
26.023104 -13.031499 3.7559967 11 0 0 0 59.347198
-12.747131 -14.182321 -1.5997633 32 0 0 0 87.50618
-3.5660098 7.1162276 0.42029059 27 0 0 0 17.6896
27.717373 -2.4101436 6.2484074 20 0 0 0 49.959423
-2.9755094 6.1593814 7.8545113 43 0 0 0 16.904448
20.097994 -26.074652 -7.2194557 12 0 0 0 65.232895
0.82008368 6.4039683 5.5931239 5 0 0 0 23.552511
19.972944 -27.034292 -5.6644297 12 0 0 0 65.523712
24.146246 -22.087885 -3.124608 18 0 0 0 59.252735
4.5068774 -4.0058742 -2.9005506 278 0 0 0 60.816383
27.994658 -0.050675604 4.0012507 10 0 0 0 47.129856
-34.332111 -3.6594443 12.481789 8 0 0 0 96.143356
23.198605 -13.632792 -6.7554998 10 0 0 0 57.583874
23.842005 -18.568779 -6.4925246 10 0 0 0 61.206017
-0.95236433 -25.41987 1.4973927 7 0 0 0 73.165825
5.5983076 -1.4808586 -2.9500294 156 0 0 0 51.920128
5.3000102 -5.2991586 -3.165554 177 0 0 0 61.701378
-14.187826 -1.4858682 1.0907524 34 0 0 0 99.375107
-7.1010966 5.5062284 10.429768 10 0 0 0 14.2656
24.599745 -11.589952 -2.8753724 16 0 0 0 57.583874
-11.901722 -29.3815 -2.444052 13 0 0 0 78.758659
19.955318 -30.551746 -2.9074244 9 0 0 0 67.968254
-2.9959037 5.8165278 7.901844 40 0 0 0 20.525312
-0.53781044 10.040543 -0.68118197 6 0 0 0 21.207296
25.028189 2.1840398 3.1333814 8 0 0 0 48.894463
8.5595331 -2.5656221 -3.5864468 74 0 0 0 53.970432
25.074106 -22.045158 4.7066183 7 0 0 0 60.327423
18.505022 -6.5209608 -5.5708489 13 0 0 0 52.991489
24.329258 -10.986894 -4.914228 20 0 0 0 54.269695
-13.642703 -20.839216 -1.7272016 21 0 0 0 81.908989
24.054277 -22.888144 -2.2232149 19 0 0 0 62.684929
-32.75399 6.1573138 14.532683 5 0 0 0 3.8054399
2.4587548 -9.0016413 -1.4279758 183 0 0 0 69.839615
0.97084564 5.6522107 0.5281902 332 0 0 0 28.064257
6.9909096 -34.546978 2.8692479 6 0 0 0 72.487938
5.1102781 4.5846567 2.8634953 233 0 0 0 36.765697
3.9342079 -12.517816 -4.0807948 8 0 0 0 69.250046
15.492635 3.1020281 2.1313791 52 0 0 0 47.129856
13.21336 3.4858823 1.0779685 64 0 0 0 47.814655
-13.681337 1.308531 2.9571414 5 0 0 0 0.19635201
-31.840561 3.9736433 10.011064 7 0 0 0 2.5387521
20.01092 -32.855785 -1.1655042 10 0 0 0 68.467972
7.0770664 4.5467558 0.30635291 250 0 0 0 39.796223
25.678308 -3.8747137 -5.2901282 42 0 0 0 54.660095
3.5515022 2.6556115 -2.2229545 264 0 0 0 41.164799
-2.5779843 5.5197444 3.6175258 217 0 0 0 18.563072
13.417351 3.1590991 4.4515033 50 0 0 0 43.129856
-4.5112848 -34.260471 6.293766 6 0 0 0 79.451904
-5.130641 -4.615314 -1.7900174 109 0 0 0 85.931778
1.5984678 -3.0823367 -2.3882635 436 0 0 0 66.507011
19.407265 -30.844606 -5.4298081 11 0 0 0 63.558655
-34.231129 -3.0622873 10.516706 11 0 0 0 96.44339
-2.2724504 -13.63372 -2.9725361 67 0 0 0 79.941376
23.306372 -24.327269 -4.9435315 25 0 0 0 60.327423
-33.574059 -0.20973022 11.593528 4 0 0 0 0.58547199
23.830357 -24.638 -3.3188004 9 0 0 0 60.231167
19.929146 -18.756781 -6.8012905 158 0 0 0 59.542526
23.980867 -22.758638 -3.1711249 9 0 0 0 59.542526
-3.2372832 6.100749 6.2487583 100 0 0 0 18.082815
6.1828671 3.1212366 -2.5181427 114 0 0 0 45.280769
25.629898 -16.098663 3.7954943 10 0 0 0 60.91853
18.176279 2.9833944 -0.75628126 16 0 0 0 44.783615
-7.9075241 -31.137636 2.7472794 7 0 0 0 81.318657
-35.073536 -5.8340111 12.255799 14 0 0 0 96.836098
24.212412 -25.585649 1.0630591 11 0 0 0 63.468544
-30.139082 10.088187 4.6614356 12 0 0 0 3.710464
23.992638 -16.982954 -4.4545169 16 0 0 0 58.862591
-2.4193425 -9.5876131 -2.483494 145 0 0 0 79.648514
9.03582 -9.628521 -4.2615762 37 0 0 0 63.756802
-9.6438704 -30.73423 2.1835308 15 0 0 0 77.490944
-15.65454 -27.456114 0.18755223 11 0 0 0 84.069885
11.324631 3.1340313 7.5216498 31 0 0 0 41.861378
-10.427807 -9.9864264 -1.583874 28 0 0 0 85.537788
2.6377931 -2.2390518 -2.4979117 74 0 0 0 64.150528
1.5464418 -5.0666375 -2.3700001 225 0 0 0 72.684029
-4.6395836 -28.613325 -3.910593 14 0 0 0 75.131393
20.764074 -29.120846 -0.72444731 9 0 0 0 65.720833
-6.2662787 6.1641011 1.6057115 435 0 0 0 12.503552
24.718502 -15.451519 -2.1096778 20 0 0 0 61.010689
-12.464377 -29.226845 -2.4273882 5 0 0 0 79.059456
0.15829031 -26.818642 -4.570652 15 0 0 0 77.191422
25.349405 -7.6637492 -2.6042864 29 0 0 0 55.246078
-1.2528807 -11.39448 -3.0829082 7 0 0 0 79.059456
-29.308064 7.8816462 4.1993093 4 0 0 0 2.7340801
-11.69362 -4.0609269 -0.6032902 42 0 0 0 92.515076
-0.53211659 5.5044456 4.2040443 61 0 0 0 22.092545
25.378984 3.0721407 6.5698218 23 0 0 0 44.978943
25.008499 -21.083807 3.0019445 6 0 0 0 60.035072
14.02385 3.8763883 -2.0710838 47 0 0 0 44.783615
-14.171955 -12.526125 -0.8058719 23 0 0 0 90.940414
-2.1376584 5.6695409 4.4768834 63 0 0 0 19.843328
31.876297 0.929892 10.444816 5 0 0 0 49.568768
-5.4885859 -12.347088 -2.4814241 46 0 0 0 80.8256
-12.957947 -14.591923 -1.4377819 18 0 0 0 85.835266
5.4478655 5.0842595 0.76957721 106 0 0 0 36.871937
1.6902353 4.5757995 -1.6571701 236 0 0 0 33.144577
24.407263 2.69156 -0.21526699 34 0 0 0 47.129856
10.193524 4.4229932 6.689743 70 0 0 0 44.978943
8.7801418 4.5445342 -2.344511 191 0 0 0 43.228416
24.214634 -13.926945 -4.7863078 31 0 0 0 60.524288
-3.5255432 -4.035944 -1.8864779 441 0 0 0 88.88269
25.075632 -23.304512 3.1005518 15 0 0 0 60.816383
10.064277 3.4433713 9.7420416 18 0 0 0 46.15168
24.595505 -17.54948 -2.2438762 16 0 0 0 61.990398
-15.117427 -4.7908659 2.5873065 15 0 0 0 97.719551
-14.708571 -6.4632859 -0.3911373 8 0 0 0 94.371582
-8.4816875 -4.1716685 -1.2680753 99 0 0 0 95.264259
7.9637051 -34.062469 1.8145934 8 0 0 0 68.859138
24.784046 -12.627433 -6.6312771 13 0 0 0 55.05024
-34.246918 -4.9074278 9.5987139 15 0 0 0 98.790909
2.7656326 -34.63678 4.3448586 9 0 0 0 76.016899
-14.462984 -5.5852418 4.2858434 8 0 0 0 95.160835
24.866957 -15.874599 -0.057640281 13 0 0 0 57.972225
25.893433 -11.139652 3.2495587 25 0 0 0 53.684479
-33.255112 1.3761791 11.383686 8 0 0 0 2.9294081
2.9015477 11.711732 0.84359199 17 0 0 0 30.698751
-6.3247962 6.1200275 -0.3042596 151 0 0 0 8.8857603
-5.6868978 6.0051742 3.0832996 133 0 0 0 10.150656
-1.9287981 -26.403898 2.1182995 15 0 0 0 78.473724
-4.0793815 5.6215591 1.7938899 391 0 0 0 13.678848
3.6858659 -31.61521 -5.5276494 16 0 0 0 75.429375
23.987669 -21.394445 -3.3748801 16 0 0 0 60.621056
-3.0624316 5.3258805 7.8032222 59 0 0 0 15.926272
25.533875 -5.3078985 -5.4041529 11 0 0 0 55.535358
-0.64204121 5.9898524 1.2097267 345 0 0 0 23.552511
28.126087 -0.38946545 4.6867795 4 0 0 0 50.454018
-31.865776 4.3742108 9.7220964 10 0 0 0 4.299264
-13.14509 -7.1509237 -0.78822225 14 0 0 0 89.861885
25.521637 -19.531067 4.2449503 10 0 0 0 60.816383
11.973658 3.8754406 -1.7356477 103 0 0 0 44.107521
24.967182 -8.5997267 -4.3032274 24 0 0 0 57.492992
-2.1524289 5.7807217 0.049233418 624 0 0 0 19.450369
-0.68803734 -6.0062652 -2.2755654 219 0 0 0 79.152382
20.246796 -31.118118 -0.7582773 5 0 0 0 66.402306
-14.482741 -5.3161678 4.1111946 32 0 0 0 97.030914
22.623838 -25.886686 -7.5204339 4 0 0 0 64.250366
8.6294479 5.3797874 4.3409691 27 0 0 0 42.739201
26.34413 -6.437314 0.077239051 25 0 0 0 54.269695
16.119091 2.8572116 4.9272265 15 0 0 0 45.669376
12.873837 2.9975233 6.7970858 25 0 0 0 47.915264
25.061264 -15.020817 1.093421 26 0 0 0 59.056129
10.944712 3.8676817 11.824541 8 0 0 0 45.956608
26.346903 -2.5268469 -3.2718613 46 0 0 0 50.548737
25.013721 -14.880869 -0.64689064 16 0 0 0 60.621056
-34.634876 -3.9063256 11.551826 7 0 0 0 99.289597
26.731352 1.4933329 -2.6889236 26 0 0 0 46.542847
-28.646311 9.1337585 6.3129854 5 0 0 0 2.0549121
-15.012983 -4.775249 3.3773897 29 0 0 0 97.719551
-5.655488 -2.1151493 -1.4967318 220 0 0 0 92.020737
-3.7637205 -25.491791 1.6081358 17 0 0 0 74.935806
-33.021461 2.3730595 11.491069 5 0 0 0 3.4206719
0.44687098 5.5139136 -0.90264022 562 0 0 0 28.348673
5.7314248 -32.224636 -5.0347495 13 0 0 0 71.313148
2.1132643 5.6520333 1.2939476 122 0 0 0 32.558079
-8.1195822 -28.785313 -1.5346946 13 0 0 0 80.138237
-8.5805426 6.1325812 6.3269196 53 0 0 0 7.4155521
6.8226457 -32.555771 -3.4857392 9 0 0 0 70.819069
12.460692 3.2583177 7.0395112 72 0 0 0 44.00563
26.837454 -0.8080768 -0.53963101 35 0 0 0 49.375488
7.6777787 -32.69508 -2.5560582 18 0 0 0 73.557503
27.346922 -5.9759774 4.6008472 19 0 0 0 52.115711
23.559795 -27.080458 0.7197994 9 0 0 0 65.720833
-7.4906178 5.2007146 8.5184336 33 0 0 0 12.98432
-12.943426 -9.9677792 -1.1022096 48 0 0 0 88.88269
15.199855 2.9000812 8.3303318 20 0 0 0 45.085697
12.603404 3.574909 1.0556428 112 0 0 0 47.523582
26.887865 -7.4981008 4.8455391 18 0 0 0 51.432705
-3.6073532 2.1361992 -1.2698718 302 0 0 0 4.1953282
26.92914 -3.6848886 2.2437665 31 0 0 0 49.375488
26.38493 -9.8102875 2.9772186 5 0 0 0 54.464512
22.14399 -27.331982 4.8506126 5 0 0 0 63.0784
2.8953507 11.74959 -0.93972343 29 0 0 0 30.791679
22.371237 -8.4267521 -6.4150944 8 0 0 0 58.082302
-32.058567 4.0711775 14.26199 5 0 0 0 1.2769279
19.733236 -26.948858 -7.3305073 7 0 0 0 65.621506
25.449701 -9.0105858 -1.0935878 22 0 0 0 54.358784
-3.0743954 -5.0573125 -1.9727671 316 0 0 0 82.787331
-2.0928488 -26.380474 2.360512 17 0 0 0 76.996353
13.108233 -11.086619 -5.3123822 22 0 0 0 60.327423
-8.3690729 -29.015732 -0.94746184 13 0 0 0 77.099266
-2.8239415 5.8642268 -0.81092817 122 0 0 0 16.21632
-9.1738214 -16.96434 -2.5278447 16 0 0 0 82.104576
2.3475533 7.0043907 1.5951066 55 0 0 0 31.966463
-3.5341451 6.0624208 0.12533063 441 0 0 0 15.047424
-4.8989425 -2.6759763 -1.6981237 261 0 0 0 89.665535
-13.227692 4.0423994 2.5009067 10 0 0 0 4.8857598
25.013678 -12.602736 -4.7399058 12 0 0 0 59.644417
10.778565 3.1289351 9.1759338 20 0 0 0 46.93504
-13.604817 2.8680129 1.648854 41 0 0 0 3.3203199
8.5360947 -5.4099336 -3.7552614 90 0 0 0 59.840256
11.994781 3.6089909 1.3399866 100 0 0 0 44.107521
26.000113 -6.5692658 -1.5637817 31 0 0 0 56.023041
7.055356 -6.9918985 -3.6308789 117 0 0 0 61.598721
26.578285 -3.7789872 -0.067144901 23 0 0 0 54.269695
-15.968785 -27.257994 -0.69587922 6 0 0 0 81.120514
6.9343252 -0.12956099 -3.0400496 111 0 0 0 49.763584
-5.8966417 -28.741941 -2.4579568 19 0 0 0 75.819519
1.2920402 4.974566 3.9583564 174 0 0 0 25.610241
3.9408541 4.0682154 -1.5376871 90 0 0 0 39.796223
26.217682 -10.075972 7.2425847 8 0 0 0 54.464512
22.585258 -26.607504 -5.8634362 10 0 0 0 64.447746
3.4754744 0.7590512 -2.4841039 291 0 0 0 48.305408
27.022366 -2.4219515 0.98842281 36 0 0 0 48.69632
-6.5087609 -28.257021 -3.2670321 22 0 0 0 80.923645
20.46236 -27.903343 -1.6926408 9 0 0 0 62.380798
24.887726 -12.747813 -5.2165251 21 0 0 0 55.05024
-11.350968 6.5794373 1.6128824 67 0 0 0 6.8323841
25.796835 -5.8468795 -3.8164411 37 0 0 0 54.164223
-3.6052272 8.8152304 1.1075084 7 0 0 0 17.389824
16.947693 3.1849229 -0.46542484 43 0 0 0 49.091072
27.611954 -3.6574471 6.9828362 5 0 0 0 53.878529
6.878757 -18.967554 -5.2298064 16 0 0 0 68.558083
-0.48899731 -25.443188 1.2207296 16 0 0 0 74.44429
25.999195 -25.673191 6.2256961 10 0 0 0 64.447746
-30.189064 9.8337421 5.068954 9 0 0 0 2.0549121
27.253946 -4.422276 4.6404629 21 0 0 0 51.235073
25.44286 -12.491463 2.2556374 17 0 0 0 59.252735
31.693596 1.3199455 9.6137276 6 0 0 0 46.15168
7.252017 4.2611256 3.0846345 13 0 0 0 43.228416
-11.860062 -29.846972 -1.2101889 11 0 0 0 80.238846
26.108564 -3.5204642 -2.6625211 20 0 0 0 54.269695
25.405582 -8.0941477 -1.6430041 34 0 0 0 57.000191
17.714777 -36.458515 -8.4753904 8 0 0 0 66.89843
19.736145 -32.286488 -3.7541046 10 0 0 0 63.756802
-3.6635091 5.029479 7.3369141 44 0 0 0 12.401152
26.912146 -18.682911 6.8005977 15 0 0 0 56.805634
25.358978 -19.772869 2.3336451 6 0 0 0 62.577152
7.6604438 -10.716084 -4.1227369 38 0 0 0 64.250366
-9.0641928 -2.95889 -1.0263144 70 0 0 0 94.371582
6.4697618 0.68715894 -2.8687077 174 0 0 0 49.482754
25.421343 -7.3262053 -2.9055803 16 0 0 0 56.610046
-3.6402118 -12.048242 -2.646215 65 0 0 0 82.000893
-7.5568228 -10.572728 -2.1634781 38 0 0 0 82.497795
24.190504 -17.278336 -5.1897788 18 0 0 0 62.092033
-9.1251211 5.6699128 9.425869 40 0 0 0 8.4953604
26.630388 2.2368593 -3.6248982 51 0 0 0 50.844418
-7.3342624 -19.774059 -3.0980246 6 0 0 0 81.413116
24.935764 -13.385364 -1.3564574 20 0 0 0 56.805634
-3.455406 -6.1295505 -1.9784361 281 0 0 0 82.301186
-34.555611 -0.8533147 8.2283649 4 0 0 0 99.092735
9.5653477 4.1751356 -2.0047135 111 0 0 0 44.200703
-9.7169189 6.1473236 3.650281 78 0 0 0 9.3670397
25.089079 -20.305243 2.3282576 20 0 0 0 62.88205
-8.4256363 4.4474211 -0.25349462 80 0 0 0 5.858048
-11.407378 11.834979 4.4682994 17 0 0 0 14.657536
9.6928091 4.8617611 2.8526592 120 0 0 0 42.739201
-54.528076 -11.978231 11.924876 6 0 0 0 99.180031
-7.0331411 -28.170691 -3.2533257 16 0 0 0 81.217537
19.49931 -28.424976 -7.5704575 10 0 0 0 66.115585
-34.013691 -0.11199078 9.8929358 9 0 0 0 0.49228799
1.6912125 -31.739775 -4.500701 14 0 0 0 71.703293
-32.496548 2.6592298 13.640332 10 0 0 0 2.1470721
-11.020089 6.2534523 6.9232607 24 0 0 0 9.0833921
-7.2475281 5.2846646 8.2679415 36 0 0 0 7.8051839
19.92926 -27.355871 -5.3480034 15 0 0 0 64.055809
-1.1552619 4.3344793 -1.2847669 284 0 0 0 21.010431
-33.130238 -6.3749442 3.3461211 9 0 0 0 94.869759
8.2036114 -27.254606 -5.8878016 17 0 0 0 69.445633
16.089655 3.5016384 -3.4879563 35 0 0 0 47.326466
12.243165 2.3285789 -3.5120091 30 0 0 0 49.482754
-10.623024 5.497951 12.373821 10 0 0 0 9.4766083
24.679478 -21.43544 0.72955912 16 0 0 0 63.468544
7.3271985 5.0807667 -2.3366709 49 0 0 0 39.600895
1.4839725 -27.525797 -4.4359446 10 0 0 0 74.838272
3.2655542 -0.59033024 -2.6463315 256 0 0 0 50.844418
-7.6898947 -6.1906223 -1.6380718 73 0 0 0 88.488449
-12.621669 -12.889008 -1.1170002 62 0 0 0 85.048576
-5.6720252 -25.434702 1.4201605 20 0 0 0 77.687553
-11.399896 -30.43646 2.8953223 8 0 0 0 83.087105
-13.075892 -0.25005096 1.1602495 59 0 0 0 99.180031
25.223553 -11.79248 -4.3383112 14 0 0 0 57.583874
-1.1767362 -31.432962 -3.7395649 8 0 0 0 77.884163
5.8875208 5.1842852 0.57061589 110 0 0 0 40.486912
-32.26886 5.5006552 8.6839819 4 0 0 0 3.1249919
16.441704 -6.2125368 -5.190249 17 0 0 0 54.945793
10.487897 3.6792896 2.0740216 102 0 0 0 46.45248
-3.0621216 6.4941945 6.9779158 75 0 0 0 15.139072
3.6961527 -33.837383 2.843128 10 0 0 0 73.950974
8.4147272 -3.1059062 -3.6357784 72 0 0 0 54.945793
6.6162162 -1.2047659 -3.1356609 119 0 0 0 53.970432
-6.5310168 -28.32324 -2.9636791 32 0 0 0 79.351044
24.818342 -21.120672 1.7454708 9 0 0 0 58.562561
25.09432 -13.319146 -0.58018768 24 0 0 0 59.840256
26.809919 -3.9370606 1.5717005 28 0 0 0 52.706047
13.39431 2.5010102 10.293871 16 0 0 0 44.783615
13.734918 -8.3132133 -5.0698237 21 0 0 0 59.449089
-31.954077 5.9807634 11.457705 9 0 0 0 0.390912
-10.392077 -14.419744 -2.0746543 18 0 0 0 82.591232
27.514202 -1.8779665 4.4830265 15 0 0 0 51.331585
-4.5108204 -18.778236 -3.5195835 12 0 0 0 76.315392
10.014213 -1.8929398 -3.7385941 70 0 0 0 55.535358
-7.8521423 6.0168953 5.7437835 33 0 0 0 9.5618563
-3.5736189 -3.3675878 -1.8513263 491 0 0 0 87.113472
25.906694 -4.5524483 -3.713443 27 0 0 0 53.384193
-11.408844 -3.4302843 -0.70313281 60 0 0 0 94.765823
5.3392148 -32.246964 -5.3583846 11 0 0 0 73.077507
24.026958 -24.40428 -0.63633204 16 0 0 0 63.164417
25.670113 -14.912903 5.2669382 11 0 0 0 60.327423
22.401602 -27.028318 0.027308073 8 0 0 0 61.403393
24.212284 -23.709948 -0.26484516 16 0 0 0 61.308929
25.155968 -17.324472 3.7889147 8 0 0 0 61.598721
-8.4337177 6.0727477 5.8095641 60 0 0 0 10.74048
22.811918 -25.533401 -7.1188993 9 0 0 0 62.488064
-34.35466 -5.1377106 9.6367626 9 0 0 0 98.70182
13.696344 -0.96174651 -4.1636152 29 0 0 0 53.579006
10.828695 3.4808621 3.772454 64 0 0 0 41.861378
-35.554916 -6.1041098 9.0898104 9 0 0 0 95.160835
-11.003346 1.5378395 0.038835246 172 0 0 0 100.16512
-8.8261375 -32.9137 5.6555738 4 0 0 0 76.800514
-4.4056163 5.2236142 5.9473066 80 0 0 0 16.70784
-2.9769669 -24.097448 -0.89044809 22 0 0 0 74.542084
23.712383 -26.513729 -1.0454605 11 0 0 0 65.523712
10.616491 3.065685 10.501941 10 0 0 0 42.933762
-11.418879 -30.447634 1.9263427 14 0 0 0 79.941376
-12.406631 6.522892 3.5816045 40 0 0 0 8.0010242
-34.783112 -1.9598742 7.8465447 9 0 0 0 100.16512
-8.9002695 -4.228879 -1.1988642 94 0 0 0 93.890816
-9.2478142 -3.8476522 -1.092625 72 0 0 0 93.103615
10.00994 -2.0210795 -3.7546868 48 0 0 0 55.731712
23.672239 -19.392073 -6.5944939 9 0 0 0 61.598721
-11.874934 -22.337311 -2.6212623 18 0 0 0 85.143806
13.348426 -6.4045749 -4.8271189 20 0 0 0 59.542526
-35.114914 -6.2842875 12.292888 9 0 0 0 96.639748
27.1572 -6.8151274 6.8106375 6 0 0 0 55.731712
-34.349743 -4.606636 8.744812 18 0 0 0 95.750145
4.4298582 -5.0953212 -3.0465415 164 0 0 0 66.115585
4.1286635 -32.457211 -0.48442918 14 0 0 0 73.663742
-32.045467 4.56357 13.570179 13 0 0 0 100.0727
4.4360619 19.731266 1.4159467 216 0 0 0 30.305536
-34.612404 -2.0761158 8.7640476 13 0 0 0 96.935165
6.2643723 4.4580588 2.6767054 171 0 0 0 38.631168
19.465799 -32.721184 -4.1358242 6 0 0 0 65.523712
-33.953484 -3.5977969 8.9562225 16 0 0 0 0.390912
5.5960259 4.4963222 3.2575066 158 0 0 0 39.214081
-1.3420924 5.4771404 1.9352875 603 0 0 0 23.07328
-32.608337 6.391974 7.64889 18 0 0 0 1.8624001
25.753704 -12.484218 2.575459 11 0 0 0 57.583874
23.300375 -25.243385 -4.4092059 7 0 0 0 65.328125
-15.073595 -12.373628 -0.59833777 42 0 0 0 89.957123
25.54653 -10.110358 -1.1666924 14 0 0 0 54.945793
7.0672474 -32.861206 -0.55587816 10 0 0 0 72.29261
-1.7571107 -10.456802 -3.0560775 7 0 0 0 75.131393
11.520535 3.3129992 5.4822288 49 0 0 0 47.129856
10.060127 3.6466818 5.9708562 38 0 0 0 42.542591
4.619895 6.0561342 5.0556369 5 0 0 0 36.963074
17.751392 2.737499 3.0418973 28 0 0 0 49.375488
-10.655245 5.5699673 11.00106 22 0 0 0 11.131648
27.165405 -2.7447982 3.0117891 32 0 0 0 51.920128
-13.439711 -19.715874 -2.116689 12 0 0 0 85.340675
22.588898 -15.891677 -6.7481756 14 0 0 0 57.297409
23.867233 -19.930767 -4.7864466 24 0 0 0 60.130817
24.355953 -18.468504 -3.1439862 9 0 0 0 59.347198
1.7383 -32.150505 -0.1008897 14 0 0 0 73.273598
4.353478 -32.5187 0.15671965 11 0 0 0 70.429955
-9.3991594 -14.886135 -2.2636559 13 0 0 0 83.175423
-34.204445 -2.7990851 12.411991 7 0 0 0 96.540161
26.053337 -5.3656626 -4.1435785 18 0 0 0 55.439102
3.6730084 3.3267059 -2.1241539 253 0 0 0 39.509762
-5.6566911 -23.183941 -3.6099284 28 0 0 0 79.548157
23.53231 0.56018102 -5.3831749 11 0 0 0 50.353409
2.514251 -31.950933 -3.9170117 24 0 0 0 76.016899
-3.8439062 -0.56274337 -1.5808051 210 0 0 0 95.356415
8.3988733 4.7791185 -0.65137398 128 0 0 0 40.773376
8.1780872 4.9446387 -0.15000169 38 0 0 0 40.291073
25.051928 -12.112694 -4.0339403 4 0 0 0 56.218113
23.877293 -27.545689 4.3273149 11 0 0 0 65.720833
24.625616 -26.081327 1.8299806 9 0 0 0 60.327423
-0.66987592 -26.01836 -2.3298428 16 0 0 0 72.969727
23.787151 3.007405 -4.9702835 14 0 0 0 47.129856
-5.5427556 -27.158634 0.13966373 15 0 0 0 77.388031
-11.155019 -31.625559 4.9423189 10 0 0 0 81.217537
12.213949 3.4991624 1.6574539 82 0 0 0 47.422722
26.227274 0.40155369 -5.0362754 31 0 0 0 52.018688
-4.814672 5.2605734 9.2806902 18 0 0 0 10.838528
-11.320415 -4.8881183 -0.89102137 44 0 0 0 94.480385
16.758371 -4.7239261 -5.0510874 14 0 0 0 53.579006
23.645481 -22.099276 -4.7108116 16 0 0 0 59.449089
-9.7343264 6.6431484 2.1251431 74 0 0 0 8.1031675
-0.5758574 5.9910927 -0.97278517 199 0 0 0 20.525312
0.8097707 -27.277819 0.76201874 10 0 0 0 76.800514
0.82360274 5.1841998 2.4996531 484 0 0 0 26.105345
6.7648935 -34.504471 2.866487 7 0 0 0 72.57933
27.324955 -3.8641682 4.3428626 20 0 0 0 52.510208
-3.9418173 -25.695196 2.6346204 12 0 0 0 76.604416
-1.089637 -25.057531 0.98469472 16 0 0 0 76.408066
23.940887 -25.844152 -0.67147803 14 0 0 0 63.664894
20.256777 -33.374928 1.116315 9 0 0 0 66.89843
-7.5787039 5.7286129 4.8952045 72 0 0 0 9.3670397
11.20769 4.0387015 -2.8245955 89 0 0 0 43.716095
3.4484503 -0.34217611 -2.6432877 259 0 0 0 55.05024
6.0736513 5.0732903 -2.1135006 208 0 0 0 39.796223
14.408385 -6.9830456 -4.9928627 9 0 0 0 57.972225
24.924654 -16.907711 1.71974 17 0 0 0 56.805634
1.6462816 -13.198406 -3.2576377 84 0 0 0 70.526466
-0.24151157 5.6576166 -1.2095143 152 0 0 0 21.401855
-5.3247252 -30.695938 -3.2375286 44 0 0 0 78.473724
-34.360245 -2.6014047 9.2168303 17 0 0 0 0.88448
7.2951179 -0.59129274 -3.1687505 114 0 0 0 49.091072
