# .PCD v0.7 - Point Cloud Data file format
VERSION 0.7
FIELDS x y z intensity normal_x normal_y normal_z curvature
SIZE 4 4 4 4 4 4 4 4
TYPE F F F F F F F F
COUNT 1 1 1 1 1 1 1 1
WIDTH 955
HEIGHT 1
VIEWPOINT 0 0 0 1 0 0 0
POINTS 955
DATA ascii
24.758108 -22.300287 6.3598151 12 0 0 0 60.985855
27.483484 6.8366828 2.5498948 18 0 0 0 46.979328
11.747176 -28.883015 10.772644 9 0 0 0 68.237312
26.502232 6.1896973 -2.9455431 9 0 0 0 47.460865
25.169992 -10.638967 0.49321917 13 0 0 0 54.226944
-0.98707998 -13.543156 3.9608481 38 0 0 0 77.347588
3.048434 -20.864288 13.604938 13 0 0 0 75.675652
27.624104 -7.8616304 12.880383 5 0 0 0 51.584255
-7.8049345 6.6620965 3.4153395 102 0 0 0 14.55232
-9.8548279 1.649938 -1.9065741 77 0 0 0 0.59263998
-8.4285364 7.0068398 3.780916 121 0 0 0 12.781568
3.6327834 -4.9144678 -0.010964047 313 0 0 0 64.219391
-5.4314575 -9.7851505 2.5350018 37 0 0 0 81.160706
27.225327 5.4873667 1.7158457 17 0 0 0 44.624386
8.9413548 4.2711878 -4.3193674 124 0 0 0 40.994049
-3.7110434 -26.895777 19.912565 5 0 0 0 80.382462
1.9884362 4.6554008 -3.2117403 531 0 0 0 29.101568
27.000534 -10.682011 3.4219451 22 0 0 0 53.740288
27.106083 -7.8105302 3.9276457 7 0 0 0 56.862976
9.5238771 9.3326044 6.2719069 58 0 0 0 38.046207
1.5678461 10.085254 6.1444907 10 0 0 0 28.219393
8.0075808 -28.197184 13.228131 4 0 0 0 71.662849
9.0376091 7.8197546 0.027573515 107 0 0 0 37.956863
12.108178 -7.6472545 0.02556783 23 0 0 0 58.338558
-1.7996594 7.9655414 1.1184303 18 0 0 0 19.464705
-1.8774607 4.6355162 -3.2101235 213 0 0 0 19.965183
27.567486 -14.279742 5.8811631 22 0 0 0 58.433537
-11.858141 6.9712887 3.5638885 19 0 0 0 11.694592
14.107895 -22.596384 6.3411555 19 0 0 0 65.493759
2.9239781 -23.191586 12.379453 6 0 0 0 72.446976
-32.273335 2.3363135 5.1586809 7 0 0 0 2.6501119
9.990983 6.7976303 1.3743246 89 0 0 0 42.76685
6.3461742 0.91176468 -3.135767 139 0 0 0 49.032703
14.032986 2.1500008 -4.3434701 18 0 0 0 47.265537
-12.290386 0.14915852 0.038477406 67 0 0 0 98.246399
27.255051 -10.154311 4.9182925 21 0 0 0 53.348606
27.451572 -14.840836 5.041007 14 0 0 0 55.597569
26.686848 1.5456746 -3.6146123 41 0 0 0 51.781376
26.996218 -2.5167725 2.0328307 17 0 0 0 50.796543
-12.623082 -22.107428 9.540658 12 0 0 0 82.917885
2.5557795 6.2158303 0.55959111 6 0 0 0 31.954432
26.93708 -2.689034 -1.6544834 24 0 0 0 49.521919
26.488029 -4.8008938 -2.0952215 9 0 0 0 52.36787
-4.5003538 6.9077296 3.515244 138 0 0 0 17.40288
27.314045 -0.99662435 5.9479489 22 0 0 0 51.280128
26.979588 8.6865959 2.3770883 17 0 0 0 47.460865
26.763922 -5.489944 1.2325106 24 0 0 0 55.692799
16.775238 4.1757307 -5.4103131 18 0 0 0 47.460865
27.891407 0.90573525 5.9197373 9 0 0 0 51.781376
12.831506 7.3843093 2.4898221 51 0 0 0 42.373375
-10.473349 4.6616845 -1.0478451 135 0 0 0 7.8548479
-5.3941178 -25.226683 10.513488 6 0 0 0 79.595009
28.638054 -17.021463 13.813762 8 0 0 0 57.556225
-13.611784 0.55863506 6.1922216 8 0 0 0 1.577984
11.396755 -29.014509 10.773149 8 0 0 0 68.432381
13.592843 -0.021179637 -3.4471552 25 0 0 0 48.05043
17.650621 6.9149971 0.77221328 38 0 0 0 46.480129
30.788778 11.721425 7.9209218 11 0 0 0 46.480129
24.283171 3.8995857 -5.9776373 13 0 0 0 45.604351
27.419081 -13.082081 4.2709842 15 0 0 0 57.946625
27.343676 -3.3538015 6.9579382 17 0 0 0 54.226944
-12.524916 -1.0856769 0.034766942 31 0 0 0 96.684799
2.4110413 -22.901148 10.315138 12 0 0 0 76.174339
9.3853998 4.2137804 -4.5119486 99 0 0 0 41.389057
27.803312 -7.3483467 11.241914 10 0 0 0 51.388416
-9.5153589 -8.2717848 2.3754394 29 0 0 0 86.731262
27.545603 7.2091684 2.944242 26 0 0 0 45.211647
28.079718 -14.147574 11.352705 8 0 0 0 56.471809
-34.134716 -2.8953252 8.1319475 6 0 0 0 98.246399
24.787687 -28.31048 10.267686 5 0 0 0 66.081024
-7.4523787 3.8978789 -3.1159277 41 0 0 0 10.21952
27.246347 3.604219 1.1990757 29 0 0 0 47.265537
27.625004 0.33940488 6.118762 24 0 0 0 50.502655
27.75267 -11.028127 8.1071339 7 0 0 0 53.543938
-7.1106968 7.1896119 4.5249748 87 0 0 0 11.207168
-4.9896145 -17.078348 5.7494545 11 0 0 0 77.542145
-11.995986 -8.2847157 2.7927535 5 0 0 0 88.481537
6.5371585 -22.573954 7.1805458 15 0 0 0 68.336128
-4.9729495 -11.880896 3.365298 24 0 0 0 80.967171
16.256174 7.2094088 1.909395 27 0 0 0 44.136192
6.8311448 -28.296061 12.941158 14 0 0 0 74.013954
13.325022 -6.452837 -0.78536046 34 0 0 0 58.14349
-5.7289038 7.1974797 3.4789491 67 0 0 0 14.3552
-12.366838 -15.175784 7.0728364 27 0 0 0 88.785667
27.926329 -10.721592 9.324028 15 0 0 0 54.908161
14.382386 6.3489738 -0.22747855 77 0 0 0 41.192192
16.155693 -10.090201 0.54842269 17 0 0 0 61.380352
2.3179264 6.3997021 0.82770717 274 0 0 0 32.836609
27.291586 -6.0124335 6.4258466 14 0 0 0 50.993153
-8.8982363 4.0773001 -2.5734208 156 0 0 0 9.4336004
32.223286 6.5932431 9.9816418 10 0 0 0 45.800194
27.394659 -6.7619143 7.514626 14 0 0 0 52.955135
8.4177332 5.9881368 -4.4547715 32 0 0 0 39.9104
14.031097 1.6742367 -4.2038822 23 0 0 0 46.194687
27.033989 3.6781178 -0.47262302 25 0 0 0 48.834816
27.363649 4.7539468 -0.74734008 16 0 0 0 49.8176
26.977322 1.1656806 -0.66230363 28 0 0 0 50.304512
-3.5887012 -16.003412 5.04005 10 0 0 0 78.12429
27.564392 -1.3706089 8.8980198 15 0 0 0 51.388416
-13.877279 -9.2620115 6.8203082 27 0 0 0 88.675842
-3.4513688 -3.7079959 -0.33598232 337 0 0 0 86.633469
18.662075 -6.5752854 -1.1908349 15 0 0 0 57.946625
15.66655 7.2900524 1.8867171 30 0 0 0 43.838463
-7.1061192 6.5047541 2.8478427 148 0 0 0 13.459712
20.186708 -5.6551418 -1.7374088 15 0 0 0 53.832191
1.6380522 -5.5561705 0.54561156 252 0 0 0 69.900803
23.496166 -19.612701 4.7020621 10 0 0 0 58.825214
26.507055 -4.6365623 -2.0835848 26 0 0 0 52.262657
6.6987333 -3.5796773 -1.0366299 232 0 0 0 57.165825
-11.16538 7.3366084 5.1924014 49 0 0 0 11.104512
15.994894 9.3622265 7.6897502 23 0 0 0 38.739201
28.158947 -9.1802788 13.774546 8 0 0 0 57.256191
-4.9492311 -0.49516556 -1.4764068 227 0 0 0 96.399101
26.518126 2.4827394 -4.8862615 46 0 0 0 51.280128
-4.5501499 4.6824727 -2.392873 466 0 0 0 12.088832
26.722263 -3.7745597 -1.0229542 14 0 0 0 53.243649
9.2869902 8.352766 3.019135 75 0 0 0 38.933502
-6.5039363 -3.84515 0.099766627 170 0 0 0 94.243324
25.244991 -20.326706 10.737166 5 0 0 0 63.238144
0.64167142 -5.9265456 0.58140135 358 0 0 0 72.839935
27.568335 -5.5338831 7.9877806 13 0 0 0 50.60096
2.297483 4.7532463 -2.9798887 473 0 0 0 29.886463
-3.9024076 -9.0123634 2.1896396 109 0 0 0 79.595009
3.2318969 -3.3004186 -0.82737523 541 0 0 0 60.397823
-6.8264885 -28.317968 11.66354 6 0 0 0 81.64608
-7.6103773 -2.657038 -0.26885781 116 0 0 0 97.377022
-10.617963 -11.042337 4.7312756 59 0 0 0 90.048515
28.188574 -9.2056389 12.697331 10 0 0 0 53.93536
11.872179 -2.1437089 -2.3998628 40 0 0 0 55.498497
24.699921 -23.722296 6.9311709 6 0 0 0 59.901184
-34.004883 -1.8285235 8.0869055 11 0 0 0 98.73587
-9.7994452 -15.595359 5.9173098 33 0 0 0 83.604736
27.78533 -11.822134 8.1534204 11 0 0 0 53.93536
-32.768379 1.0490859 4.4594259 28 0 0 0 100.09216
26.69718 -11.206757 0.99601907 7 0 0 0 58.825214
28.964684 2.8009539 9.7490072 19 0 0 0 49.032703
8.8759384 5.7499943 -0.92423564 153 0 0 0 43.357185
28.228863 -15.310827 13.909638 11 0 0 0 55.205887
18.261509 8.1635141 3.4012721 21 0 0 0 42.463745
16.711992 5.7188144 -1.7304693 40 0 0 0 45.800194
8.9897604 -27.976398 13.586355 9 0 0 0 69.414909
16.568785 9.3437071 6.9676871 41 0 0 0 43.942402
15.487879 -6.6774235 -0.87011176 18 0 0 0 57.452545
10.287915 -2.6841643 -2.0113184 74 0 0 0 55.105282
12.371075 6.9764071 1.4898602 80 0 0 0 44.136192
9.8201723 -8.8186626 0.97167486 28 0 0 0 64.12365
6.6429853 -28.597212 12.309797 15 0 0 0 69.121536
25.339664 -22.758436 13.151171 9 0 0 0 64.12365
6.5763988 -25.329205 9.0870247 6 0 0 0 70.398209
26.778803 -0.93240166 -2.8315659 22 0 0 0 48.545792
17.022238 4.3623662 -5.0398488 34 0 0 0 44.136192
-33.555416 1.1006372 7.9726429 15 0 0 0 100.09216
-3.0938482 -26.293934 13.929593 7 0 0 0 78.12429
-11.631273 1.1505971 -0.91814548 108 0 0 0 2.84672
-12.445539 4.5817857 -1.1372504 114 0 0 0 5.2088318
15.890912 4.2579603 -5.118587 49 0 0 0 47.175678
-13.188398 -4.9997549 5.2949476 52 0 0 0 97.074692
-9.4911442 -4.6373177 0.77409685 48 0 0 0 93.957123
-3.6902404 5.337625 -3.9388542 3 0 0 0 12.584192
10.55344 -9.2413836 1.0337918 24 0 0 0 63.928577
2.0181088 3.146158 -2.2098687 19 0 0 0 33.4272
-11.933213 6.6159945 3.1702909 83 0 0 0 8.1602564
13.147491 -28.932516 10.623327 8 0 0 0 69.217537
1.2883501 -21.470455 11.00958 13 0 0 0 76.958206
-3.2884519 -27.03994 16.50577 15 0 0 0 76.46106
27.108307 -2.3186209 -1.2561592 27 0 0 0 53.93536
-33.227146 1.0704587 6.6605434 12 0 0 0 98.542084
27.191404 -10.627234 2.0015657 6 0 0 0 53.740288
24.531866 9.4679461 3.9695203 31 0 0 0 44.919552
-13.328621 2.0752304 -0.1292973 9 0 0 0 2.25792
15.02692 1.2566037 -4.0922923 21 0 0 0 49.914112
26.756792 3.8621366 -2.7772861 20 0 0 0 47.265537
-6.4872084 6.8714294 2.7063515 125 0 0 0 16.124928
23.813984 5.789197 -3.5405858 38 0 0 0 45.800194
25.192764 -20.294041 12.541419 5 0 0 0 63.238144
-6.0655298 -12.456691 3.8262231 24 0 0 0 80.272385
-9.4696894 0.99745888 -1.6851338 62 0 0 0 2.84672
23.956224 7.8518209 -1.6185606 34 0 0 0 47.564545
-4.2050343 7.4373255 1.8979164 226 0 0 0 16.616192
-5.3851471 4.1252103 -2.8168383 290 0 0 0 13.06752
-10.483541 0.13298227 -1.0701302 192 0 0 0 0
-8.260747 2.5689924 -2.4694762 86 0 0 0 2.5594881
-11.544923 8.6860332 8.6504631 27 0 0 0 10.714112
8.3104792 -6.3366222 0.0025777605 107 0 0 0 59.706879
-2.2888131 8.1031046 2.0341482 70 0 0 0 18.676737
5.0653925 -0.61406815 -2.4431934 261 0 0 0 49.717758
27.709822 -2.1437724 10.823256 10 0 0 0 50.108673
-10.435039 -0.81472403 -0.72936636 114 0 0 0 99.894272
-5.7158318 -14.070091 4.4829807 12 0 0 0 83.995392
15.465099 -5.0995684 -1.5569559 20 0 0 0 56.081665
27.592459 -2.0754197 12.01529 15 0 0 0 51.672832
-6.3230305 -14.063771 4.5728612 16 0 0 0 84.582909
6.5196657 4.815856 -3.3666236 204 0 0 0 37.849857
-2.9725709 -22.646393 8.1914101 12 0 0 0 76.65715
25.325886 -27.101019 13.431721 5 0 0 0 60.593407
26.211039 -18.179661 15.030785 4 0 0 0 58.629375
-3.5131786 8.5888643 1.9324884 5 0 0 0 20.054785
27.174707 -2.255594 5.5387897 31 0 0 0 53.636353
-13.71036 -4.8421178 3.8670044 9 0 0 0 97.377022
11.059888 -6.9148817 -0.10904182 46 0 0 0 59.80928
0.12967008 4.0974522 -3.5226078 24 0 0 0 28.904703
-8.4098377 7.4167471 5.1928306 28 0 0 0 13.374464
-0.98534083 -7.6832271 1.4835664 195 0 0 0 78.223869
7.9920397 -6.487011 0.10185624 92 0 0 0 58.629375
25.088955 -26.294127 11.154741 8 0 0 0 60.490238
-1.8783307 -25.135782 14.701392 13 0 0 0 79.201279
-10.478954 -10.628997 5.5808458 53 0 0 0 88.675842
-3.0415797 -2.8861167 -0.72189254 474 0 0 0 89.173759
-10.64674 7.3715053 5.2791295 45 0 0 0 9.92768
4.022243 6.1023536 -3.168901 105 0 0 0 37.260544
-34.224964 -3.9855387 4.6780176 10 0 0 0 97.764099
-8.4765825 -31.109083 12.961723 20 0 0 0 82.138878
7.9160633 -5.5037441 -0.34194839 128 0 0 0 57.452545
27.912357 -7.1906037 4.6960382 6 0 0 0 53.243649
11.405258 -1.624796 -2.5508747 46 0 0 0 51.781376
26.756237 -8.5734138 3.4231822 23 0 0 0 52.656384
28.038996 1.0825826 5.9656034 6 0 0 0 51.672832
27.556635 7.7490296 5.1752415 19 0 0 0 47.95776
-7.7591515 -7.7258811 1.9102958 44 0 0 0 87.21946
8.5067263 -27.073441 18.795626 6 0 0 0 69.414909
-12.605253 4.3460922 -1.5626482 65 0 0 0 7.9639039
-6.01156 -1.4643822 -0.95763665 202 0 0 0 95.80928
4.1458616 6.2214808 -2.9589255 56 0 0 0 33.918976
23.581135 5.3187957 -6.0118308 37 0 0 0 46.194687
-1.7981341 8.2471943 2.210376 5 0 0 0 22.713856
28.175959 -9.7475309 13.830165 11 0 0 0 57.556225
5.5774913 5.7739291 -2.2792795 84 0 0 0 35.094784
9.7302303 0.88092142 -3.4441149 59 0 0 0 46.588417
10.025664 6.5935407 0.90973669 83 0 0 0 41.478657
28.441652 -14.432602 15.259942 6 0 0 0 56.383488
27.894154 -12.95659 9.0956402 11 0 0 0 57.649406
26.824181 -0.11091255 -3.4004321 25 0 0 0 51.19104
-9.7693291 -15.252 6.0780082 23 0 0 0 82.138878
28.305901 -14.814382 14.536376 7 0 0 0 60.005375
10.035494 -4.7101407 -0.98060989 95 0 0 0 56.383488
-13.379406 -10.050984 6.3357878 20 0 0 0 91.028221
8.4070196 5.5447369 -5.1856093 23 0 0 0 42.268673
-4.4308286 -9.2818117 2.3069048 52 0 0 0 80.1856
27.520075 -6.5752854 9.9984188 15 0 0 0 55.990273
-1.37638 -6.5778618 1.040996 243 0 0 0 77.930496
-9.392417 6.7123485 2.6602118 59 0 0 0 11.497728
0.37552726 -9.8987331 2.5617666 59 0 0 0 72.357887
9.6031561 -27.246801 15.155144 10 0 0 0 68.92646
26.713022 7.1782637 -0.86951619 27 0 0 0 43.746559
27.513496 -21.025772 7.7876143 8 0 0 0 62.845184
-12.502194 -13.648487 5.6962199 24 0 0 0 89.65683
-3.6311622 -9.745018 2.5168142 68 0 0 0 83.50029
4.714571 -23.757824 12.769378 15 0 0 0 71.272957
28.323666 -12.838332 13.605704 7 0 0 0 54.029312
11.073375 7.0111752 1.3150666 44 0 0 0 38.637314
-10.312586 -3.5594285 0.41131338 83 0 0 0 94.345726
26.648914 -6.6369705 -0.59364998 21 0 0 0 51.781376
29.038786 2.3860812 9.4031429 14 0 0 0 50.891006
-10.981734 -5.8056765 2.1227148 35 0 0 0 93.463043
10.115248 -26.808016 16.548325 6 0 0 0 70.293251
27.045139 -2.7079911 -1.9628788 24 0 0 0 51.086594
-9.1087084 8.7791014 8.065484 49 0 0 0 10.908416
-5.9893074 -0.28007305 -1.5455568 26 0 0 0 2.25792
-12.972103 6.1630144 2.8343868 73 0 0 0 10.21952
24.961067 -3.9056904 -1.6390018 14 0 0 0 50.40435
14.711968 9.3194208 5.9936709 29 0 0 0 39.9104
9.5629206 -3.3004446 -1.5718957 112 0 0 0 57.846016
27.070498 3.6970246 -4.5398955 5 0 0 0 49.032703
-4.2573147 -2.0511589 -0.92316008 340 0 0 0 90.933762
29.678167 -9.9427547 14.85245 5 0 0 0 55.692799
9.014554 2.3677578 -3.9291792 66 0 0 0 47.265537
-9.4169436 6.7179437 3.4546454 113 0 0 0 10.02368
-33.80077 -2.6897249 11.218762 5 0 0 0 99.894272
28.428446 -17.359665 13.791803 11 0 0 0 57.74976
-5.7775927 7.9772868 5.5456929 35 0 0 0 15.142656
-1.3518137 -10.777162 2.8647285 72 0 0 0 74.996994
13.728232 9.2409382 6.213572 40 0 0 0 42.661121
2.1199107 10.569095 -5.8399091 9 0 0 0 25.963776
14.13287 7.3583412 2.6083641 53 0 0 0 43.05331
27.76972 -4.7667074 11.707619 11 0 0 0 54.908161
-10.50191 -3.6438541 1.0963646 120 0 0 0 92.788483
-13.281634 -4.9211726 6.2903399 16 0 0 0 95.613693
25.789637 4.8165088 -5.9808683 22 0 0 0 49.914112
-33.273499 -4.4340501 10.238605 16 0 0 0 95.905792
-5.7713089 -4.8705726 0.44516265 133 0 0 0 91.618813
27.933918 -6.8104153 10.808766 23 0 0 0 52.759808
26.868572 0.57342142 -3.7152448 46 0 0 0 52.36787
26.969631 1.9907774 -0.9323892 36 0 0 0 51.388416
1.0014688 5.1427011 -2.8156269 510 0 0 0 31.059969
14.221463 8.5365019 4.1451349 35 0 0 0 38.833408
12.245168 7.3390203 2.4370322 56 0 0 0 42.071297
11.574625 6.4330664 0.42428246 93 0 0 0 41.192192
23.737316 6.1026025 -3.8266175 42 0 0 0 47.175678
27.093056 -2.5807881 0.70763659 22 0 0 0 50.891006
-6.0019679 -28.133137 13.780853 9 0 0 0 77.930496
33.583488 -7.6052117 6.1144924 13 0 0 0 51.19104
10.057638 2.1462319 -3.9701414 55 0 0 0 49.623039
-1.6830852 7.8857551 -5.3553572 16 0 0 0 24.677631
28.420681 -15.606071 15.025535 8 0 0 0 58.629375
25.587601 -20.789469 18.110079 6 0 0 0 58.041599
8.7971544 3.3075664 -4.2962632 57 0 0 0 44.03635
7.6328712 5.8031874 -1.9552053 83 0 0 0 39.127552
-5.4027591 5.1674247 -0.44372499 373 0 0 0 13.459712
-3.6817558 4.9922862 -3.7748072 9 0 0 0 12.088832
-8.6971321 -4.7268233 0.71961671 82 0 0 0 93.267967
6.4174523 -2.9809449 -1.2945099 303 0 0 0 56.277504
-8.1716795 9.1051388 8.4600811 27 0 0 0 13.658368
27.461309 -18.477873 5.2036805 11 0 0 0 57.165825
-9.6053076 8.2117014 6.8330207 39 0 0 0 11.60064
14.972544 4.2676134 -5.0758281 48 0 0 0 48.545792
-33.490273 -4.9251361 8.5142813 11 0 0 0 95.711235
0.90857887 -21.694038 11.557762 10 0 0 0 73.818878
-14.054793 -0.23537683 3.3566794 13 0 0 0 99.31469
6.6280599 6.3461642 0.20400523 208 0 0 0 35.487488
-4.4136624 8.6757841 8.2859764 38 0 0 0 19.269119
26.461548 -5.8084784 -2.1735318 20 0 0 0 52.955135
27.082798 -2.159255 3.754087 32 0 0 0 48.935936
3.675981 1.097932 -3.0176592 179 0 0 0 48.741631
-10.950075 4.7550554 -0.78662145 112 0 0 0 4.618752
27.701006 2.9975109 6.747746 13 0 0 0 47.368961
-13.568048 -10.036211 5.4528451 18 0 0 0 91.128067
13.527358 -26.664032 15.653602 8 0 0 0 66.775299
-10.643266 3.239275 -1.9063205 132 0 0 0 7.37152
27.515209 -20.534977 9.5377817 8 0 0 0 62.647041
27.683998 -14.939932 7.9050059 14 0 0 0 57.059586
-8.5541592 -3.0836408 0.0089928769 87 0 0 0 92.592384
-12.043091 3.0059316 -0.9378348 100 0 0 0 6.6769919
-8.9219151 4.3840861 -1.8808123 136 0 0 0 8.3558397
9.3591976 1.3301103 -3.5330834 60 0 0 0 49.032703
-2.9675734 8.1270628 2.1371219 34 0 0 0 22.222591
9.2927246 -4.7919874 -0.83062428 126 0 0 0 55.402496
11.14141 -26.88582 15.749323 11 0 0 0 66.27507
26.850151 4.0626311 -3.4798136 29 0 0 0 50.304512
11.87175 -27.208965 14.950831 5 0 0 0 71.181564
28.316322 -10.347641 12.440666 11 0 0 0 56.1856
-9.4798994 -23.497059 9.7067442 16 0 0 0 79.102211
-5.5005755 -28.286997 13.782856 12 0 0 0 77.635071
23.863453 6.9820976 -2.9063003 32 0 0 0 48.154369
-5.685266 4.6746197 -1.5124817 383 0 0 0 10.519296
-10.090172 6.5797329 3.3596222 63 0 0 0 10.908416
2.956089 -22.950848 10.532697 6 0 0 0 74.112
-9.6524124 -21.848864 8.8376808 15 0 0 0 81.253372
-11.083794 5.6915469 1.4159307 76 0 0 0 9.0388479
-5.8280034 4.3817291 -2.1710827 254 0 0 0 12.979712
-34.581261 -8.1882172 8.9004955 4 0 0 0 94.345726
-6.3664517 6.9293032 3.3617058 276 0 0 0 14.842624
14.298018 -7.3361712 -0.52568495 16 0 0 0 55.402496
-32.554314 4.8149471 12.023852 6 0 0 0 1.183744
26.948092 -2.633374 -0.94808245 33 0 0 0 52.563713
-6.1974573 -27.009115 16.343641 7 0 0 0 81.64608
-29.497561 6.1576834 1.2343385 8 0 0 0 2.953728
-33.742302 -6.2593784 7.6980405 7 0 0 0 98.246399
13.136754 2.9282668 -4.623035 35 0 0 0 44.624386
-13.312633 -5.2543573 4.8978195 59 0 0 0 93.657089
28.367188 -11.520255 12.270704 15 0 0 0 58.433537
-30.251598 -1.3058314 3.0182481 33 0 0 0 97.377022
-1.5397363 -4.9122462 0.27333772 474 0 0 0 81.056511
12.689346 -27.865334 13.512368 12 0 0 0 70.883331
7.0859852 -22.628679 6.9242153 11 0 0 0 69.611008
-6.0449595 -7.0581398 1.4133171 75 0 0 0 89.06778
-6.6559124 6.1614509 2.0792482 210 0 0 0 15.038208
28.330341 -13.146744 14.291857 8 0 0 0 59.218689
-9.1551743 8.5207844 7.2065701 56 0 0 0 15.53792
0.53732544 8.3071442 1.6780028 10 0 0 0 26.942465
-2.3134704 -8.2183456 1.8621622 140 0 0 0 77.438461
-4.3225503 4.2910514 -3.270314 212 0 0 0 15.142656
-0.13007781 -21.704565 11.591401 9 0 0 0 74.602242
-8.264926 5.1302061 -0.61135519 349 0 0 0 8.5537281
-10.49144 -5.0698643 1.5544457 107 0 0 0 92.491524
10.314168 7.2295151 2.4205334 66 0 0 0 39.323647
1.7541281 -11.724322 2.8837876 29 0 0 0 72.162048
-33.915668 -1.3887955 8.5621042 8 0 0 0 97.377022
1.4240599 5.0956907 -2.9953196 8 0 0 0 28.811775
2.6104245 8.8690472 2.8599453 4 0 0 0 28.709633
-12.29289 8.6599865 8.4256496 20 0 0 0 13.459712
2.1533403 4.9130616 -2.6459291 486 0 0 0 29.29792
-12.442072 -17.023722 7.1268549 19 0 0 0 83.111427
15.209216 4.8374515 -3.6324906 37 0 0 0 43.16032
-2.4906762 -26.411057 12.059481 10 0 0 0 79.397118
0.7235263 5.597971 -0.88311869 659 0 0 0 28.022783
-3.3050032 9.6435642 7.6469092 40 0 0 0 22.909952
11.055175 -29.169052 10.784072 4 0 0 0 68.627708
-3.2234433 3.2716515 -3.2134187 98 0 0 0 9.7310724
-7.4754477 -1.2824438 -0.91720968 136 0 0 0 0.395008
4.3392234 -25.365187 10.164617 15 0 0 0 73.428482
1.3410105 5.59552 -0.93127263 764 0 0 0 29.689856
16.344036 9.2892342 7.427947 28 0 0 0 40.599041
0.37049025 -4.1133475 -0.21063049 598 0 0 0 74.696701
28.347685 -17.747835 13.414058 10 0 0 0 59.612926
-12.309839 7.6738982 6.2284327 26 0 0 0 12.386816
-29.369158 7.4884267 -1.5922064 12 0 0 0 3.438848
27.324915 0.95424074 -2.3758433 7 0 0 0 52.065536
10.283681 -9.4554482 1.1557515 25 0 0 0 62.750465
8.5311613 1.2480216 -3.4855769 73 0 0 0 45.700096
-32.510487 2.6335368 4.8805704 11 0 0 0 99.31469
10.574617 -6.7969365 -0.10862276 42 0 0 0 60.005375
27.636421 -6.3180237 11.951453 8 0 0 0 54.128895
27.534801 -16.72579 6.360486 9 0 0 0 57.946625
14.313434 5.6833072 -1.6469226 62 0 0 0 46.588417
-7.5008936 6.0996914 1.9400282 150 0 0 0 10.908416
7.9771738 -29.130371 10.903493 15 0 0 0 68.530945
-6.5067677 -1.1647086 -1.0228001 139 0 0 0 96.79155
0.74137986 -5.6140108 0.44725373 323 0 0 0 75.586044
11.461319 8.1994982 3.794421 52 0 0 0 42.268673
25.18314 -23.661722 11.671567 10 0 0 0 62.845184
8.2975292 4.8376975 -3.5342417 110 0 0 0 39.618305
13.452546 7.0167565 1.1847615 23 0 0 0 41.586689
2.8748362 6.2449703 0.39811268 437 0 0 0 29.493248
-12.800947 7.1594701 4.9784126 45 0 0 0 8.3558397
-13.080303 6.5235329 3.6762953 56 0 0 0 10.61504
-5.7984118 -11.960466 3.5007501 34 0 0 0 81.841919
1.3943268 -28.347855 11.305225 14 0 0 0 75.389954
27.855335 -13.674429 8.282958 15 0 0 0 54.814465
2.4523242 -3.6796207 -0.58397013 575 0 0 0 63.433727
28.085117 -19.232676 8.8483162 14 0 0 0 57.165825
-14.001999 -10.157695 5.1059594 5 0 0 0 88.094208
27.38419 -10.011018 7.5584087 15 0 0 0 54.712318
27.235477 8.3959932 2.7029083 20 0 0 0 46.089985
27.544285 -21.340508 6.3525724 4 0 0 0 61.380352
-4.4610534 5.2428203 -0.83404934 275 0 0 0 16.616192
28.533424 -10.994204 12.287765 4 0 0 0 58.14349
-10.632509 3.3603284 -2.1408689 143 0 0 0 4.3243518
-9.5828419 0.37274829 -1.431689 94 0 0 0 3.438848
-14.102511 -0.96201348 1.4263921 13 0 0 0 96.987648
11.439764 7.1486955 2.1513138 66 0 0 0 43.357185
-14.017814 -5.6305957 3.5533414 10 0 0 0 93.569283
-3.9320021 4.6647215 -2.4499385 431 0 0 0 16.616192
27.460979 1.9813401 4.5134473 22 0 0 0 51.19104
-3.9680567 8.1130505 4.2066727 98 0 0 0 16.025087
27.457579 -1.9742676 10.064808 12 0 0 0 53.348606
14.865957 -0.3880631 -3.3807888 34 0 0 0 51.584255
6.2769284 -25.300234 9.4214773 11 0 0 0 68.92646
4.1079493 6.7936802 -3.1138945 72 0 0 0 33.229824
-12.143706 -1.5691693 1.0792112 74 0 0 0 97.570305
8.1393728 -5.8257418 -0.19500147 106 0 0 0 62.357506
-7.9393797 6.1481667 2.2219894 120 0 0 0 13.658368
-3.971669 8.1080027 6.0961003 67 0 0 0 21.038849
27.349991 1.8867052 3.1107011 24 0 0 0 51.280128
27.348114 -10.589019 2.4827876 6 0 0 0 58.338558
27.986345 -13.29268 9.9735365 7 0 0 0 54.518272
-4.8726435 -27.660498 15.197347 8 0 0 0 77.347588
-7.3747535 6.16816 2.1611061 166 0 0 0 14.250752
-33.757454 -3.9929461 13.286903 8 0 0 0 1.970944
27.657587 -18.158377 7.5179386 12 0 0 0 61.664257
-14.130436 -10.158122 4.6958661 8 0 0 0 91.323395
25.43771 -19.330902 13.085183 11 0 0 0 59.416576
-33.266369 -5.1544933 11.130927 9 0 0 0 98.73587
-1.1654228 -4.0848594 -0.13444863 630 0 0 0 79.102211
1.3863499 -21.931435 15.143197 6 0 0 0 71.575294
24.481516 -4.3070312 -2.5134261 35 0 0 0 55.402496
28.126648 -9.604166 10.982018 16 0 0 0 54.226944
27.950865 -12.264016 9.8797522 12 0 0 0 54.029312
28.507227 -17.144409 13.369461 6 0 0 0 59.315968
9.3228083 11.066987 4.2489066 9 0 0 0 38.349056
-1.8265734 5.0215878 -2.6582067 235 0 0 0 20.555777
-5.6295242 4.1068187 -2.9067988 333 0 0 0 12.676096
-12.500466 6.4293623 3.2165384 46 0 0 0 7.6579838
25.977116 -10.795927 0.20266065 15 0 0 0 55.692799
16.261347 -2.9476631 -2.4772139 19 0 0 0 55.498497
26.619377 -19.583561 12.168609 13 0 0 0 57.556225
25.787485 -20.671589 17.559732 5 0 0 0 59.706879
27.936636 -16.403902 9.4286537 7 0 0 0 59.218689
4.0281858 -22.954098 11.848695 10 0 0 0 75.087105
5.8292894 5.1939449 -3.2718441 73 0 0 0 38.046207
-11.919209 -8.1158409 2.5859048 10 0 0 0 90.15168
-9.7398167 6.9835019 4.235034 59 0 0 0 10.126336
27.228685 -10.734296 2.4690166 17 0 0 0 58.433537
-7.9466305 2.8114171 -2.60344 58 0 0 0 6.3910398
-13.769392 -4.5602527 3.0996084 9 0 0 0 97.661438
13.445958 -7.221139 -0.50909758 29 0 0 0 55.692799
4.7553768 6.0156608 -0.43084794 388 0 0 0 38.046207
-5.7660089 -6.1007524 0.95787692 102 0 0 0 88.288513
3.6610069 -3.0608261 -0.9451763 528 0 0 0 61.968895
27.730103 2.6590054 6.7162218 19 0 0 0 47.564545
10.240758 -3.2320638 -1.8234376 59 0 0 0 52.759808
-34.097187 -2.6791782 7.684751 10 0 0 0 99.894272
3.6980169 0.81712228 -2.8909812 244 0 0 0 47.95776
9.9478283 0.73779029 -3.3906689 66 0 0 0 51.672832
9.0611372 7.2994604 0.41040075 69 0 0 0 40.009472
26.754345 -4.0046062 -1.7482772 24 0 0 0 50.304512
24.067301 7.7279329 -0.98012316 41 0 0 0 44.524544
9.364357 -26.662464 16.128412 10 0 0 0 72.446976
26.828089 -3.3192492 1.654412 23 0 0 0 52.851967
26.622971 0.47632962 -4.3411942 20 0 0 0 49.328384
-12.172507 6.0915966 2.6044638 77 0 0 0 5.892096
-0.70289439 -24.405443 22.00494 7 0 0 0 78.811394
27.2661 -7.7603993 6.3984127 16 0 0 0 51.978241
11.475926 5.8585582 -0.89826488 81 0 0 0 41.873665
15.584092 6.2203646 -0.30472925 43 0 0 0 41.782528
-1.7309823 6.0842748 0.60249013 582 0 0 0 23.301888
25.557526 7.6405692 0.86265361 8 0 0 0 47.853569
9.1468506 8.4043503 1.4648104 107 0 0 0 35.788033
27.473425 4.2728076 3.6666064 24 0 0 0 48.350975
-4.5810242 -27.148932 22.524082 5 0 0 0 80.967171
-4.3295217 7.0955596 -4.1388421 44 0 0 0 17.207041
-32.049225 2.9578338 7.9326997 22 0 0 0 0.097792
27.347515 4.9279289 -0.38534188 20 0 0 0 48.154369
27.87752 -16.960224 9.8552799 13 0 0 0 57.846016
-4.1316586 9.3239155 2.799546 12 0 0 0 18.087681
-12.760714 -10.698668 4.3044605 13 0 0 0 91.712509
23.970707 0.77796227 -4.8335524 7 0 0 0 47.564545
15.578958 9.0256577 5.84444 32 0 0 0 42.177536
9.4703121 10.133301 5.9806652 52 0 0 0 35.788033
-11.941403 8.690279 8.5299549 27 0 0 0 12.088832
10.325944 -7.6774688 0.35582834 56 0 0 0 62.647041
-10.293133 -3.0305638 0.16073491 60 0 0 0 98.151939
-34.091953 -3.7998185 13.271653 6 0 0 0 99.414017
25.070511 -13.322434 1.7794403 10 0 0 0 55.597569
24.867924 -22.035618 7.4083323 4 0 0 0 64.023293
-7.6158543 -22.418369 8.4096088 12 0 0 0 81.450241
-11.321356 5.3145204 0.57347757 93 0 0 0 9.92768
30.74773 11.855379 8.330307 9 0 0 0 44.82048
27.233852 5.6518393 1.0388682 22 0 0 0 47.656448
26.596933 2.1377928 -4.5503912 24 0 0 0 49.914112
-33.767475 -1.6391106 4.9049067 7 0 0 0 0.79155201
13.885017 8.8161268 5.0389156 21 0 0 0 38.349056
-10.64964 -10.539183 5.6086106 3 0 0 0 88.871933
26.611366 -4.7555499 -0.46275973 36 0 0 0 50.695168
-33.909561 -2.1863494 10.380986 7 0 0 0 96.987648
-12.579068 -18.708099 8.5201845 12 0 0 0 84.088066
-4.1711345 -7.539578 1.5183207 111 0 0 0 81.160706
-4.658896 9.0157547 -3.7645652 31 0 0 0 18.390783
2.7884033 5.8758407 -1.7446742 94 0 0 0 31.455744
26.774572 -11.427501 1.2954633 14 0 0 0 57.361153
-13.79529 -5.052525 3.4647055 5 0 0 0 94.047745
-3.2387133 -2.3343058 -0.93010664 369 0 0 0 92.879356
27.690779 6.9435186 4.348207 7 0 0 0 45.310207
27.726128 -17.10396 7.7347403 7 0 0 0 59.612926
-9.0207348 9.1561832 8.823967 48 0 0 0 12.979712
-0.61193961 8.6874685 1.6640092 12 0 0 0 26.447359
27.381676 -9.0851221 7.5328546 16 0 0 0 54.226944
6.9599223 -28.212 13.145655 18 0 0 0 72.250626
-6.8433833 -27.736578 14.95715 10 0 0 0 81.841919
6.5316615 4.7730803 -3.4671998 193 0 0 0 39.618305
-4.4159007 -8.9802132 2.128324 99 0 0 0 81.943039
17.77651 7.6235089 2.5680768 16 0 0 0 41.192192
-3.885778 8.8309145 5.3252549 66 0 0 0 19.859455
28.14707 -15.851451 9.4279137 7 0 0 0 58.926079
-8.5705996 9.3139315 9.206171 62 0 0 0 16.909569
9.9059296 -27.021376 15.587034 16 0 0 0 66.970879
5.8808146 -3.895715 -0.79729331 251 0 0 0 61.773567
10.952314 5.6726451 -1.8224076 33 0 0 0 45.015808
17.643028 -2.8498988 -2.6643078 16 0 0 0 55.205887
27.594221 -11.581305 6.522511 21 0 0 0 53.93536
24.519188 8.5344839 2.8782384 19 0 0 0 43.942402
25.888731 -20.480478 9.4319391 5 0 0 0 61.467648
15.580894 2.3723292 -4.6543741 15 0 0 0 45.700096
-12.343216 8.1301222 7.2855544 20 0 0 0 12.87296
5.3633957 -3.183228 -1.0947392 322 0 0 0 56.277504
27.198765 6.535037 1.4686608 23 0 0 0 45.604351
-13.074246 7.4722691 -1.4932504 9 0 0 0 10.908416
25.007822 -26.263294 10.635052 5 0 0 0 62.163712
25.72971 -20.961813 16.893929 12 0 0 0 63.338753
25.119352 -24.244766 11.48252 15 0 0 0 64.710144
-2.1462872 8.2634144 1.9211677 5 0 0 0 20.555777
6.9969239 -5.7739687 -0.095997557 158 0 0 0 61.859585
8.2824659 4.3466268 -4.6239243 52 0 0 0 40.402431
9.4188623 -8.240551 0.70590097 61 0 0 0 59.218689
26.715528 4.1496911 -4.4509354 24 0 0 0 48.741631
3.3812647 6.0404158 -4.9843326 11 0 0 0 30.973951
-4.5321326 6.9074893 -2.4772027 78 0 0 0 15.142656
27.018194 3.671977 -0.81187046 35 0 0 0 50.40435
-9.0964079 2.1664326 -2.1821797 75 0 0 0 1.577984
-4.2664471 -0.57923102 -1.5103945 274 0 0 0 95.80928
0.41003567 -22.593136 7.7455111 14 0 0 0 75.87149
-0.65987438 -27.096033 10.645954 9 0 0 0 78.223869
17.253128 0.21688671 -3.8869374 21 0 0 0 50.993153
-1.3678161 8.3120718 1.8887461 10 0 0 0 21.927168
11.060029 -7.5706763 0.15240404 40 0 0 0 57.361153
-10.016255 8.6078215 8.0164566 44 0 0 0 11.694592
26.115356 -18.726322 13.71265 9 0 0 0 57.256191
-6.0101871 8.7284565 7.0480099 16 0 0 0 18.873344
27.224194 6.7156248 1.8393672 18 0 0 0 43.942402
-12.572845 -20.404989 8.741251 9 0 0 0 85.063423
23.522429 6.3585138 -5.3870854 22 0 0 0 48.636673
13.864967 5.6396394 -1.9323493 27 0 0 0 43.357185
-11.296129 8.628747 8.0328426 48 0 0 0 14.053632
32.345711 7.1285658 11.08358 6 0 0 0 48.741631
27.255091 1.8060087 1.746773 33 0 0 0 51.388416
-32.351608 1.6542635 7.3050656 8 0 0 0 0.98816001
4.3377376 5.1766949 -2.3363116 423 0 0 0 35.590912
9.1930389 9.1714859 1.696208 9 0 0 0 39.813633
5.0442452 5.5749674 -1.6317333 193 0 0 0 39.323647
27.807281 3.5805886 4.3570647 5 0 0 0 45.604351
26.676752 -1.5891569 -3.4949822 11 0 0 0 52.065536
26.771751 -7.3892956 1.7463704 24 0 0 0 53.636353
8.4871874 2.5316234 -3.9961336 63 0 0 0 43.445503
-9.5406857 -7.1968899 1.8795801 38 0 0 0 92.491524
27.042694 -2.260103 2.7673931 24 0 0 0 53.740288
2.0435321 10.274346 -6.5763197 9 0 0 0 27.731712
-5.0567975 -9.4150229 2.2905152 49 0 0 0 82.529282
23.761106 5.6670942 -4.1983981 31 0 0 0 49.032703
3.5391374 6.1472507 -4.8256412 6 0 0 0 34.898689
-4.6244102 -1.5940865 -1.0611112 251 0 0 0 95.905792
3.2572901 -0.62099564 -2.2910366 351 0 0 0 52.36787
27.27515 -1.5397785 2.4610898 22 0 0 0 48.636673
-32.892601 3.7110248 10.67712 12 0 0 0 3.6344321
-4.011023 8.3193626 4.1118393 132 0 0 0 17.697281
28.814394 8.7441807 6.6806121 20 0 0 0 42.85696
-3.9175913 4.9696884 -2.3949883 325 0 0 0 15.43296
24.562855 -5.9865046 -1.4050037 8 0 0 0 56.383488
-4.9299316 8.2746372 6.8360157 36 0 0 0 16.515841
8.0017061 -3.8239529 -1.1143285 188 0 0 0 54.908161
-4.8577533 4.9997754 -0.91859061 440 0 0 0 10.811904
-13.111163 6.8537412 4.5483313 9 0 0 0 11.008256
2.3269506 -22.800661 12.534144 8 0 0 0 71.078659
27.659208 -20.360386 5.3424473 12 0 0 0 57.846016
17.866732 -4.1546826 -2.1638582 16 0 0 0 51.584255
-34.074539 -1.8389908 6.3563361 12 0 0 0 98.73587
9.7876348 3.1136465 -4.2897534 40 0 0 0 46.480129
-6.4162579 -4.7680316 0.48071215 126 0 0 0 92.592384
14.730423 9.0742464 5.4540558 24 0 0 0 43.357185
-7.2181635 -5.3391137 0.82805794 103 0 0 0 88.002304
-8.6165524 -4.4649224 0.60632974 98 0 0 0 95.124733
27.739882 -7.7939982 12.426997 11 0 0 0 53.243649
16.093534 9.2871008 7.6960163 15 0 0 0 38.833408
-7.4116106 2.2423446 -2.4257729 94 0 0 0 5.697536
27.123018 -14.50433 2.4309063 11 0 0 0 60.292866
24.532965 10.282554 4.8231568 18 0 0 0 41.281792
10.110975 -2.9852912 -1.8889705 61 0 0 0 54.029312
-4.0436616 7.4536552 3.6337476 136 0 0 0 18.58816
9.0503006 -29.030695 10.535229 11 0 0 0 69.611008
13.352547 -27.63958 13.791343 7 0 0 0 68.825089
17.836313 2.418539 -4.8263183 17 0 0 0 49.133312
-3.2469926 -22.613003 8.2031937 10 0 0 0 76.853249
-11.201208 -3.56429 1.5970006 87 0 0 0 94.734848
26.430523 -18.866331 13.33925 13 0 0 0 58.926079
27.120901 3.919632 0.55392879 31 0 0 0 50.208256
28.27396 -17.585493 14.31362 8 0 0 0 56.1856
-5.4915137 -5.4891586 0.68502688 134 0 0 0 85.65197
6.9431243 0.76859665 -3.1449811 148 0 0 0 51.19104
7.8906913 5.4842267 -3.1798635 33 0 0 0 41.586689
-6.5810452 -7.0442662 1.4775321 88 0 0 0 89.75872
13.267427 -4.6686502 -1.5185329 16 0 0 0 57.946625
-6.1024389 8.5952644 7.8069477 30 0 0 0 18.78528
27.338192 -2.6252959 6.569808 19 0 0 0 49.032703
-33.089958 3.2134452 4.3324876 9 0 0 0 1.4707201
-4.3469338 5.6656537 0.56923044 330 0 0 0 12.87296
10.761912 8.7275095 6.0269017 28 0 0 0 36.272896
-8.1720514 8.6201391 7.1023822 24 0 0 0 14.842624
27.740852 -14.427356 8.8843317 12 0 0 0 60.005375
28.020782 -13.1333 8.2910309 20 0 0 0 54.518272
10.431971 -2.6515017 -2.0332177 67 0 0 0 55.010048
-9.8830242 -0.39541778 -1.078549 69 0 0 0 2.25792
-12.76121 -1.9086843 1.2982225 53 0 0 0 95.711235
1.8397436 10.502093 -5.914835 13 0 0 0 27.337473
27.896315 -16.107222 12.974224 4 0 0 0 59.021824
27.77039 3.823828 5.4177332 8 0 0 0 46.979328
-13.340749 -9.8894491 6.7601323 22 0 0 0 87.901695
-32.789532 4.2619705 8.3451481 11 0 0 0 0.68607998
24.537592 8.963316 3.5830326 14 0 0 0 46.783489
-10.374693 1.17503 -2.0135334 79 0 0 0 0
27.168301 -4.0468702 2.2865164 5 0 0 0 50.108673
-8.6667109 7.2146616 4.715343 60 0 0 0 11.299584
-7.4061203 8.7127142 7.704205 17 0 0 0 15.734016
27.53371 -7.6950736 8.7325096 14 0 0 0 55.010048
12.115182 -26.413372 8.4486885 7 0 0 0 67.554817
14.244666 -5.0009427 -1.4531708 26 0 0 0 56.383488
6.7329988 -28.921391 11.455563 15 0 0 0 74.112
-32.865326 3.6800184 6.5203843 10 0 0 0 0.29312
-5.9675865 -27.373154 15.699292 8 0 0 0 76.265213
-4.7466488 8.8763714 8.5498199 36 0 0 0 18.981119
8.0098476 -28.853769 11.526949 13 0 0 0 73.428482
27.455078 0.97202468 4.4247537 23 0 0 0 51.781376
24.442461 9.1877146 2.9535563 27 0 0 0 43.55072
-10.404667 -11.102583 5.2256284 234 0 0 0 85.063423
27.359734 -7.5577283 7.167388 23 0 0 0 55.010048
26.750732 -7.8323126 3.0960484 22 0 0 0 53.832191
27.262571 5.0283313 2.3525503 23 0 0 0 47.95776
3.539573 4.3604584 -4.2415433 21 0 0 0 35.590912
1.5174415 8.7859421 1.4154685 6 0 0 0 27.038719
-4.0225353 -28.950672 11.829647 11 0 0 0 78.419968
-32.467224 5.0629239 12.230704 5 0 0 0 5.9965439
24.861135 0.058500677 -3.465064 31 0 0 0 52.656384
13.775519 2.4152739 -4.4466858 22 0 0 0 48.545792
-3.8071876 8.9330683 4.0085645 17 0 0 0 21.533695
17.269566 8.3158169 3.7989988 59 0 0 0 45.113087
-3.7706263 9.2949629 6.4158115 48 0 0 0 18.676737
-6.5919886 6.865242 3.7181411 99 0 0 0 11.4048
24.897968 -14.315515 2.2384365 13 0 0 0 60.789505
8.6470375 -22.533796 6.7750812 6 0 0 0 70.20237
-9.241291 -1.4145796 -0.64857334 83 0 0 0 98.73587
12.956277 -28.769953 11.33831 14 0 0 0 65.987328
27.075891 -20.720057 9.4587431 5 0 0 0 62.845184
-36.792557 -5.3657894 11.333233 9 0 0 0 95.711235
9.1872272 9.4646292 1.4354374 10 0 0 0 36.471039
31.655098 57.713856 -28.708942 18 0 0 0 31.170561
-2.4722559 -7.5668831 1.5759673 186 0 0 0 81.253372
11.037413 4.8056087 -3.5615225 122 0 0 0 44.72192
4.4944863 8.5435343 1.6680188 5 0 0 0 33.4272
-33.140884 3.4772513 3.7850456 16 0 0 0 3.043072
27.723494 -2.7861111 7.3685837 6 0 0 0 52.262657
-5.9142303 -10.730315 3.0266147 29 0 0 0 85.847809
-3.2398777 2.3558939 -2.8643906 123 0 0 0 7.1746559
-8.8114595 -12.615321 4.1519461 12 0 0 0 84.386559
-8.203908 5.6932526 1.0615761 159 0 0 0 8.051712
9.7896242 2.2790809 -4.0009022 36 0 0 0 44.428799
27.681997 -7.5212197 12.891977 9 0 0 0 51.388416
12.565425 5.3509359 -2.6121397 142 0 0 0 44.72192
27.401943 -9.013196 7.1967511 27 0 0 0 55.793663
25.064003 -27.437004 10.471111 4 0 0 0 64.12365
26.902588 -5.7876835 3.184742 14 0 0 0 52.656384
25.416399 -22.432524 14.328861 4 0 0 0 58.926079
-5.28863 -25.302605 10.321589 15 0 0 0 81.160706
10.125479 0.52060461 -3.3012352 54 0 0 0 50.40435
27.497046 -12.381344 4.9841819 6 0 0 0 54.422016
25.549868 -9.2657747 12.853379 4 0 0 0 56.081665
27.716488 -6.8625526 11.998569 9 0 0 0 54.422016
-34.268829 -6.2606668 12.542299 11 0 0 0 95.124733
27.798677 4.099268 4.4125528 6 0 0 0 45.310207
-8.2497921 3.1054859 -2.7063119 80 0 0 0 6.6769919
1.5629697 5.8717365 -1.6557709 64 0 0 0 30.185217
25.534863 -19.055214 17.56214 4 0 0 0 57.361153
6.8953967 -0.7529844 -2.5275302 143 0 0 0 49.623039
23.456573 -19.511648 5.2586761 8 0 0 0 63.535873
-1.4776412 9.2565413 4.570425 6 0 0 0 23.600384
-3.9287636 -8.6509924 2.0110288 102 0 0 0 81.450241
-12.843418 4.8777514 -0.29896104 64 0 0 0 3.931648
-13.860825 -9.5038004 6.3842201 5 0 0 0 91.712509
-10.103537 -5.2065673 1.0867766 32 0 0 0 90.544128
25.518669 -21.889576 6.4396491 6 0 0 0 60.593407
-9.4186726 6.6007862 3.0876403 219 0 0 0 12.979712
-9.7579174 5.0270476 -0.64082664 186 0 0 0 5.697536
25.458813 -18.972851 15.456299 6 0 0 0 57.452545
-33.336407 2.0434241 2.5016706 15 0 0 0 0.79155201
9.6668015 -27.978468 13.106929 4 0 0 0 72.446976
14.190133 0.53183633 -3.7165496 24 0 0 0 49.032703
-10.657235 4.2859149 -1.8625946 128 0 0 0 8.7498236
-12.614047 9.4140482 3.013849 23 0 0 0 10.126336
5.1366043 -4.5093756 -0.4629682 283 0 0 0 63.928577
26.992346 -11.280252 3.8920305 19 0 0 0 58.732033
-32.838955 4.7056646 6.8814855 10 0 0 0 5.405952
4.6960411 -23.4508 12.144838 13 0 0 0 74.696701
1.0695517 5.7901936 -0.46172065 697 0 0 0 25.657345
27.320309 0.96690094 2.317301 23 0 0 0 48.741631
-1.8445594 -16.464592 5.0250926 16 0 0 0 76.368385
15.534466 8.8378601 5.3733859 18 0 0 0 39.127552
4.4820652 -23.472996 12.321449 7 0 0 0 73.135361
9.1267853 -5.5423346 -0.47338372 111 0 0 0 58.041599
9.5030966 9.1966228 6.4373841 48 0 0 0 36.471039
13.716035 -4.217072 -1.7392805 26 0 0 0 52.656384
-9.6011868 7.3943381 5.2427678 64 0 0 0 9.1407356
-8.641757 3.5783837 -2.8427153 39 0 0 0 7.1746559
10.368562 -5.2911515 -0.74284869 68 0 0 0 60.005375
-9.7832193 0.44871455 -1.4559041 61 0 0 0 3.540992
27.778481 1.7624825 7.7401538 13 0 0 0 49.623039
26.945757 0.90717316 -3.7029755 14 0 0 0 52.173824
27.384432 -0.13042712 9.7395601 21 0 0 0 47.368961
0.42040464 8.9949493 3.2697062 10 0 0 0 26.644735
25.66567 -21.164127 16.927233 7 0 0 0 63.433727
27.586226 -4.014647 9.1344595 8 0 0 0 51.280128
-1.7593158 -13.750779 4.0688825 24 0 0 0 78.223869
27.293722 -11.521455 5.7282472 8 0 0 0 57.165825
1.6255052 5.4809728 -2.0542958 258 0 0 0 27.337473
24.074717 7.733912 -0.67696881 27 0 0 0 42.964737
2.3483284 5.9156208 -0.33577949 633 0 0 0 30.276608
-7.708529 8.6363926 7.184907 6 0 0 0 13.658368
-34.219639 -2.725873 5.1254044 6 0 0 0 96.79155
-8.0056944 9.4812174 9.5733452 20 0 0 0 14.158592
26.752806 -5.050252 0.84969199 26 0 0 0 50.796543
26.69833 -1.9188143 -3.1991091 25 0 0 0 50.695168
13.030225 -4.9483957 -1.3540503 32 0 0 0 56.776447
27.155807 -2.1996057 2.4035881 16 0 0 0 49.032703
-5.7507877 -28.739868 12.705254 16 0 0 0 76.06707
-13.569917 1.6816739 1.3806647 12 0 0 0 100.00102
27.495583 -6.7305994 9.5033703 10 0 0 0 51.19104
-33.874863 -2.8167911 10.380809 5 0 0 0 96.684799
27.512207 -9.8789616 8.7949963 19 0 0 0 56.1856
-7.1945972 4.1481824 -2.6386452 207 0 0 0 5.9965439
4.422791 4.6433764 -3.5700445 68 0 0 0 38.545151
24.429993 -2.8300679 -2.739373 9 0 0 0 49.8176
1.106917 -21.594927 11.238011 10 0 0 0 75.389954
25.273592 -21.764647 6.8029571 7 0 0 0 59.021824
27.416498 -1.0244216 1.5364738 16 0 0 0 53.048065
26.533731 4.0400972 -5.4546528 22 0 0 0 47.265537
-13.674749 0.26726374 5.0758133 15 0 0 0 2.5594881
-2.4344509 -15.305964 4.5633378 17 0 0 0 78.709763
-32.792873 4.5771909 9.0134659 17 0 0 0 3.931648
27.258181 -21.20829 8.0617962 10 0 0 0 61.380352
-33.832764 -3.6941943 4.2070594 5 0 0 0 99.414017
-0.41537336 -9.7009401 2.320066 98 0 0 0 76.853249
7.9350343 5.8120518 -2.0235159 56 0 0 0 39.423489
27.713282 4.4067369 4.7946234 14 0 0 0 49.8176
10.484116 8.8976555 7.0200815 30 0 0 0 40.79744
-0.88901442 5.6919394 -0.45796114 879 0 0 0 22.025473
27.470686 -20.73921 5.3391185 6 0 0 0 58.041599
18.181242 -7.4149895 -0.78712332 18 0 0 0 55.597569
11.116446 8.7838449 5.8696895 26 0 0 0 38.153728
0.48170319 -10.101068 2.3883426 31 0 0 0 75.389954
-6.3084793 9.1437578 9.013876 30 0 0 0 13.855488
25.642338 -21.946377 13.054496 9 0 0 0 63.731457
-4.160068 6.7780781 2.3798554 211 0 0 0 19.269119
9.0258474 -6.2954578 -0.10189809 86 0 0 0 60.593407
-3.0138831 -16.1747 5.0336924 15 0 0 0 77.542145
-8.7108879 7.154336 4.9236555 92 0 0 0 9.6296959
-31.269154 5.0597034 0.68631721 14 0 0 0 3.7368319
-5.9130859 8.5710554 7.7233863 49 0 0 0 18.981119
27.536873 7.8276734 4.0774374 27 0 0 0 46.391296
11.026428 -3.4100432 -1.7853637 45 0 0 0 57.361153
27.42872 1.7017183 3.7498488 25 0 0 0 48.244991
-13.526147 0.84515411 6.5696945 23 0 0 0 5.1120639
-4.6128702 7.4783392 -3.4681325 64 0 0 0 18.873344
-3.200887 4.16962 -3.5683208 122 0 0 0 17.40288
27.662748 -15.025823 6.2838502 11 0 0 0 57.165825
27.083027 3.0131114 -0.19259693 32 0 0 0 47.656448
-2.8807726 4.550796 -3.632128 135 0 0 0 18.873344
15.17219 -7.4285369 -0.54107761 15 0 0 0 55.105282
9.7797947 4.3613601 -4.1987195 103 0 0 0 43.05331
-12.300073 -14.539798 6.8933702 26 0 0 0 89.06778
-8.357933 -11.831538 3.7567832 25 0 0 0 86.043648
-4.2956786 -10.172832 2.6883848 38 0 0 0 84.19149
-12.859047 -7.6264224 2.5321426 14 0 0 0 92.686081
-9.5429153 6.1763144 1.98959 238 0 0 0 10.714112
25.771051 -24.476227 20.354946 21 0 0 0 64.614143
13.800248 -6.8823071 -0.65961105 18 0 0 0 56.776447
8.6388531 4.4307284 -4.08781 108 0 0 0 45.50528
-33.002289 -5.2949448 4.5299859 5 0 0 0 97.074692
28.310862 -11.82113 10.822265 6 0 0 0 56.972031
14.024465 9.2813683 6.117681 29 0 0 0 37.956863
5.6187501 8.6811876 1.0303448 6 0 0 0 36.471039
-8.7717133 5.834549 1.478732 114 0 0 0 9.336832
24.565401 10.419466 5.4594183 10 0 0 0 44.330753
7.5428319 8.2225075 1.1021508 23 0 0 0 37.563904
27.127434 -1.3180763 -1.1856017 18 0 0 0 53.348606
-4.4086866 4.6454387 -2.4540653 455 0 0 0 13.962752
-1.1585577 -23.357349 11.42506 12 0 0 0 73.62381
7.2793107 -28.184576 13.149529 9 0 0 0 72.053757
-6.0493784 7.0581975 4.0354223 111 0 0 0 13.855488
2.1043954 5.2373586 -1.9022781 669 0 0 0 32.150272
12.75036 -3.9308848 -1.7535993 39 0 0 0 54.226944
-12.410292 -12.616735 5.1190701 22 0 0 0 85.45459
-33.800076 6.9156404 11.12668 5 0 0 0 6.5868802
27.617462 7.6113605 4.819973 19 0 0 0 43.357185
-2.6161625 -16.213051 5.0098476 9 0 0 0 77.153282
27.999437 -15.684896 10.831074 9 0 0 0 60.490238
-8.3171225 -3.8915217 0.33597589 107 0 0 0 92.686081
-3.8903782 -28.999229 11.602863 17 0 0 0 79.988991
-7.2228703 -4.6396909 0.52594966 117 0 0 0 93.657089
3.5499582 6.3454528 -4.3890243 13 0 0 0 34.606335
12.001164 6.6283026 0.74154007 101 0 0 0 44.330753
25.273136 -22.041386 14.181179 9 0 0 0 58.825214
15.994134 -7.1184044 -0.72187871 15 0 0 0 56.081665
-10.469328 3.0254374 -2.4584343 79 0 0 0 7.0689278
24.322956 5.212007 -4.636075 5 0 0 0 44.72192
28.165758 -17.060463 12.260969 13 0 0 0 56.081665
27.234377 5.1307921 0.99270225 20 0 0 0 47.95776
27.507359 -2.8145552 10.042562 18 0 0 0 53.832191
9.5637722 3.3162434 -4.3974495 32 0 0 0 47.761665
-1.1329236 6.4035506 -4.6608038 16 0 0 0 23.403521
-13.519522 4.418292 -0.97584754 6 0 0 0 7.766016
25.309845 -21.291546 14.008269 6 0 0 0 58.534657
27.396708 -0.97812796 3.5263503 16 0 0 0 49.8176
-29.491695 7.2162595 -0.53036875 12 0 0 0 4.9149442
28.544075 -16.912394 15.751142 6 0 0 0 57.452545
28.142635 -18.997826 9.4847679 10 0 0 0 61.859585
-5.5251212 8.685586 8.0850601 65 0 0 0 16.124928
17.433178 7.1321344 -3.6569922 14 0 0 0 45.015808
-0.052869264 -21.493196 13.309499 9 0 0 0 72.745476
27.560993 6.8072686 5.3862638 28 0 0 0 46.872578
3.1552413 -2.8844862 -1.0099757 545 0 0 0 61.078529
27.615973 6.247519 5.6898856 19 0 0 0 45.604351
27.012623 -2.5735087 0.066106811 18 0 0 0 54.029312
7.3574281 -1.6703196 -2.168164 142 0 0 0 54.618111
3.9934852 -27.005449 9.5519094 11 0 0 0 72.162048
4.3782926 -3.183604 -1.012645 483 0 0 0 59.315968
14.011899 8.7588615 4.5481396 35 0 0 0 41.676033
27.425753 8.1705351 3.7647429 14 0 0 0 47.761665
27.71574 -10.893832 7.6765785 14 0 0 0 55.105282
7.5286531 1.0244442 -3.2685814 103 0 0 0 49.133312
27.344852 4.6882401 3.0222371 23 0 0 0 45.015808
10.558767 8.2040854 4.7682748 38 0 0 0 38.349056
11.116725 5.6258001 -1.3430783 77 0 0 0 40.402431
1.5245378 11.208009 -4.5464964 21 0 0 0 30.082304
-6.1746693 -5.2376237 0.64167678 116 0 0 0 88.481537
8.8153772 7.9156775 0.04786855 23 0 0 0 37.655041
28.344831 -13.774761 14.389489 12 0 0 0 59.511551
16.975979 -2.3952203 -2.776114 16 0 0 0 50.208256
32.857777 -0.66590065 1.4115968 5 0 0 0 48.154369
-6.0235472 -10.771617 3.0512731 22 0 0 0 85.950462
2.4036911 -22.194277 11.392704 10 0 0 0 76.174339
4.7051139 5.8474245 -0.80896586 300 0 0 0 38.243328
15.362119 1.9138185 -4.3946471 20 0 0 0 50.891006
-6.4170337 9.1647167 10.061259 20 0 0 0 13.767936
-14.429905 2.3471897 9.4923277 20 0 0 0 5.3081598
-6.7909298 -11.453626 3.4160161 17 0 0 0 84.778755
-2.7177258 -16.217209 5.0195498 14 0 0 0 77.243645
28.062819 -20.214083 6.7186852 7 0 0 0 59.218689
-11.756954 -7.6793623 2.3664262 11 0 0 0 92.008705
9.6561232 -1.0690001 -2.6219249 71 0 0 0 51.280128
0.18077998 6.018054 0.19115947 619 0 0 0 23.301888
6.7434058 -25.049994 8.5304546 9 0 0 0 73.525246
-32.78648 5.0333076 7.3429341 10 0 0 0 4.029696
-8.8326406 6.9151402 3.3989913 21 0 0 0 10.714112
-33.343315 0.27534097 9.8404503 10 0 0 0 3.540992
28.036713 -18.735233 13.175612 6 0 0 0 61.773567
-1.592485 8.3210001 1.9021522 6 0 0 0 21.533695
26.686842 -2.2480059 -3.2246313 20 0 0 0 50.891006
15.414394 -2.5797749 -2.5508986 24 0 0 0 50.60096
27.191133 -4.6503572 5.0153837 21 0 0 0 50.304512
6.2988191 -0.91287112 -2.3960807 176 0 0 0 51.781376
15.833049 8.7535086 5.4144516 31 0 0 0 39.323647
-33.395714 1.5087457 7.937499 10 0 0 0 100.28595
-12.234633 -0.60933834 0.63682336 71 0 0 0 97.26899
25.000824 -27.700159 10.509886 5 0 0 0 64.219391
1.8951033 4.2147374 -4.0860929 7 0 0 0 35.393024
-6.0071979 6.7781658 2.4014158 88 0 0 0 13.459712
26.903378 3.4351673 -1.8138905 40 0 0 0 49.032703
-13.471547 5.789742 2.0858412 18 0 0 0 9.5336962
-12.260005 0.45314941 -0.56666034 109 0 0 0 98.634499
7.5964403 -1.9278582 -1.9671557 79 0 0 0 56.581375
27.488091 -0.03338534 1.9293929 9 0 0 0 50.891006
-9.8180685 -2.5249176 -0.098683231 67 0 0 0 95.613693
7.4933891 -26.829817 15.934344 12 0 0 0 73.525246
23.610023 4.8689857 -6.0344276 36 0 0 0 46.480129
-2.1717346 -10.320646 2.6837158 65 0 0 0 77.930496
-6.8670816 -10.829948 3.1948164 41 0 0 0 86.829826
26.857304 -3.3577437 -2.0009615 30 0 0 0 51.475712
27.240417 -7.700604 4.2421079 12 0 0 0 55.205887
26.677965 -7.0281248 2.0898035 27 0 0 0 51.868416
-7.9271979 7.0346384 4.677197 103 0 0 0 10.21952
-13.067298 1.5766332 -0.1145198 36 0 0 0 1.774336
25.475603 -22.416121 15.413944 11 0 0 0 62.2528
-6.7256365 5.2344246 -0.71047056 268 0 0 0 13.374464
-13.635665 -9.9565973 5.4581947 7 0 0 0 91.226372
-29.463846 7.1297488 -1.6381073 8 0 0 0 3.2399361
28.087849 -13.369621 7.5406666 6 0 0 0 57.846016
3.1327357 -28.380058 11.639818 19 0 0 0 72.745476
26.004728 -18.386602 14.587025 8 0 0 0 60.490238
7.3240108 1.6771733 -3.5153511 96 0 0 0 46.089985
-3.6645529 10.450117 7.062016 51 0 0 0 19.37536
-7.8220959 -12.902799 4.2216744 14 0 0 0 81.747971
-1.6867443 8.7993717 2.9702489 6 0 0 0 21.533695
13.043253 4.5127807 -4.1924 66 0 0 0 45.998337
-32.221401 1.92229 8.0314751 17 0 0 0 4.226048
0.37614256 -28.976398 11.575771 26 0 0 0 75.977982
-1.9501386 -25.461941 14.150482 7 0 0 0 74.013954
-13.697479 -1.3274037 1.7212613 6 0 0 0 99.609596
27.634195 -1.4770583 10.45924 14 0 0 0 51.388416
-1.4515085 -16.569208 5.0308347 8 0 0 0 75.977982
-8.4883575 8.8829508 8.0000744 20 0 0 0 16.515841
24.272022 4.0512457 -5.9675207 14 0 0 0 45.50528
0.24767381 6.4212847 1.0941029 338 0 0 0 24.977665
12.238575 -3.025085 -2.1046798 43 0 0 0 51.781376
12.059919 -10.164454 1.1634885 20 0 0 0 63.629826
-32.696884 4.0118299 11.895742 10 0 0 0 0.79155201
-7.1253223 -2.2056987 -0.51698381 136 0 0 0 96.399101
7.4356728 -7.1086535 0.57705367 75 0 0 0 59.901184
27.25807 -17.031925 3.4948182 8 0 0 0 56.666111
17.031712 6.8571582 0.57577008 56 0 0 0 41.676033
-33.530483 -0.60738295 5.0310898 8 0 0 0 1.273856
-6.5095634 4.1613841 -2.6417687 251 0 0 0 10.02368
5.9338555 5.2560945 -2.7554817 269 0 0 0 36.38221
-2.8262672 -26.043562 14.099133 13 0 0 0 76.265213
-32.737835 2.0186696 3.2707801 13 0 0 0 99.023361
5.1947517 5.6033463 -1.4269646 365 0 0 0 36.272896
10.282061 7.4492068 2.9363582 49 0 0 0 40.599041
27.757782 2.9536507 7.8665962 16 0 0 0 48.935936
26.91065 0.93895382 -1.9939197 46 0 0 0 50.502655
27.376396 -0.62757093 10.79842 11 0 0 0 49.229057
28.065105 -16.545649 12.150417 13 0 0 0 55.886593
