# .PCD v0.7 - Point Cloud Data file format
VERSION 0.7
FIELDS x y z intensity normal_x normal_y normal_z curvature
SIZE 4 4 4 4 4 4 4 4
TYPE F F F F F F F F
COUNT 1 1 1 1 1 1 1 1
WIDTH 951
HEIGHT 1
VIEWPOINT 0 0 0 1 0 0 0
POINTS 951
DATA ascii
5.5005379 3.7179923 -2.8335609 98 0 0 0 39.204865
10.037748 5.2904768 6.7618194 48 0 0 0 39.595009
26.425274 -4.1189542 -1.3055682 30 0 0 0 53.976833
-12.944426 5.800663 0.92207557 13 0 0 0 5.2485118
25.209066 -16.665424 -2.7256596 21 0 0 0 56.203262
-9.522213 -30.321743 6.7876267 14 0 0 0 76.944641
16.538725 -9.4603653 -3.7425303 16 0 0 0 56.789505
-5.9910226 5.6295629 1.0485866 289 0 0 0 13.9072
7.7114697 -8.9654856 -2.3218 71 0 0 0 60.582657
25.971476 -5.6631589 -3.726299 27 0 0 0 53.494785
-12.274051 6.287262 8.1648645 22 0 0 0 5.4430718
-6.9147077 3.2464042 -1.2522724 105 0 0 0 3.6999681
22.178034 -30.037142 5.4431448 10 0 0 0 61.651199
0.60018539 -33.082699 10.968314 7 0 0 0 76.55603
-7.8892431 -1.90794 -0.86452293 93 0 0 0 95.075073
6.7717223 4.7209024 -1.7753965 124 0 0 0 40.374527
-13.671701 0.64690959 2.6633532 14 0 0 0 1.2684799
24.70742 4.0270772 2.217226 18 0 0 0 47.175167
1.5702504 -32.454849 9.2181416 7 0 0 0 74.40435
-7.2815738 6.370986 8.4545937 31 0 0 0 9.4261761
-33.848743 0.76683259 7.6848521 6 0 0 0 2.3385601
25.012997 4.9559131 4.89469 23 0 0 0 46.502144
-33.555279 2.0818346 6.1048613 13 0 0 0 2.819072
2.096966 -32.136635 8.1288757 10 0 0 0 70.909439
-3.6426499 -2.1137469 -1.5029187 357 0 0 0 88.735741
25.116695 -22.803913 1.7459153 9 0 0 0 58.543617
25.302849 -16.299267 -2.1794236 18 0 0 0 60.681473
26.843845 -6.9142823 6.8180904 21 0 0 0 55.237122
-34.660786 -2.5605509 4.3083806 12 0 0 0 99.260414
22.473377 -28.933611 6.7746677 7 0 0 0 62.818047
-9.5105381 -5.7985773 -0.42669103 70 0 0 0 93.213181
3.9032187 -31.814352 7.0986867 8 0 0 0 74.795006
21.611294 -32.604733 3.7231572 7 0 0 0 62.534401
14.375349 4.2351022 4.0388494 27 0 0 0 43.299583
-9.3701839 6.0087771 6.042129 53 0 0 0 6.9043198
17.661201 -8.2710762 -3.9732687 16 0 0 0 57.082878
-10.517752 -13.049498 0.1625066 15 0 0 0 86.107651
-3.8735213 -12.088701 -0.65990591 69 0 0 0 80.158211
-10.681038 -30.413296 4.602922 8 0 0 0 80.642303
-13.14773 5.9429564 1.8563402 17 0 0 0 3.8935039
26.014809 -18.226761 2.6553943 13 0 0 0 59.604992
25.45339 -18.173145 0.21182886 17 0 0 0 56.697346
11.983316 2.3636885 -3.6432552 27 0 0 0 45.531902
11.414543 4.125783 -2.3159373 66 0 0 0 44.558594
-6.1811585 5.9261203 7.8345246 38 0 0 0 13.713152
-35.008362 -6.215838 11.381177 14 0 0 0 99.260414
-3.2410526 -2.2365136 -1.5660033 361 0 0 0 92.439041
25.347788 -9.4518871 -3.0155475 28 0 0 0 57.277184
-5.0688133 -15.474299 -0.54099154 23 0 0 0 77.139458
-8.7239046 6.3302612 10.395777 22 0 0 0 13.606912
4.3197498 2.1173561 -2.6900837 56 0 0 0 39.695358
-34.927521 -17.441128 4.6542573 9 0 0 0 93.019394
23.30023 -8.107192 -4.6077628 11 0 0 0 53.879807
-2.3888402 5.1641841 -1.844793 160 0 0 0 14.778112
1.9114625 -32.251945 8.1597319 6 0 0 0 70.998528
0.53173751 3.1004298 -2.2076116 184 0 0 0 26.362112
-12.15643 -21.521606 1.0516243 10 0 0 0 85.025795
10.030561 7.2327704 5.7618427 9 0 0 0 39.310081
12.83836 -3.1226077 -3.5875328 30 0 0 0 50.770176
-7.7136455 4.2376513 -1.1723571 98 0 0 0 7.8727679
7.2454243 -1.5673817 -2.8727219 97 0 0 0 51.939583
0.45064467 -20.982542 -0.95446926 13 0 0 0 71.684608
-2.2428505 9.0682049 13.230993 10 0 0 0 17.792768
-29.067785 9.666749 2.155901 10 0 0 0 6.603776
26.252453 -6.4383454 1.198288 20 0 0 0 55.237122
-2.6973538 -33.134163 11.73313 6 0 0 0 74.897156
8.2748003 -32.03067 3.8647726 13 0 0 0 72.654846
0.93996626 5.2814779 1.0603454 857 0 0 0 29.28384
-33.806942 -4.8901424 10.412946 6 0 0 0 94.973953
-11.705096 -13.666101 0.37498948 19 0 0 0 85.025795
6.0118957 5.3865895 -1.9476125 25 0 0 0 36.877567
-9.6350193 -31.129038 10.421154 9 0 0 0 76.840958
22.858063 -27.455179 9.6596403 5 0 0 0 65.449219
-10.216127 6.0078106 4.6733885 65 0 0 0 7.6784639
26.038776 -23.649157 8.088336 8 0 0 0 61.556225
21.718163 -26.143147 -0.73979568 8 0 0 0 63.988735
-5.7349362 -28.77228 5.2742934 18 0 0 0 79.963905
22.060104 -31.339418 2.5084627 13 0 0 0 66.809601
26.69359 -9.2460938 7.0681653 18 0 0 0 54.949375
2.6584103 -13.419236 -1.3327682 48 0 0 0 68.858109
17.928091 4.2850299 6.1394763 26 0 0 0 42.41843
-9.7614088 6.2386522 9.1424141 24 0 0 0 10.593024
25.678101 -15.506879 3.273025 13 0 0 0 55.33696
-5.6657877 -28.709736 1.7261103 9 0 0 0 75.18541
-10.604904 -1.6283227 -0.49915606 34 0 0 0 94.880257
25.175989 -12.268779 -1.2525673 20 0 0 0 55.62112
24.806271 4.4056888 3.5155065 25 0 0 0 46.889217
-2.2786241 2.6722925 -1.828825 293 0 0 0 10.310912
-4.4699965 5.7558899 6.8416085 65 0 0 0 15.849728
-14.443381 -0.087496497 2.182137 26 0 0 0 97.216515
23.712288 4.7651191 -4.6928425 28 0 0 0 45.4272
4.3655753 -22.558868 -1.3559244 8 0 0 0 70.521599
27.975851 4.0470538 6.7374563 17 0 0 0 47.276543
8.9011545 -33.929268 9.7747726 4 0 0 0 70.998528
24.992876 -21.52549 -2.5532961 14 0 0 0 62.925056
14.795444 4.1913495 -0.93476963 176 0 0 0 47.082752
-34.150211 -0.48986202 7.9195395 9 0 0 0 0.195328
-4.1429615 -11.930768 -0.64522117 74 0 0 0 80.547325
8.2621193 -32.086025 -0.39487275 16 0 0 0 69.543167
26.930635 -3.5495441 2.3740807 31 0 0 0 48.735489
25.077585 -25.386351 5.3169899 10 0 0 0 59.323902
-11.755994 -11.293323 0.22996074 22 0 0 0 88.151039
-1.1060343 -3.9075031 -1.4744401 530 0 0 0 81.22522
22.479622 -29.137789 6.428102 13 0 0 0 64.482559
-5.8366699 2.7943203 -1.3765985 163 0 0 0 3.7880321
8.3419247 -7.4158983 -2.5186243 71 0 0 0 63.208961
26.548666 -11.595533 2.404403 20 0 0 0 57.957119
26.618608 2.1108706 -4.1224775 27 0 0 0 47.276543
25.957024 -18.367912 2.3398352 17 0 0 0 61.264896
8.5714493 -3.3494668 -2.9087942 41 0 0 0 57.665279
25.013149 -21.635139 -1.8574462 6 0 0 0 59.801601
-3.3498881 5.7753348 1.2956011 204 0 0 0 13.9072
1.681445 -26.758228 2.6841724 15 0 0 0 70.998528
4.6406541 -3.8042393 -2.2019351 324 0 0 0 60.970242
-5.5118318 -20.106173 -0.1304014 14 0 0 0 79.474174
-6.8017545 -30.489931 7.2563605 22 0 0 0 80.351997
-30.661327 2.1635501 2.9036438 10 0 0 0 1.1673599
26.711098 -6.0328054 4.5868134 23 0 0 0 51.644928
1.7747105 3.9401767 -2.3821361 198 0 0 0 28.598783
23.914921 3.7846632 -2.9840178 49 0 0 0 49.125378
25.809137 -11.922379 -2.3393359 13 0 0 0 53.781761
3.2628005 -1.3732959 -2.2991271 426 0 0 0 54.753792
0.34337023 7.4168382 4.4967566 6 0 0 0 22.371584
25.92309 -5.1542511 -4.3956699 28 0 0 0 50.09536
-34.050266 -0.14565632 8.5986643 5 0 0 0 97.216515
-34.174103 -1.3998965 9.1994848 7 0 0 0 1.46176
-2.5933409 -7.5496955 -1.0199291 236 0 0 0 77.333763
3.6799979 6.9875579 -2.0663083 17 0 0 0 31.222784
10.785454 -2.8505795 -3.2938309 54 0 0 0 54.266369
13.73475 4.5226607 3.5683043 71 0 0 0 46.009602
6.8028913 -31.72234 5.4512744 20 0 0 0 73.339394
7.1148977 1.9158603 -2.9687572 99 0 0 0 44.461311
25.448175 -9.6607933 -1.0736885 26 0 0 0 54.170879
26.201586 -5.1210108 -2.7002447 35 0 0 0 54.654976
-12.797894 4.8157473 0.77860403 28 0 0 0 4.2816
-35.055023 -17.030931 6.2007303 6 0 0 0 94.777855
1.831182 -28.195808 0.89246482 19 0 0 0 74.118912
22.44022 -27.21907 5.8709345 8 0 0 0 65.551613
23.671858 -25.150497 6.4614048 8 0 0 0 61.264896
24.927658 -10.22545 -4.4088979 16 0 0 0 57.860607
-3.5224624 -1.6623508 -1.5368829 299 0 0 0 95.075073
-3.0535269 -12.603579 -0.70883065 75 0 0 0 78.984962
11.879601 2.1915035 -3.6174767 34 0 0 0 45.725441
25.448063 -19.717999 1.7488981 12 0 0 0 57.277184
5.6115727 -31.67926 5.4293957 13 0 0 0 73.923843
26.937241 -6.0869513 6.8526535 18 0 0 0 54.753792
8.650341 5.838594 -2.6744521 47 0 0 0 39.118847
-1.2997825 -24.167645 3.0163646 26 0 0 0 77.619453
-1.5258226 7.0273099 -1.5249439 8 0 0 0 18.378496
18.159475 4.1150446 8.5907545 11 0 0 0 47.371521
-34.593937 -3.8144553 6.4811764 14 0 0 0 97.126404
-14.524738 -4.2809076 2.2399185 6 0 0 0 92.738304
25.236149 -16.692114 -2.2055004 15 0 0 0 60.875774
25.258482 -24.852777 2.4247451 11 0 0 0 63.897343
14.47453 4.1415448 0.4287253 48 0 0 0 42.224384
-1.1441346 -26.154125 7.3021393 12 0 0 0 77.528061
25.818872 -55.667847 -0.86971068 5 0 0 0 66.615555
-15.472823 -23.016558 2.6127355 16 0 0 0 86.301697
25.841276 -13.56771 3.2785699 18 0 0 0 54.364929
-5.2948508 5.789124 7.1092477 49 0 0 0 16.429312
14.196053 0.5289737 -3.8783846 29 0 0 0 49.600769
-6.6433926 -5.2283916 -0.89794022 108 0 0 0 86.588417
-14.367605 -3.8633449 2.7645712 7 0 0 0 94.68544
25.033186 4.571835 5.1856709 29 0 0 0 45.143295
26.120523 -18.856335 5.5879111 6 0 0 0 61.360641
31.503286 -19.956511 13.278803 9 0 0 0 56.985088
29.330156 2.5114267 8.4011478 12 0 0 0 48.151039
-3.5812535 6.7378016 5.1953645 110 0 0 0 19.645697
-9.6538792 5.9139795 3.8601644 60 0 0 0 7.8727679
27.078842 1.5837363 -3.217092 8 0 0 0 49.125378
4.4235168 6.8992453 -1.6552998 10 0 0 0 30.936832
23.682737 3.6280358 -5.0695815 28 0 0 0 47.762177
25.968584 -13.323321 3.7808878 15 0 0 0 58.934273
-0.79811478 5.4858747 2.3597195 466 0 0 0 19.747328
21.470533 -32.524498 1.0005444 7 0 0 0 65.7472
-8.7576885 6.2678585 6.1984305 35 0 0 0 10.983424
8.9509029 -11.134336 -2.3931663 30 0 0 0 64.287743
27.194977 -1.0710195 2.9548402 27 0 0 0 51.939583
23.950731 4.0383024 -2.6387653 36 0 0 0 47.371521
25.815119 -18.553774 1.7745293 14 0 0 0 56.697346
3.038234 11.514183 -1.2360065 15 0 0 0 29.089279
1.0109169 -26.102882 2.6325667 25 0 0 0 71.389694
5.929884 -4.8285127 -2.3120522 200 0 0 0 59.323902
4.789948 0.97413009 -2.6881402 202 0 0 0 47.175167
11.343148 -5.1051803 -3.3161972 37 0 0 0 58.441471
1.1600631 5.3583417 -2.1640902 249 0 0 0 30.351616
-32.629059 4.6976295 11.910215 4 0 0 0 0
-3.4431634 -31.042952 1.7479488 40 0 0 0 73.816063
22.14856 -28.737495 3.4962852 11 0 0 0 61.360641
26.147207 -6.3592634 0.16649884 24 0 0 0 53.689087
25.153915 -12.086335 -3.247519 27 0 0 0 58.738174
4.4382353 0.68469286 -2.6652465 243 0 0 0 44.461311
-14.302149 -5.4875731 1.7126743 87 0 0 0 96.15155
7.5899525 -5.8362665 -2.5053613 108 0 0 0 60.487167
-13.850984 -11.679443 1.8850796 53 0 0 0 90.785789
8.26752 4.9979434 -1.0140684 66 0 0 0 39.695358
-11.911723 -15.755598 1.1288754 17 0 0 0 85.613052
-11.228012 -2.8645566 -0.11949593 123 0 0 0 94.880257
23.043631 -27.710163 8.5345907 6 0 0 0 62.233345
3.3882565 19.720814 -1.6960799 35 0 0 0 26.071808
-30.826977 7.6230764 3.1164324 9 0 0 0 0.77951998
8.4820881 8.3047838 -3.2184696 14 0 0 0 39.50259
1.353333 -26.646341 2.6796062 13 0 0 0 71.194115
-5.9189348 -4.627656 -1.038759 153 0 0 0 91.37101
6.7000332 -4.6731024 -2.4520237 181 0 0 0 58.152447
-5.5935469 -28.587524 4.0070391 24 0 0 0 78.308609
5.3076997 2.3976135 -2.8147731 142 0 0 0 45.336319
-2.875412 -31.231533 1.1282926 22 0 0 0 76.645889
26.18013 -1.6969837 -4.7021546 18 0 0 0 51.161858
26.715508 -2.7867579 0.11525311 25 0 0 0 53.109505
-3.3428395 -24.088856 3.0968535 19 0 0 0 78.984962
13.986725 4.408505 4.7780738 30 0 0 0 42.911999
5.294642 3.3663652 -2.8029301 150 0 0 0 41.351425
4.5560703 -31.576036 5.6677685 20 0 0 0 72.84787
-9.6246042 -30.41538 4.2430582 15 0 0 0 81.721855
1.4727824 -28.09479 1.1572428 12 0 0 0 72.75341
-2.3268707 -33.718414 13.213806 7 0 0 0 78.007553
1.4119421 -26.611675 3.4607675 12 0 0 0 74.312706
10.723753 4.7718906 6.0991893 48 0 0 0 40.763905
5.5646353 -31.88341 1.2298104 15 0 0 0 70.803711
0.050775308 -26.461046 4.0103173 17 0 0 0 71.974403
2.0146921 -5.4458756 -1.4691935 228 0 0 0 67.784447
-34.444279 -3.9996293 5.1695108 4 0 0 0 95.462914
-12.166987 2.6853354 0.13199325 74 0 0 0 5.0542078
10.435187 4.6042123 3.0968218 78 0 0 0 42.808319
6.2598486 -8.090971 -2.2155929 42 0 0 0 64.574974
10.857492 4.142611 -3.2628019 106 0 0 0 42.808319
-1.2052435 -9.1475449 -0.80068153 119 0 0 0 74.118912
-4.5370646 -25.155796 5.3370972 11 0 0 0 74.897156
22.424715 -28.52404 2.7348366 19 0 0 0 64.379395
16.738096 4.2946887 9.6547651 15 0 0 0 43.390209
25.102179 -16.532896 -3.3328226 8 0 0 0 59.323902
-0.18898883 -33.086239 10.992916 8 0 0 0 76.944641
27.203299 -2.1614637 3.5120556 19 0 0 0 49.408001
26.546843 -0.30427468 -2.3222175 28 0 0 0 51.745281
3.3157797 -31.427841 5.942059 10 0 0 0 71.878914
3.1944244 5.5248175 2.8205192 52 0 0 0 29.570305
-7.011025 -4.6144738 -0.86866874 119 0 0 0 87.955711
25.795912 -21.446856 4.7151041 9 0 0 0 59.323902
-2.5816381 5.984633 3.5399349 97 0 0 0 15.849728
-5.4874954 -28.653996 3.1557543 21 0 0 0 75.092735
-8.5680561 4.2765312 -1.0769259 61 0 0 0 4.0878081
24.293797 -25.247595 4.4345236 7 0 0 0 62.729473
4.1649756 -32.236259 7.7594934 5 0 0 0 71.489021
26.305357 3.6001852 -4.3007116 17 0 0 0 47.956993
-5.7613297 -0.25550985 -1.267612 183 0 0 0 0.77951998
8.5158205 -4.5773931 -2.7668064 98 0 0 0 54.753792
10.669803 4.440865 0.9053244 91 0 0 0 41.834496
25.931358 -13.587877 1.1895808 7 0 0 0 57.569279
-10.186826 -11.610204 0.019575164 19 0 0 0 88.346115
-5.1155992 5.6351638 4.1106105 89 0 0 0 14.19392
4.7137423 5.243032 2.5810583 206 0 0 0 37.657089
1.5591048 8.4934101 -2.5434706 7 0 0 0 26.362112
3.108361 0.051022101 -2.4720364 240 0 0 0 50.183937
27.04183 -8.2950764 6.013936 7 0 0 0 52.807423
12.497488 -8.3741159 -3.347991 19 0 0 0 61.071617
14.480035 4.38059 4.3304143 40 0 0 0 41.548286
-12.18753 5.8130956 0.25817466 84 0 0 0 5.5434241
10.854998 4.7966809 7.2255492 36 0 0 0 38.924545
17.276569 3.7552299 -2.2744398 27 0 0 0 43.494911
0.73774964 -31.610357 0.74860585 12 0 0 0 76.360962
17.060791 0.35353413 -4.2796607 12 0 0 0 46.697216
26.528439 -16.749411 7.781714 11 0 0 0 57.082878
-4.1867762 -26.071699 2.8305442 8 0 0 0 74.600189
26.482529 -2.0739031 -2.8237021 33 0 0 0 48.151039
21.308743 -32.822071 1.7910697 6 0 0 0 62.729473
26.449339 -9.5015564 5.2729607 22 0 0 0 56.789505
-5.6458988 -27.849972 0.87461466 18 0 0 0 79.963905
26.369268 -9.6380644 4.7981844 34 0 0 0 52.134399
4.2102118 4.8880939 -1.9265268 208 0 0 0 36.489471
6.9609103 -4.6029334 -2.497869 161 0 0 0 57.762817
5.9298992 -11.204836 5.055037 6 0 0 0 65.449219
-8.5427799 -31.351183 9.9176826 4 0 0 0 77.918465
6.9740028 3.9378841 -3.0125494 63 0 0 0 40.473858
-2.4786503 -4.6902299 -1.2648045 418 0 0 0 82.981377
27.501677 -1.2610976 3.9862294 33 0 0 0 47.276543
7.3122096 4.9227109 1.4669975 154 0 0 0 36.97485
3.8995361 6.8822417 -1.5581365 10 0 0 0 30.057472
11.896502 4.4221249 2.2089765 87 0 0 0 42.329346
-12.010406 -4.5167603 0.46648452 104 0 0 0 93.128189
-5.945581 -6.3437772 -0.97109157 79 0 0 0 84.153603
0.51760262 3.6235645 -2.2040501 250 0 0 0 24.022017
7.1874461 4.9278412 1.5314206 231 0 0 0 41.548286
26.735901 0.95561188 -1.8882205 30 0 0 0 49.408001
24.350676 3.7287428 -1.8110147 12 0 0 0 49.125378
27.463554 1.8827963 1.1786637 9 0 0 0 47.175167
9.8620901 4.2779822 -1.8303003 121 0 0 0 41.939968
27.371767 0.7401318 3.1228542 23 0 0 0 50.867199
-3.8528125 -30.617748 10.381249 7 0 0 0 78.892029
-2.8892038 -29.573805 0.81226581 16 0 0 0 78.308609
8.510231 -32.034344 4.8288794 12 0 0 0 67.784447
17.203241 4.1708231 9.3212662 8 0 0 0 47.082752
25.30624 -12.405643 -0.19694239 16 0 0 0 57.179134
-7.4364514 -30.880705 3.1508789 18 0 0 0 77.424385
27.520552 -3.0142808 5.9628282 20 0 0 0 51.355648
-7.7047887 -5.3603582 -0.71920162 97 0 0 0 90.690048
22.533052 -28.174183 3.488447 4 0 0 0 61.071617
-11.660438 -11.767977 0.56401426 61 0 0 0 84.63488
25.411356 -14.030759 -2.8025327 16 0 0 0 56.504578
3.4317043 3.6939778 -2.6011636 190 0 0 0 33.855232
-34.442497 -5.5089793 6.4823446 7 0 0 0 96.347389
-10.034606 -30.099123 5.1752386 9 0 0 0 77.23008
-33.677704 1.6387939 6.4421105 7 0 0 0 1.076224
-1.7233415 -30.591036 1.6622846 7 0 0 0 72.94899
-5.0910659 -2.0746644 -1.2792152 233 0 0 0 95.852287
1.7011015 -20.608526 -1.1634712 12 0 0 0 72.266243
9.7527313 4.9416738 4.8955259 69 0 0 0 41.745152
3.0887311 -28.149862 4.8249402 7 0 0 0 74.990845
-10.116607 6.2307014 11.49788 19 0 0 0 10.696448
-9.6345682 6.2726173 10.091656 29 0 0 0 10.888448
25.664982 -22.183695 4.0621071 12 0 0 0 62.818047
8.0164442 2.6302795 -3.148191 78 0 0 0 46.889217
-1.8078661 5.2626657 -1.4513129 705 0 0 0 21.500671
9.943862 -32.078976 3.8932159 9 0 0 0 71.878914
26.663057 -5.9215775 8.2445698 16 0 0 0 54.654976
-10.908658 5.7523489 0.306656 137 0 0 0 6.2177281
26.026524 -11.473685 2.9649367 24 0 0 0 54.850048
-7.7349625 6.4487543 8.4264956 38 0 0 0 10.787328
-32.956867 2.2260361 9.5268803 21 0 0 0 3.206656
-13.652592 1.5868024 2.138731 67 0 0 0 2.23616
22.974745 -25.431892 8.1532927 6 0 0 0 61.556225
-32.831944 3.3861802 11.934395 9 0 0 0 98.8713
-13.458018 -10.117059 0.47913775 22 0 0 0 88.541183
26.987747 0.12154502 0.34740037 22 0 0 0 51.355648
5.5919337 -31.900858 2.5124912 22 0 0 0 72.362244
21.798683 -28.237631 -1.8190837 10 0 0 0 61.458942
-4.5467625 -11.707844 -0.62461776 77 0 0 0 81.135612
-9.3793325 4.35712 -0.95827246 79 0 0 0 6.7973118
-5.918241 6.0939317 5.4879923 74 0 0 0 10.503936
22.297554 -28.411903 1.7046382 10 0 0 0 61.264896
-13.840358 -6.5836821 0.35132611 17 0 0 0 93.321213
-7.6138816 -30.548403 6.6482434 12 0 0 0 75.968765
26.154995 -19.114639 6.2629213 13 0 0 0 58.248703
25.222292 -9.7909851 -2.7100253 30 0 0 0 55.923714
20.684069 -18.460629 -3.2101541 45 0 0 0 61.651199
13.260663 4.7992034 7.1668191 28 0 0 0 41.939968
25.916349 -18.966185 4.244205 13 0 0 0 59.90451
1.4041176 7.1111021 -0.71189046 136 0 0 0 28.119808
26.349064 -14.326097 7.5441456 14 0 0 0 56.009983
-33.371742 1.7417151 10.226305 9 0 0 0 98.099709
21.377874 -30.271582 -0.84947777 8 0 0 0 65.254913
-5.397716 -10.556119 -0.65875715 77 0 0 0 84.349693
6.0074587 -31.698277 5.436512 13 0 0 0 73.73056
26.440386 -11.964184 6.8143654 8 0 0 0 58.055168
-10.864268 5.7775435 1.0865083 91 0 0 0 4.8609281
24.801929 -9.8655109 -4.7831192 28 0 0 0 53.000961
9.6306982 4.256938 -2.6556463 121 0 0 0 45.143295
13.11091 -14.40923 -3.0545294 10 0 0 0 61.751041
2.0044444 -28.234381 0.88916689 10 0 0 0 74.011902
-33.81279 -0.096016645 11.562217 4 0 0 0 0.68761599
16.582668 -10.62129 -3.7177913 7 0 0 0 56.009983
7.6536922 4.9292865 1.8228732 160 0 0 0 38.816002
-14.455812 -3.7949493 1.690667 20 0 0 0 97.905411
-8.9864216 5.9889545 6.7396889 44 0 0 0 12.2496
-16.430408 -9.356554 1.7425447 45 0 0 0 89.023491
-30.443586 3.4990234 2.7459738 15 0 0 0 3.40224
-13.730906 1.5965941 1.6364449 55 0 0 0 0.58393598
10.939795 2.1295984 -3.4827478 45 0 0 0 47.175167
-3.6728032 -5.9829307 -1.0456808 326 0 0 0 85.613052
23.263655 -6.7915573 -4.7311316 20 0 0 0 54.654976
-1.2364 -25.363522 1.9015073 16 0 0 0 77.528061
-33.013592 2.0855792 11.335552 13 0 0 0 3.311872
25.942064 -15.076128 8.7469177 11 0 0 0 58.055168
26.530745 -11.732053 9.9613724 11 0 0 0 57.860607
22.640667 -28.44397 6.7302761 10 0 0 0 62.623745
25.370264 -18.674995 -1.6794872 19 0 0 0 58.543617
6.6707301 -1.4410729 -2.8523426 116 0 0 0 55.237122
3.4487534 -31.81036 2.2494807 10 0 0 0 74.990845
1.7695801 6.7181854 -2.4812291 11 0 0 0 27.624191
-34.446846 -5.3409233 5.6666799 15 0 0 0 99.55661
-14.649842 -16.535059 2.4003954 4 0 0 0 86.885376
12.273205 3.9706566 -3.5395706 74 0 0 0 42.02829
-0.88920867 -19.833456 -0.8584882 11 0 0 0 72.75341
-13.583044 2.7331305 1.4774113 9 0 0 0 4.9602561
-1.7476665 7.0231385 -1.5335727 8 0 0 0 17.896959
12.522508 4.028255 -2.5601199 89 0 0 0 45.143295
27.353575 2.0627012 -0.84363067 8 0 0 0 50.286846
26.444782 -9.7740669 5.5576878 22 0 0 0 55.33696
-3.2223566 6.8249779 7.8269677 53 0 0 0 20.809984
25.454445 -19.389389 1.0653541 15 0 0 0 60.29184
23.439852 -13.463325 -3.6932745 5 0 0 0 55.237122
-35.315605 -6.4781728 9.0115938 12 0 0 0 94.388222
9.5630817 5.6356468 2.7336137 111 0 0 0 39.399681
26.210852 -16.421629 5.4487028 14 0 0 0 60.29184
24.655893 -25.046051 8.851182 7 0 0 0 59.214592
-8.8343506 6.5538821 12.408017 15 0 0 0 10.310912
-1.9381189 -26.281351 7.376339 21 0 0 0 78.007553
26.368223 -11.478091 5.2829819 15 0 0 0 57.860607
24.427599 -22.926836 -3.2408431 9 0 0 0 58.934273
-1.1986806 7.8394198 -1.6895654 75 0 0 0 19.356928
26.296566 -16.615332 6.5093641 15 0 0 0 55.532543
-11.600068 6.2822056 5.1249781 126 0 0 0 7.0983682
23.025213 -16.372959 -3.4936554 7 0 0 0 61.458942
-14.447624 -3.5030978 2.2121119 17 0 0 0 93.514496
-1.7525114 -24.758158 4.3598924 10 0 0 0 77.918465
26.306356 -11.925156 5.5664377 25 0 0 0 56.504578
-6.0046072 5.2458453 -1.4224464 128 0 0 0 12.93312
-10.040586 6.2799697 12.480793 25 0 0 0 12.830208
19.440931 -36.526581 -2.5920832 10 0 0 0 65.7472
23.686863 -13.149485 -4.2650981 9 0 0 0 58.152447
-7.7181649 -27.621834 0.95484012 16 0 0 0 81.135612
-9.797718 5.5473428 -0.94236624 111 0 0 0 8.06528
-3.6938369 5.6579027 2.2607994 382 0 0 0 14.778112
-7.5238047 -11.137058 -0.4211432 26 0 0 0 83.176964
26.298798 -4.4260726 -1.7034162 21 0 0 0 49.512703
-12.021189 -4.6908169 1.0944482 80 0 0 0 92.933121
25.16 -21.638639 0.10701562 11 0 0 0 58.152447
27.660013 3.8399415 4.1439185 8 0 0 0 45.919231
26.721405 -3.885474 -2.6393287 7 0 0 0 53.879807
4.7242289 5.3420901 2.4319649 263 0 0 0 34.342655
0.99054432 5.5026865 -0.66166347 518 0 0 0 24.712704
27.473183 1.8686963 -0.51791483 10 0 0 0 48.828415
25.270124 3.6802707 -1.5548009 15 0 0 0 47.662849
22.54768 -31.095367 6.692431 12 0 0 0 64.967171
32.168598 -4.7147074 -0.4219535 5 0 0 0 49.125378
15.949471 4.0628557 1.6203036 27 0 0 0 45.725441
9.6359978 5.5913553 3.6265304 94 0 0 0 42.613247
3.9580932 4.0436897 -2.0474534 14 0 0 0 37.559551
23.429199 -3.1270597 -5.0245638 12 0 0 0 49.125378
-9.5798025 4.743947 -0.96069151 41 0 0 0 7.186944
-5.0074296 -26.612316 3.4894042 18 0 0 0 79.768578
5.6613951 -1.9915709 -2.5493355 249 0 0 0 57.179134
7.2717485 -32.83548 7.9652209 5 0 0 0 70.026237
26.123758 -15.517374 6.0111356 10 0 0 0 56.697346
26.803684 -7.3087177 7.8268108 13 0 0 0 50.575615
9.3147049 4.4507666 0.59094149 183 0 0 0 44.168194
-33.97261 0.12503575 7.9877796 11 0 0 0 0.4928
-0.65090024 -5.3200526 -1.4141177 407 0 0 0 78.69696
27.472134 1.7432147 0.82409215 16 0 0 0 48.828415
-10.754675 2.7847278 -0.065425515 109 0 0 0 2.5331199
12.836587 -10.923043 -3.2649908 17 0 0 0 58.152447
-14.347769 -4.7123489 1.4728898 29 0 0 0 92.245247
-11.700145 6.1200738 5.4785004 55 0 0 0 10.115584
9.4930115 1.7738415 -3.3046176 46 0 0 0 44.07296
16.480013 -8.4745131 -3.8077354 12 0 0 0 57.665279
-4.0553927 7.7389488 0.22887406 77 0 0 0 15.849728
-11.615186 -5.0253134 0.44830331 99 0 0 0 92.346626
3.9050441 3.7072678 -1.5713911 4 0 0 0 36.38784
21.457306 -20.129766 -3.1265261 12 0 0 0 60.487167
-5.6385999 -0.9071362 -1.238044 241 0 0 0 97.905411
15.411797 -3.8833904 -3.8641584 17 0 0 0 54.072063
-9.224782 5.9297419 1.7325016 58 0 0 0 10.983424
1.9135994 5.1149588 -0.86967337 688 0 0 0 30.742785
-11.969816 -10.977125 0.87717158 37 0 0 0 90.10611
-5.2793145 4.5763545 -1.4881052 113 0 0 0 11.277312
21.362564 -31.86648 -0.50491774 7 0 0 0 64.093185
-11.282186 6.24577 8.3108978 19 0 0 0 7.6784639
-3.7341728 -6.480361 -0.96592802 252 0 0 0 82.004478
24.303261 -26.012938 2.403301 7 0 0 0 64.574974
-1.5591276 4.9601479 -1.9567323 154 0 0 0 21.981953
-6.4269867 -30.531906 7.2337728 18 0 0 0 80.158211
0.93219334 6.8991399 4.5056462 11 0 0 0 25.292543
-8.7073011 -30.325956 7.3997011 18 0 0 0 81.3312
-12.224746 -10.827457 1.8498927 561 0 0 0 88.829437
27.095284 1.0530223 -0.91596746 39 0 0 0 50.867199
-5.1701469 3.1712704 -1.4833964 196 0 0 0 10.310912
22.787718 -15.565062 -4.1494622 13 0 0 0 58.055168
-7.907836 5.9621687 4.3470063 65 0 0 0 12.73856
25.258364 -12.525417 -0.50899976 16 0 0 0 58.829056
31.345278 -20.064434 12.459955 4 0 0 0 60.387329
25.394035 -18.421358 -1.9984034 6 0 0 0 59.997185
5.5548944 -12.189633 -1.7319343 57 0 0 0 69.83091
26.329741 -12.739558 6.3097968 11 0 0 0 53.689087
-32.274693 4.7406735 10.234589 4 0 0 0 2.92224
12.96357 -6.0962377 -3.4772727 26 0 0 0 55.532543
27.419153 -4.4820714 4.7831135 21 0 0 0 50.673409
27.001337 2.2148404 -1.1529262 19 0 0 0 45.531902
-8.3306017 -7.7213502 -0.49516246 64 0 0 0 90.00013
26.864342 2.0215087 -2.8126726 30 0 0 0 47.276543
26.999344 -8.2070417 8.6403885 15 0 0 0 54.266369
22.885628 -26.51652 9.4825706 5 0 0 0 65.161469
-33.292328 2.444371 5.0030003 11 0 0 0 98.4832
24.911047 5.3914433 4.3377004 16 0 0 0 43.104511
-4.6341963 -30.502745 9.6778355 7 0 0 0 74.40435
-12.464211 -24.401609 1.6274016 24 0 0 0 81.22522
-6.5845065 -21.47867 0.09886089 9 0 0 0 78.397697
26.908491 2.4383116 -1.7796125 32 0 0 0 48.541695
-5.0696859 6.1469798 9.4228497 16 0 0 0 13.801728
25.218966 -15.701057 -0.66772467 14 0 0 0 60.387329
27.082869 -4.2589636 1.3752847 17 0 0 0 53.879807
10.53531 4.7256107 5.5182991 61 0 0 0 39.118847
-10.051789 5.7819209 1.3333421 154 0 0 0 8.5547523
-8.4650517 5.8984509 0.92876118 47 0 0 0 8.3594236
-6.2557688 5.6253471 0.33892342 179 0 0 0 11.861504
24.984474 3.9853168 2.8856738 7 0 0 0 44.07296
12.03491 -6.4032283 -3.3418567 28 0 0 0 56.31155
8.9201469 -32.276531 -0.084252805 14 0 0 0 67.692291
27.665102 0.67278796 5.2121453 23 0 0 0 47.662849
-5.580224 6.0506039 10.396151 18 0 0 0 15.07328
13.283175 -5.9492211 -3.5188069 21 0 0 0 55.237122
6.8141913 -33.791893 9.997529 6 0 0 0 70.327553
10.080928 -18.962608 -2.3728948 7 0 0 0 65.7472
5.2344146 -33.363182 9.4856176 5 0 0 0 72.654846
24.971876 -25.472273 2.4258966 7 0 0 0 64.18483
-5.335793 4.2394238 -1.4756275 176 0 0 0 10.593024
1.0677925 -25.160313 3.0670605 23 0 0 0 76.06707
27.503857 4.0468173 3.7933035 10 0 0 0 47.371521
14.460176 4.4668269 2.7486548 38 0 0 0 41.64045
23.900667 -1.5687692 -4.9572296 22 0 0 0 48.048386
7.5630636 3.6838503 -3.1155689 65 0 0 0 39.788799
-8.0650005 6.1704607 13.357951 19 0 0 0 8.7493124
-11.087544 5.8912516 3.0242834 64 0 0 0 5.1555839
24.902092 4.4495082 4.2112713 23 0 0 0 43.687935
-8.954278 -2.69644 -0.65795571 81 0 0 0 95.759361
24.083548 -24.771563 9.3968182 4 0 0 0 64.18483
-14.271539 0.37639484 10.472801 28 0 0 0 4.178432
-7.0827723 -1.1199051 -1.0308354 149 0 0 0 94.777855
25.846645 -16.708303 2.3160086 19 0 0 0 60.582657
13.295346 4.3184524 4.2002745 50 0 0 0 46.009602
-33.714748 -0.89507276 12.923226 16 0 0 0 2.0413439
27.154968 -4.9435263 4.7125692 29 0 0 0 50.966015
24.971008 -15.236856 -2.5872002 17 0 0 0 55.62112
0.74136609 5.4045196 2.7229071 382 0 0 0 27.043585
-6.5110264 5.3303442 -1.0932573 279 0 0 0 12.44288
15.821637 4.5636563 5.0719352 31 0 0 0 44.948994
15.315047 0.34306511 -4.0052366 23 0 0 0 48.243713
-6.1416798 5.7414246 4.4545741 128 0 0 0 12.93312
27.138313 -1.1794096 1.909621 29 0 0 0 50.479359
26.754068 2.1066105 -3.4967759 40 0 0 0 50.379776
-4.951787 -11.498796 -0.60567605 62 0 0 0 81.721855
-2.893553 4.2362332 -1.7605422 229 0 0 0 13.801728
-11.520792 -6.6407075 -0.070852399 13 0 0 0 88.931839
-8.9543734 5.732419 2.7762737 127 0 0 0 11.177984
27.717737 -0.95923144 6.5002418 5 0 0 0 48.541695
10.107858 1.889909 -3.3896296 67 0 0 0 48.930305
-14.515886 -4.1913581 1.7053623 6 0 0 0 97.517059
-10.99182 -1.0113451 -0.096645236 128 0 0 0 97.410561
16.311319 4.3169026 4.0469527 29 0 0 0 46.98035
27.5249 3.9314024 3.4502015 11 0 0 0 49.021183
-2.2336013 -7.0966244 -1.0970345 275 0 0 0 80.058365
25.319267 -25.510283 7.188118 6 0 0 0 59.214592
25.707827 -16.534487 0.8070873 17 0 0 0 60.582657
25.662308 -6.505857 -3.1665061 27 0 0 0 50.867199
31.32163 -13.227383 -3.4778478 10 0 0 0 56.399105
-33.871056 -3.9364259 9.8880539 12 0 0 0 97.023232
9.7105522 -3.6246784 -3.1217234 56 0 0 0 55.815426
26.984348 -5.7539172 4.6463666 24 0 0 0 51.450367
0.83663774 -5.6591501 -1.3777599 299 0 0 0 69.543167
-28.645817 10.554055 3.0965426 17 0 0 0 4.0878081
-11.552969 6.1675968 6.1016917 55 0 0 0 5.5434241
25.939936 -6.6089787 -0.54785174 38 0 0 0 50.770176
-6.8603911 -29.328276 2.6949308 15 0 0 0 78.892029
31.570942 -19.963736 12.852501 9 0 0 0 58.634495
-7.3829589 -27.709139 0.94241214 8 0 0 0 80.939262
-4.0001135 -25.06752 4.9885025 8 0 0 0 76.165375
7.5853453 4.8494215 0.88574207 214 0 0 0 39.010559
26.568037 -10.987922 4.8317819 18 0 0 0 52.807423
-0.58861703 -25.989691 4.52635 14 0 0 0 77.139458
14.448498 4.954021 5.8773336 19 0 0 0 42.41843
-3.5477064 -20.631598 -0.40005383 15 0 0 0 79.474174
-3.6245732 5.5896454 1.1739935 480 0 0 0 14.684672
-6.8954473 6.9653111 1.9025502 33 0 0 0 12.93312
16.42178 4.6669436 8.8463736 14 0 0 0 41.351425
23.003691 -25.32996 5.0612626 12 0 0 0 59.997185
-34.502686 -5.1069407 6.0554528 8 0 0 0 98.099709
-11.168087 -30.556746 3.0526199 6 0 0 0 80.83712
-3.4324994 5.9099927 -1.5703391 17 0 0 0 14.972672
1.7124164 8.9997559 -2.5753701 5 0 0 0 24.799999
14.779142 -1.6151328 -3.8912842 36 0 0 0 48.735489
23.49424 -7.5903249 -4.3090911 7 0 0 0 51.939583
16.054335 4.2566247 3.3219852 31 0 0 0 45.4272
5.4327025 5.3954258 -0.063667968 95 0 0 0 38.924545
8.6605597 5.9053679 -2.4534802 44 0 0 0 42.224384
24.261053 -25.684994 -2.8259969 4 0 0 0 64.574974
11.568961 -2.230119 -3.4254763 47 0 0 0 53.196545
25.391607 -24.428925 1.3962512 12 0 0 0 60.582657
-33.180351 3.4617555 9.8327217 14 0 0 0 3.7880321
1.6050118 -24.519459 -0.65013146 18 0 0 0 75.677437
26.300503 -9.0187511 3.8262632 29 0 0 0 56.593662
-14.46415 -16.096375 1.7500376 24 0 0 0 83.860481
6.2176971 -31.853411 3.8273714 18 0 0 0 73.622528
24.144897 -6.0490465 -3.5382717 20 0 0 0 53.976833
-6.6114969 -3.9738243 -0.95200199 132 0 0 0 91.760124
-4.4972949 0.96924895 -1.4649124 6 0 0 0 3.311872
26.535065 -0.30208531 -2.6682863 41 0 0 0 47.082752
1.9354419 6.9995837 -1.5069852 23 0 0 0 29.375744
-4.2650647 -7.8550725 -0.82090527 177 0 0 0 83.176964
-0.91466194 -24.074179 2.2355018 18 0 0 0 74.208511
0.59382832 -26.975693 7.4696875 12 0 0 0 76.453377
23.156742 -8.5352097 -4.6380434 20 0 0 0 54.170879
26.430843 -5.0241365 -0.73765653 33 0 0 0 51.355648
4.273294 -32.508801 8.2213383 8 0 0 0 69.83091
6.2984319 -31.871187 3.1515901 4 0 0 0 68.858109
-14.225096 -14.367862 1.6747129 41 0 0 0 84.63488
-5.3896556 -11.364285 -0.58879203 56 0 0 0 82.304512
26.647367 -9.2943039 6.7805052 18 0 0 0 56.593662
6.4663887 -6.3277063 -2.2953866 152 0 0 0 60.776958
22.621693 -26.1439 5.7679405 12 0 0 0 65.161469
-11.260406 -4.3066368 0.30179706 129 0 0 0 94.583809
4.4093328 6.6053672 -1.6168468 22 0 0 0 31.222784
14.969376 4.9295454 7.9334812 25 0 0 0 42.41843
21.783981 -25.88183 -1.6962472 9 0 0 0 60.776958
2.8951073 -1.5029608 -2.3772242 5 0 0 0 56.009983
-3.7338338 6.071456 -1.551784 31 0 0 0 12.93312
-9.8547029 -3.2919137 -0.50825089 50 0 0 0 92.150017
2.4825268 -32.143787 8.1273556 8 0 0 0 70.715645
12.279719 -0.39846343 -3.6130462 50 0 0 0 52.329472
-7.422678 -30.892469 2.8475039 14 0 0 0 78.984962
-5.0996504 -5.1091523 -1.1499262 167 0 0 0 84.63488
18.000278 4.3025751 6.3940582 20 0 0 0 47.276543
-4.1645131 -6.3977809 -0.96941847 255 0 0 0 82.885117
14.498465 0.98712528 -3.9289434 37 0 0 0 49.125378
14.752094 -8.7741814 -3.5724173 10 0 0 0 58.634495
-0.25608477 -26.021406 3.9586222 14 0 0 0 72.168449
4.8628802 5.1090202 2.1630063 298 0 0 0 38.145535
-0.8805607 -14.028116 -0.85347098 52 0 0 0 76.165375
5.9057422 -6.644495 -2.1849163 125 0 0 0 60.29184
6.1209383 -7.5693831 -1.9988347 51 0 0 0 62.623745
5.2613072 -32.328869 7.478498 6 0 0 0 72.557571
22.683811 -25.528158 -2.7489359 14 0 0 0 65.061378
0.35566041 -31.565477 0.75802433 12 0 0 0 76.55603
25.35425 -10.088532 -1.720872 22 0 0 0 57.569279
1.7552587 5.0841002 -2.0507605 323 0 0 0 30.547199
-10.566393 2.7505429 -0.59756327 114 0 0 0 2.4296961
-34.891026 -17.657652 5.568779 5 0 0 0 89.804802
17.930212 1.1464714 -4.4363823 11 0 0 0 46.009602
3.5534513 -5.0404816 -1.9568664 282 0 0 0 65.254913
-1.7434381 6.753993 -1.9543124 26 0 0 0 19.356928
-13.856834 0.75156122 1.1615664 20 0 0 0 2.624512
25.969578 -12.658914 3.2951875 22 0 0 0 53.879807
25.986832 -6.0693526 -2.7646887 46 0 0 0 55.237122
4.4582567 6.9624295 -1.0401707 35 0 0 0 34.048
-7.6200571 -30.655779 5.0557594 16 0 0 0 75.968765
22.078226 -26.141882 1.6408423 8 0 0 0 60.681473
-3.4805934 -1.3379757 -1.5668305 397 0 0 0 92.933121
21.073025 -30.061705 -3.0127702 9 0 0 0 66.915581
-15.60471 -24.147049 2.6882119 8 0 0 0 86.003967
17.428614 4.2233763 2.8667183 46 0 0 0 44.267265
23.415674 -7.8690681 -4.3344593 4 0 0 0 52.134399
-2.2662275 -4.255137 -1.342994 508 0 0 0 81.419006
-32.375679 3.575654 14.209505 6 0 0 0 1.076224
26.944763 -3.8375976 2.0162907 22 0 0 0 50.479359
13.214851 -6.8482509 -3.4957163 20 0 0 0 54.560001
-0.48790607 -24.459364 -0.3601687 20 0 0 0 75.484413
9.4834709 -17.563993 -2.3979485 12 0 0 0 67.199486
26.387791 -19.40148 9.0857401 7 0 0 0 61.458942
26.438683 -2.6239562 -1.8519233 22 0 0 0 49.990658
26.476618 -4.7014942 -0.71300995 22 0 0 0 51.161858
25.644026 -11.974498 -2.9421399 13 0 0 0 56.985088
-0.97139132 -3.7889972 -1.5031047 517 0 0 0 75.872513
24.00564 -24.973738 8.712182 4 0 0 0 59.40992
-7.8386145 8.5373878 6.400764 17 0 0 0 12.347392
-30.423473 9.5076952 3.4234424 9 0 0 0 1.755136
27.269863 -0.41517934 3.0145268 19 0 0 0 51.55072
-6.783205 6.4141703 12.008936 15 0 0 0 12.153088
-7.2052097 0.73058587 -1.0872034 118 0 0 0 3.1170559
26.836246 -7.3186235 7.4302073 15 0 0 0 52.227074
-9.1934242 5.8810806 0.77693868 157 0 0 0 9.2331524
-10.558795 2.6129787 -0.61450154 125 0 0 0 2.23616
-0.15614615 5.8174357 3.1847286 12 0 0 0 21.393663
12.382361 -4.5909905 -3.475281 30 0 0 0 57.374462
2.3402381 -9.1146803 -2.0252848 6 0 0 0 71.101692
-10.354493 -7.108829 -0.2279693 50 0 0 0 89.217537
-2.3501947 5.5648613 1.9787648 509 0 0 0 19.063295
-2.5980959 5.8596802 1.172737 162 0 0 0 17.119488
-6.3023324 -31.200394 9.049716 6 0 0 0 80.058365
0.36840045 5.3308935 -2.1715646 41 0 0 0 24.60416
25.575886 -16.640291 -0.061675902 12 0 0 0 57.569279
-3.7102468 6.2092209 4.5171695 138 0 0 0 17.209087
-6.266603 -8.3668261 -0.8074705 79 0 0 0 83.957764
-8.6654625 5.8129883 3.8044941 83 0 0 0 6.9911041
25.500685 -24.159184 3.5174019 11 0 0 0 58.829056
8.1697245 6.3494682 3.5319247 18 0 0 0 40.473858
-11.999449 4.5510411 0.39566374 127 0 0 0 7.3822718
-3.6869314 -33.130886 12.261201 5 0 0 0 73.73056
-6.1980443 5.7782521 5.6427245 72 0 0 0 13.129472
27.002766 -4.0586901 0.66898888 21 0 0 0 50.673409
25.886419 -9.2132215 0.29606903 32 0 0 0 53.781761
-12.624601 6.1594844 5.6179471 27 0 0 0 4.8609281
26.953852 -1.4743809 -0.45776522 7 0 0 0 49.213951
-11.280594 5.7845101 0.29453957 81 0 0 0 6.0252161
-11.766705 -13.405746 0.56340617 38 0 0 0 83.665405
32.500645 -0.65864986 10.702753 8 0 0 0 49.794815
26.075752 -17.871792 4.9399233 21 0 0 0 56.203262
3.1749928 -32.078392 7.7187195 4 0 0 0 71.974403
-3.5129833 6.1380939 0.28879693 133 0 0 0 13.801728
24.629341 -12.703752 -4.3231635 12 0 0 0 57.665279
27.039169 -2.0359688 2.1547604 21 0 0 0 49.408001
27.803686 0.80795324 7.4840503 12 0 0 0 50.673409
-11.026161 -6.1779141 -0.19812699 36 0 0 0 90.690048
25.949392 -6.027771 -3.4407034 31 0 0 0 52.134399
4.8123298 -31.973852 0.95076728 15 0 0 0 72.75341
25.338882 -8.8583364 -3.9775176 5 0 0 0 55.42989
24.879313 4.2082729 3.824631 20 0 0 0 45.4272
12.381968 4.478601 3.8623555 62 0 0 0 40.669952
8.251111 -32.046585 -0.71448624 13 0 0 0 71.101692
-4.0836763 2.3145707 -1.5787534 319 0 0 0 8.1651201
-2.4141474 -26.173655 2.4811413 5 0 0 0 75.092735
-2.90187 7.4448466 8.764719 10 0 0 0 18.093311
24.9014 -15.97245 -3.2645919 8 0 0 0 59.129856
-28.984467 10.063416 1.9109386 6 0 0 0 2.144768
22.713818 -25.373154 4.284348 12 0 0 0 63.312897
26.98428 -8.0818157 5.3821535 8 0 0 0 55.923714
24.995354 -20.084185 -1.7606014 14 0 0 0 59.214592
-32.720001 1.3143944 6.1147604 17 0 0 0 0
-8.2415953 6.0913739 5.4451156 78 0 0 0 9.5288324
26.196304 -21.742464 9.3640099 5 0 0 0 62.427647
9.9931583 -0.95260704 -3.2521389 48 0 0 0 50.09536
1.1508646 -24.34585 -0.63305086 21 0 0 0 75.968765
26.47835 -6.8290944 3.9017868 28 0 0 0 55.33696
-11.433563 6.4684844 11.116385 14 0 0 0 11.66592
2.2875855 -8.8819361 -1.6083243 141 0 0 0 72.654846
0.43809316 -12.678951 -1.5509953 5 0 0 0 76.165375
9.9631252 5.636662 6.4846706 49 0 0 0 42.613247
-5.7869964 -19.702959 -0.11431202 14 0 0 0 79.768578
22.412249 -25.547932 2.5952623 11 0 0 0 63.507458
-3.2435908 -7.9317021 -0.9106068 190 0 0 0 82.981377
-1.5715792 -25.308205 -0.10009325 18 0 0 0 74.600189
-5.4952011 -14.926088 -0.50512689 21 0 0 0 77.723137
11.301878 4.2753129 -1.3551741 134 0 0 0 41.057793
25.863993 -15.902561 2.6168909 8 0 0 0 58.634495
17.046124 3.8559091 -1.15679 56 0 0 0 47.956993
6.7730761 4.9838562 1.9484391 195 0 0 0 40.959232
-2.7584946 -9.9962349 -0.85561252 116 0 0 0 76.360962
-2.911984 -32.943638 11.331564 5 0 0 0 76.645889
-0.2322996 -31.516617 1.0530893 17 0 0 0 75.287811
26.43034 -0.49488303 -3.6560576 26 0 0 0 51.939583
3.4153583 0.069643162 -2.5224545 257 0 0 0 51.939583
-33.934849 0.47691327 8.5720606 22 0 0 0 97.517059
27.680244 -0.75044864 4.7372875 11 0 0 0 50.09536
27.87886 1.9874395 7.6287284 4 0 0 0 49.990658
4.0308318 -0.46627414 -2.5609143 284 0 0 0 50.379776
3.3204749 -20.389772 -1.3980674 20 0 0 0 72.557571
-4.0337152 8.7765455 -0.038426645 5 0 0 0 19.747328
25.764633 -6.6240077 -1.8683501 23 0 0 0 50.867199
-11.095127 -2.1227477 -0.10769655 133 0 0 0 95.852287
-3.1647029 7.3022637 7.4506493 11 0 0 0 21.112576
7.6279492 -31.760002 4.7708015 7 0 0 0 68.177155
0.35731426 -5.7807412 -1.4940305 440 0 0 0 74.118912
26.480503 -2.8208323 -1.5716603 30 0 0 0 48.541695
23.873585 -1.7132027 -4.9661727 17 0 0 0 48.151039
17.496624 4.0880857 3.5331838 30 0 0 0 45.919231
2.0004265 5.446528 0.44253087 48 0 0 0 27.341057
21.898304 -31.577599 2.8663306 10 0 0 0 65.357056
-8.705245 -30.480377 6.3668628 11 0 0 0 78.113792
-7.3622155 5.6985865 3.1714234 154 0 0 0 11.177984
22.55094 -29.854675 10.089135 5 0 0 0 66.229248
26.901058 -7.3122554 8.5983248 21 0 0 0 53.781761
-12.442303 8.4610653 3.0253346 14 0 0 0 6.7084799
14.794776 4.8737588 6.8835707 12 0 0 0 42.524673
25.653557 -18.535673 0.76920366 17 0 0 0 61.458942
26.487175 -7.1710215 3.8931932 12 0 0 0 55.532543
26.512978 -13.089334 5.9750342 9 0 0 0 55.42989
22.555107 -31.194666 8.6721048 6 0 0 0 64.967171
1.1044853 5.6238074 3.0767231 81 0 0 0 24.60416
0.68839043 -25.789858 2.6088014 14 0 0 0 71.585281
6.0334234 -34.388363 11.687566 9 0 0 0 72.362244
-12.711536 -0.77730864 0.34987399 73 0 0 0 99.456253
-10.867877 6.2512684 6.0354028 17 0 0 0 10.888448
-4.9180508 -10.5441 -0.66091985 93 0 0 0 83.761406
24.843241 -24.360506 -0.32086524 11 0 0 0 60.776958
25.934999 -13.781073 4.0737743 15 0 0 0 57.569279
-8.6843338 2.7943645 -0.9828248 99 0 0 0 4.8609281
4.7965555 -21.270233 -1.5072783 16 0 0 0 71.585281
-30.844589 0.92306507 3.0863466 7 0 0 0 97.800446
24.997177 -20.334896 -1.7759111 11 0 0 0 59.323902
-0.35262242 5.8357205 0.56571174 332 0 0 0 21.005312
26.48328 -12.102008 7.1076455 12 0 0 0 56.504578
4.2524242 3.718796 -1.4500152 91 0 0 0 38.623489
1.9111651 -5.4684968 -1.4645491 170 0 0 0 68.079361
26.287466 -21.096397 6.8762965 12 0 0 0 57.374462
-9.1627493 -30.513502 5.1587806 19 0 0 0 76.749825
-6.2651315 -28.92988 3.2275751 4 0 0 0 75.484413
27.249344 -4.1614265 1.6988219 7 0 0 0 52.227074
27.639687 -1.3248088 5.0307283 12 0 0 0 48.828415
15.960973 3.8289728 -2.9137304 18 0 0 0 43.197441
29.355652 2.8701954 8.4525776 4 0 0 0 47.956993
-32.476578 4.8214188 8.9902678 15 0 0 0 1.2684799
-0.57428712 6.1871934 -1.8610669 107 0 0 0 23.634176
-4.8040018 0.52119714 -1.4315237 46 0 0 0 98.970879
-32.35952 5.5746541 9.638588 8 0 0 0 0.102912
1.7293022 -26.861959 2.4162838 20 0 0 0 72.557571
4.5399299 6.2241783 -0.3444778 75 0 0 0 36.489471
12.968841 4.7674332 7.6917977 21 0 0 0 43.494911
22.185806 -26.746138 3.3736081 18 0 0 0 60.776958
26.711592 2.8672605 -3.0710464 16 0 0 0 48.346367
4.8207603 -12.844994 -2.0431418 9 0 0 0 66.229248
-13.94018 -10.485942 1.1627213 29 0 0 0 90.10611
8.3909254 4.7537313 0.053634126 144 0 0 0 38.429951
6.0100327 6.4401875 3.8162158 8 0 0 0 36.295681
-15.22305 -20.385946 1.9599667 10 0 0 0 82.395134
-29.495056 6.9019942 2.9177992 9 0 0 0 0.58393598
-12.403305 -32.593269 2.2745388 14 0 0 0 77.918465
26.529409 -4.7764139 -3.7093151 4 0 0 0 52.915455
11.892282 4.9629211 5.8411555 21 0 0 0 41.251583
26.852251 3.5877523 -1.6820363 8 0 0 0 47.856129
14.879241 -0.21587549 -3.9378164 29 0 0 0 48.828415
-11.587439 6.1941204 7.2822361 25 0 0 0 8.9433603
1.9110626 5.2197886 -1.0150174 344 0 0 0 27.430656
-7.1262813 -12.749706 -0.36936611 35 0 0 0 80.253693
-6.3845339 5.5252128 2.3549762 225 0 0 0 13.519872
-30.235994 9.8228951 3.8055322 9 0 0 0 6.603776
-12.001977 5.3636756 0.21172161 55 0 0 0 5.1555839
5.645083 -33.379635 9.4996233 7 0 0 0 72.462334
2.4936218 -4.2185378 -1.8823396 386 0 0 0 68.177155
19.793104 -1.23673 -4.5587592 15 0 0 0 51.161858
22.294178 -30.877182 2.4972308 6 0 0 0 66.615555
16.080345 4.3991141 4.9087839 37 0 0 0 46.787071
7.49651 -31.798786 4.4196434 12 0 0 0 69.83091
24.953653 -17.280378 -3.7439809 17 0 0 0 61.264896
15.928297 -4.8857145 -3.9091208 19 0 0 0 53.301762
10.291524 7.8235455 8.4572105 6 0 0 0 40.473858
31.046753 -13.744646 -4.4602747 11 0 0 0 53.586433
-10.254502 -23.502865 0.99291372 26 0 0 0 83.371773
26.871264 -4.5345974 2.3015804 29 0 0 0 49.319168
6.8570938 -7.8273001 -2.2449305 53 0 0 0 63.598846
-9.8918543 -27.498878 1.3136345 7 0 0 0 80.743172
-9.2015038 6.1834078 12.887492 12 0 0 0 7.7731838
3.7352657 -27.062456 -0.51815152 20 0 0 0 72.94899
23.59264 -2.5643284 -4.9970469 15 0 0 0 48.735489
-0.35459942 -33.238438 11.3002 7 0 0 0 75.379715
26.369656 -8.4366932 1.7075526 10 0 0 0 53.196545
16.033306 4.3454585 3.9955482 33 0 0 0 46.889217
-10.011961 -11.837574 0.01010672 33 0 0 0 88.048897
-2.8853097 7.2571211 9.9947271 37 0 0 0 21.981953
-34.174271 -2.1944759 10.464724 11 0 0 0 96.243454
1.1030818 -31.654221 1.0204494 16 0 0 0 74.600189
15.598015 3.909641 -1.2020487 54 0 0 0 42.911999
25.209986 -25.256708 3.1415837 5 0 0 0 60.875774
9.1510496 -2.6060584 -3.1110401 67 0 0 0 51.355648
11.10206 0.65936697 -3.4578462 41 0 0 0 47.662849
-2.9617972 -8.6865244 -0.90350896 165 0 0 0 80.447998
-14.187029 -0.15959184 3.9343941 16 0 0 0 2.144768
24.965555 4.3944221 4.5111971 18 0 0 0 48.437248
-2.0475812 5.6543751 3.5482724 191 0 0 0 18.378496
9.5610399 -32.209679 2.2430596 7 0 0 0 72.072449
0.12546796 -28.031754 -0.17020893 15 0 0 0 73.534462
-34.534134 -1.9308795 7.7832704 6 0 0 0 99.55661
23.557627 -6.0053387 -4.4004192 43 0 0 0 52.525055
-16.604429 -9.3225498 1.7581468 6 0 0 0 89.128189
-5.4377584 -28.54311 4.275907 17 0 0 0 76.645889
5.5518947 2.6019368 -2.8246844 166 0 0 0 43.390209
25.058329 -24.572887 0.68800336 15 0 0 0 63.897343
15.029418 4.2445464 2.3602877 37 0 0 0 45.232895
-3.3086312 5.5885816 1.4950569 515 0 0 0 15.363328
1.0507294 5.4588385 -1.9641092 13 0 0 0 26.556671
-4.433392 -19.400995 -0.34145829 14 0 0 0 80.351997
26.420773 -2.2684529 -2.1343496 40 0 0 0 51.355648
25.617794 -10.176388 0.23515984 14 0 0 0 54.364929
7.050005 5.0218225 2.4531748 38 0 0 0 41.156097
1.9988943 2.5960937 -2.4117906 183 0 0 0 32.304382
22.597574 -28.872566 8.6620817 9 0 0 0 62.729473
7.972703 4.8301635 0.89081264 179 0 0 0 39.399681
25.88942 -13.720472 0.88304842 12 0 0 0 59.214592
3.6285727 2.3933342 -2.6197176 52 0 0 0 43.002625
21.433769 -27.424385 -1.7701892 9 0 0 0 61.360641
-2.5091457 7.0235066 10.603849 22 0 0 0 16.536064
-3.9887197 5.5689268 5.1426373 79 0 0 0 17.896959
-32.472263 4.3435488 10.663449 4 0 0 0 1.1673599
26.453848 -12.989769 7.4850287 14 0 0 0 55.33696
3.1789448 3.6364784 -2.5456712 106 0 0 0 35.124737
-7.5926595 -0.53007632 -0.97521108 152 0 0 0 0.38912001
-3.1681559 6.339613 8.6104336 26 0 0 0 16.924929
-0.71554798 -14.124431 -0.86425555 32 0 0 0 75.968765
-9.693037 6.2019749 9.715313 22 0 0 0 7.186944
-4.6565723 -3.3663549 -1.2884476 221 0 0 0 90.39283
-34.491436 -0.6322391 6.4360986 5 0 0 0 98.579453
11.354385 1.0968339 -3.5084231 39 0 0 0 47.082752
15.580886 3.9866986 -0.79839396 62 0 0 0 45.919231
14.577619 -6.4463363 -3.6918807 25 0 0 0 53.586433
-6.1246324 5.7309718 6.6660891 64 0 0 0 9.9210243
15.712008 0.73986953 -4.0789371 11 0 0 0 47.856129
-36.165222 -1.5374584 5.4141693 5 0 0 0 96.633858
-14.261969 -14.968794 2.0767028 26 0 0 0 89.023491
-2.2995739 -18.547544 -0.75872117 16 0 0 0 74.011902
27.510916 -1.7443713 5.7382207 16 0 0 0 52.227074
-6.0688829 -28.71039 6.1569357 7 0 0 0 75.379715
10.963008 6.0127034 11.511416 18 0 0 0 38.816002
25.000982 4.327477 4.8107381 12 0 0 0 46.889217
-11.985649 -17.796064 0.97890276 27 0 0 0 86.301697
9.8245373 -5.104671 -2.975503 88 0 0 0 59.323902
11.418941 4.2689948 -0.7571137 109 0 0 0 41.057793
5.5810003 5.3610764 -1.0259144 137 0 0 0 36.192001
27.765949 1.3164035 3.8872907 11 0 0 0 47.371521
-9.4632769 -12.669331 -0.022808809 11 0 0 0 87.080193
-2.1940982 -9.7849226 -0.93426174 152 0 0 0 77.139458
27.005869 -4.4324846 0.96468443 5 0 0 0 49.319168
-0.68160808 4.3491106 -2.0325809 205 0 0 0 21.005312
26.491505 -1.8201375 -1.7857022 11 0 0 0 49.512703
25.992985 -16.555271 3.3250337 16 0 0 0 55.728897
24.91312 -19.449244 -2.9564583 11 0 0 0 57.471233
26.763279 -11.166902 2.7341444 17 0 0 0 56.117504
26.601271 0.74353153 -3.2247605 39 0 0 0 49.600769
31.867626 -6.924716 11.658983 8 0 0 0 54.560001
26.199427 -23.612095 7.8017273 10 0 0 0 63.118336
13.478816 4.4437356 2.9374096 24 0 0 0 44.461311
25.178741 4.8798056 6.2425017 20 0 0 0 46.502144
-10.257643 5.8674397 3.3389754 71 0 0 0 7.2916479
-7.3647366 5.7638497 4.8433375 97 0 0 0 11.568896
15.633214 4.839663 10.086319 21 0 0 0 44.267265
-9.7506876 -30.255709 7.7480712 6 0 0 0 80.253693
-7.3877273 4.8361306 -1.2419897 66 0 0 0 10.696448
22.528154 -26.671642 5.8173633 14 0 0 0 65.357056
-35.135056 -18.082266 4.2904778 11 0 0 0 94.388222
-6.3864489 6.071084 8.6222649 33 0 0 0 10.115584
8.3674383 4.6385474 -1.8163885 188 0 0 0 43.585281
9.6494408 -25.104435 -1.6573201 13 0 0 0 67.692291
-9.3117514 -1.7833688 -0.6582225 69 0 0 0 97.410561
-9.8979797 -30.242496 6.8115916 9 0 0 0 77.139458
11.87018 0.45182884 -3.5850859 38 0 0 0 46.398209
21.519129 -27.778471 -2.5011454 5 0 0 0 64.574974
26.278809 -12.781056 5.9158421 10 0 0 0 55.33696
17.521891 4.4132681 7.8084512 21 0 0 0 43.687935
12.803133 4.2030587 0.091177277 72 0 0 0 44.753922
22.424438 -20.745033 -3.5581253 14 0 0 0 61.948158
3.960597 -1.2927587 -2.4009993 498 0 0 0 53.494785
8.0891666 -6.6724072 -2.5430641 106 0 0 0 57.860607
9.7511778 6.3666005 4.1906347 11 0 0 0 38.535168
-5.1651812 -0.46821019 -1.3213741 296 0 0 0 97.410561
25.197193 5.6221919 7.1084304 17 0 0 0 42.808319
24.195354 2.9023197 -4.9127378 20 0 0 0 46.697216
-14.122314 -12.326488 1.2054414 34 0 0 0 88.931839
23.478346 -6.4442387 -4.438108 40 0 0 0 52.807423
-3.6226888 6.6539311 4.9025383 137 0 0 0 16.14464
25.932524 -13.027218 3.289659 23 0 0 0 54.072063
9.9443645 -4.2399826 -3.1562505 55 0 0 0 54.949375
-4.1308613 7.8447948 -1.1085323 113 0 0 0 15.656704
-8.5431147 -26.726978 1.7771332 12 0 0 0 77.035263
3.4180858 -31.760366 4.0978537 9 0 0 0 73.42746
24.562565 4.1934128 1.6248876 22 0 0 0 43.973122
24.975552 -24.240139 0.043813616 10 0 0 0 59.129856
8.9916363 4.4416008 -1.1413217 182 0 0 0 41.057793
-4.1046262 8.6334028 -0.70314717 79 0 0 0 16.340736
10.093695 4.3050508 -0.91274774 147 0 0 0 43.494911
8.4032888 -32.027893 2.828608 14 0 0 0 69.442818
2.4457147 -9.0682125 -2.0229709 3 0 0 0 70.909439
17.940981 4.4106774 6.6194997 25 0 0 0 45.531902
3.8954382 6.7964854 -2.3528409 9 0 0 0 35.124737
-6.7048135 -29.254675 3.2854729 12 0 0 0 75.677437
-6.5837831 -16.69434 -0.20324472 20 0 0 0 82.786301
24.736996 -25.110336 -0.70986909 14 0 0 0 62.623745
10.193113 6.0435719 8.4596052 31 0 0 0 42.224384
27.157824 -0.89383543 2.2562828 20 0 0 0 48.735489
-7.1574407 -30.574448 7.8675857 8 0 0 0 77.333763
5.0563798 -31.546015 5.9676638 23 0 0 0 70.998528
26.174362 -7.516036 1.7360065 21 0 0 0 52.719872
-34.526203 -3.5806735 7.1013122 12 0 0 0 0.297216
-32.595486 2.8187492 6.5615396 10 0 0 0 98.677757
26.357368 -8.9374752 4.1237559 17 0 0 0 54.949375
27.401108 -4.7702947 7.2936625 15 0 0 0 52.329472
-8.8973894 -10.50089 -0.23727906 44 0 0 0 83.371773
-1.9740206 -9.3516951 -0.98385525 164 0 0 0 78.502403
14.753457 4.3157287 3.9236939 51 0 0 0 44.948994
-1.6329837 -23.971386 2.2522757 10 0 0 0 74.701569
-6.6618581 5.8637929 0.34470671 178 0 0 0 11.66592
26.642782 2.7208724 -3.7670667 27 0 0 0 45.336319
26.845791 -4.8196187 1.9440075 17 0 0 0 51.059456
8.8656216 4.2746282 -2.5482588 116 0 0 0 39.788799
-3.9579368 -7.5161252 -0.87275398 194 0 0 0 84.545792
0.84525979 6.7013125 -2.3558993 15 0 0 0 25.486849
-8.7322464 -30.657654 4.4798861 16 0 0 0 79.668739
