# .PCD v0.7 - Point Cloud Data file format
VERSION 0.7
FIELDS x y z intensity normal_x normal_y normal_z curvature
SIZE 4 4 4 4 4 4 4 4
TYPE F F F F F F F F
COUNT 1 1 1 1 1 1 1 1
WIDTH 945
HEIGHT 1
VIEWPOINT 0 0 0 1 0 0 0
POINTS 945
DATA ascii
22.942011 -23.70179 -0.9044475 11 0 0 0 59.721985
-10.543937 1.191342 -0.092763729 70 0 0 0 1.662208
-3.3965878 7.9224248 2.0092525 59 0 0 0 17.344
19.507933 -27.735682 -9.9797812 7 0 0 0 63.905792
-13.634073 -2.1107957 9.8916225 9 0 0 0 98.211327
-13.536383 -24.302439 -9.6335974 11 0 0 0 83.435265
22.688354 -18.862013 -6.6717811 13 0 0 0 58.068481
-10.234679 5.8176293 2.4260712 107 0 0 0 5.3928962
26.376566 -9.5921659 4.5466948 18 0 0 0 55.449089
-12.69703 -5.5724783 -2.5756433 26 0 0 0 95.487488
4.6693234 -32.066463 -10.34199 31 0 0 0 74.595329
21.412838 -24.675556 -8.6615295 11 0 0 0 65.456383
-34.773575 -2.6792555 10.640171 6 0 0 0 0.68428802
-11.690891 6.0786324 3.1391387 63 0 0 0 6.37568
-5.0386796 -23.670139 -6.9402018 12 0 0 0 77.024254
9.9840374 1.4628268 4.0436239 73 0 0 0 48.950783
11.191662 1.3309171 4.133357 56 0 0 0 46.131969
17.164236 -28.61994 -11.668919 5 0 0 0 65.066498
1.8111101 3.4873915 5.0409389 44 0 0 0 28.488192
14.646467 2.2712033 -1.2081373 104 0 0 0 44.475391
21.77182 -18.035372 -11.025308 10 0 0 0 58.068481
-8.0310745 -24.114077 -7.5130615 6 0 0 0 80.425468
22.468468 -27.049034 -1.7854242 7 0 0 0 64.098305
-34.780861 -2.4862049 10.107 8 0 0 0 97.822723
21.336508 -24.05982 -9.0841532 19 0 0 0 60.498943
-2.1233754 -25.529394 -10.984101 13 0 0 0 78.282494
-0.80599719 -34.022877 -5.4194107 9 0 0 0 77.218819
6.1179729 -2.8048372 -3.9804368 168 0 0 0 57.201408
2.9616096 4.8445683 -0.39987293 235 0 0 0 30.830591
-32.470467 1.5485789 14.885907 9 0 0 0 0
27.53331 -4.1282191 5.9057097 20 0 0 0 53.806335
5.8021255 2.5734212 4.1725907 20 0 0 0 41.068542
-11.992696 -2.0480497 -0.71281421 110 0 0 0 96.263939
-3.153548 -25.701784 -5.0697746 13 0 0 0 77.218819
23.954735 -14.31368 -2.2370329 30 0 0 0 57.098751
11.28182 0.48176566 5.9473877 41 0 0 0 48.849918
-8.8940506 -6.316133 -3.4874787 58 0 0 0 88.980476
24.443205 -15.18037 0.82456034 15 0 0 0 55.746304
-15.775846 -27.413391 -9.6562929 12 0 0 0 85.278717
22.111284 -27.584671 -3.1539323 13 0 0 0 62.834946
22.351248 -25.995819 -2.67787 11 0 0 0 60.694016
-11.524183 0.30920452 0.19244587 172 0 0 0 1.859584
-7.9487505 -34.541451 -2.6155441 6 0 0 0 75.765503
2.0031054 -12.052031 -6.797143 63 0 0 0 74.400764
6.3289852 3.7764907 0.62854475 325 0 0 0 39.808254
10.99531 0.59233248 -3.3836498 49 0 0 0 47.788033
24.44331 -11.273157 -3.7059045 6 0 0 0 57.006847
-12.328227 -11.415019 -4.9856596 21 0 0 0 90.147583
24.001917 -8.8672562 -6.053812 31 0 0 0 55.835903
-7.0334883 3.9045928 7.5394568 31 0 0 0 5.9809279
4.9771433 0.25345755 -2.7358572 214 0 0 0 47.874306
21.320419 -25.231308 -10.072783 18 0 0 0 64.098305
-8.0137711 -1.9338033 -1.8100343 120 0 0 0 96.759552
-9.0628109 5.7308936 1.5704402 50 0 0 0 7.6400638
3.9790502 1.2912191 -2.1679068 291 0 0 0 42.047745
19.106932 -29.69002 -2.8338904 11 0 0 0 62.931198
4.1231771 -10.288044 -6.7203851 24 0 0 0 69.247742
25.709036 0.35220608 -1.3833359 15 0 0 0 48.263168
-15.982365 -8.3439674 -1.8371805 37 0 0 0 89.653763
24.861248 -7.012814 -5.0429449 34 0 0 0 56.132866
23.590611 -13.256219 -4.5619936 15 0 0 0 55.166466
-10.550896 -7.2808466 -3.5699954 37 0 0 0 90.826492
3.8501754 -31.33252 -11.833759 23 0 0 0 74.984962
-3.3233361 -25.951466 -7.310358 15 0 0 0 74.101501
-14.788186 0.92106712 2.2313561 21 0 0 0 98.404099
-0.97444683 -5.4208021 -3.6365647 127 0 0 0 78.088707
17.825249 -1.9466182 8.0570135 21 0 0 0 51.379967
-10.974632 5.452209 5.8282099 44 0 0 0 4.80512
24.818857 -7.879571 -4.7655516 51 0 0 0 55.060993
3.3670681 1.9225117 -1.8119603 388 0 0 0 42.243328
23.776659 -15.408981 -2.3055019 17 0 0 0 57.681664
13.485435 0.21100929 4.8262272 50 0 0 0 47.788033
23.469198 -1.5002193 -5.5701985 11 0 0 0 52.830975
12.10014 -1.5068274 10.087909 10 0 0 0 49.431808
9.6941261 1.3011479 4.7757783 67 0 0 0 45.744129
14.410467 -7.708302 -7.3857489 15 0 0 0 56.519169
17.04031 -32.730877 -9.3669596 9 0 0 0 67.600128
5.8243222 0.73577476 -2.6475515 187 0 0 0 50.014977
19.799879 -26.00322 -13.67473 5 0 0 0 64.980225
10.808586 -7.3342915 -6.761591 25 0 0 0 58.173183
-3.0306287 4.4683857 4.4378104 157 0 0 0 13.226496
-4.4364233 -34.63892 -3.7437282 5 0 0 0 78.862335
-5.3640933 -10.813914 -5.5533428 51 0 0 0 82.654205
24.628483 -16.537584 3.7561622 10 0 0 0 56.228352
14.249305 -0.96392864 -4.5004253 17 0 0 0 49.725952
1.113112 3.641453 4.1379185 238 0 0 0 30.046976
21.28578 -21.77059 -12.27049 5 0 0 0 61.380096
13.149385 3.1296473 -2.5646167 39 0 0 0 44.86272
21.010551 -24.965641 -10.419331 12 0 0 0 65.753601
-35.239834 -2.1548495 5.3090262 12 0 0 0 0.58956802
-10.764225 2.3081884 0.41451561 35 0 0 0 4.8993282
21.358133 -25.973734 -7.7441397 5 0 0 0 61.080318
-9.0332794 -1.7243572 -1.5528524 84 0 0 0 97.530113
7.4238768 1.7753339 -2.3603406 108 0 0 0 46.521343
23.319111 -19.739126 -1.4456731 13 0 0 0 61.274624
-9.1900387 -2.847986 -2.006799 67 0 0 0 94.127106
23.220314 -12.821074 -5.8323908 24 0 0 0 55.060993
13.528673 1.6254923 1.2291797 66 0 0 0 47.981056
-5.4270177 -8.1504364 -4.4574962 106 0 0 0 84.697601
-43.472614 -30.442251 -2.1635661 6 0 0 0 92.278786
10.486835 3.1296949 7.7549863 8 0 0 0 43.024128
-34.209412 -1.1723149 11.79205 7 0 0 0 98.404099
10.98706 -6.2604413 -6.3716645 31 0 0 0 55.254784
12.091038 0.32677168 5.2663722 25 0 0 0 45.838337
23.09078 -12.705086 -7.1836987 33 0 0 0 55.060993
24.036396 -18.682541 2.271771 12 0 0 0 57.394432
5.7585478 -5.0903454 -4.9601126 5 0 0 0 58.368767
8.0365114 3.3655877 1.5247067 74 0 0 0 41.957119
16.628901 2.0684376 -1.4045057 138 0 0 0 44.970753
-35.177925 -1.9081005 4.7865562 6 0 0 0 98.111229
-9.0052528 5.1383567 5.4368706 57 0 0 0 7.4437122
23.71648 -18.945049 -1.0689631 11 0 0 0 59.236095
24.144125 -10.446861 -4.3258829 34 0 0 0 53.511169
-32.334541 6.2730956 9.7638702 7 0 0 0 3.3372159
24.164721 -7.5736108 -7.6582713 26 0 0 0 56.711937
9.9815159 0.33407983 -3.3864524 66 0 0 0 51.379967
-4.3272839 4.3378782 0.34775671 190 0 0 0 12.934912
11.31792 -5.2562099 -6.0076528 26 0 0 0 58.949631
-34.986233 -4.0713563 7.914825 10 0 0 0 98.691071
-4.9853482 3.8395548 7.1852984 5 0 0 0 10.390528
-10.388606 -3.7481594 -2.1987774 52 0 0 0 91.801086
13.946219 -1.9144992 -4.9152627 29 0 0 0 54.091263
17.455187 -19.975193 -12.016253 247 0 0 0 60.599808
-1.1385592 5.7704873 0.73163968 215 0 0 0 22.334463
23.959084 -18.692518 1.2527813 13 0 0 0 62.156544
-15.149774 -28.456631 -7.04387 17 0 0 0 79.939842
17.340462 -30.677729 -8.5406313 9 0 0 0 65.456383
27.562712 -3.3943219 5.1659002 11 0 0 0 50.211842
-7.9482222 -5.00846 -3.1065247 59 0 0 0 91.503105
-7.5234127 2.0315816 -0.19048816 136 0 0 0 2.6449921
20.911097 -22.46521 -12.384272 15 0 0 0 61.76947
-5.7184343 -28.575249 -11.332432 15 0 0 0 75.18029
13.410937 -0.37596834 7.1856847 31 0 0 0 48.263168
-8.0709047 4.7535772 1.0226245 65 0 0 0 5.5882239
-7.9373188 -3.1304977 -2.330034 112 0 0 0 94.513405
-4.5455909 0.64730608 -1.2451011 66 0 0 0 0.39219201
26.891933 -3.0502865 1.6992317 25 0 0 0 53.318913
-11.666293 -2.756906 -1.5948544 36 0 0 0 98.404099
2.8963099 -11.469466 -6.989018 42 0 0 0 69.637634
0.57084507 -4.5794668 -3.7341201 271 0 0 0 71.391747
15.666319 -1.5308319 9.1129827 25 0 0 0 51.079937
16.569605 1.0045396 1.2255089 32 0 0 0 50.497025
-4.0319757 -36.046467 -2.7634933 11 0 0 0 73.910019
-10.759071 3.8489099 9.7303066 19 0 0 0 6.9601278
21.022205 -20.992857 -12.842579 13 0 0 0 64.485886
26.138409 -10.522705 4.2217422 11 0 0 0 57.58976
28.706728 -5.1510358 7.2513895 26 0 0 0 49.431808
24.566925 -11.091245 -1.7517823 23 0 0 0 53.704193
-9.2370014 3.0267711 0.48052758 89 0 0 0 6.6565118
6.7664537 -18.431339 -10.632166 10 0 0 0 69.739265
2.8014655 1.8722924 -1.9073197 4 0 0 0 37.770496
7.4370651 4.4811997 -1.0090492 52 0 0 0 39.901695
24.524654 -23.634089 0.76105064 13 0 0 0 59.143169
-6.4895034 4.1134343 6.6921868 71 0 0 0 12.348928
-5.5340929 -22.752676 -7.287796 22 0 0 0 80.714241
-8.3309021 -11.158023 -5.5294714 24 0 0 0 85.581825
25.900101 -8.1969995 0.74169523 31 0 0 0 53.318913
9.469902 -13.089394 -9.0368204 10 0 0 0 67.110909
-13.729905 -32.357834 -2.4507341 6 0 0 0 78.580734
-10.374876 -3.2692287 -2.0001168 56 0 0 0 97.239296
-14.476575 -6.3833761 -2.5494406 16 0 0 0 92.278786
2.5368297 8.4548531 1.1118648 8 0 0 0 28.202496
27.020432 -1.259279 1.1082798 31 0 0 0 49.145599
16.285292 -0.58914244 -4.6987023 14 0 0 0 52.442112
16.827993 -29.390759 -12.265556 9 0 0 0 67.013634
4.7118793 -7.955606 -6.1195955 11 0 0 0 65.066498
5.0085239 5.4503627 2.6112273 9 0 0 0 36.688896
-1.7269675 -30.058649 -11.80565 22 0 0 0 72.94413
-8.3615665 3.4078228 0.51317418 82 0 0 0 7.8364158
-11.569982 -26.518051 -10.094685 16 0 0 0 81.877251
-14.999056 -15.239009 -5.8246469 19 0 0 0 86.16243
2.4024162 6.3856497 1.6649983 47 0 0 0 27.710464
-0.61121833 -32.752151 -6.491014 11 0 0 0 75.568893
-16.918993 -8.6139965 0.86606467 19 0 0 0 89.849854
20.937826 -29.564396 -5.0536194 20 0 0 0 63.807743
24.40807 -13.888083 -0.53574437 24 0 0 0 55.166466
7.759408 -1.9194274 -4.0064511 95 0 0 0 52.545025
7.3330851 -4.7858748 -5.0006514 92 0 0 0 56.132866
-4.3826709 2.9306002 -0.26619065 271 0 0 0 9.6983042
8.8861771 2.4047389 2.736656 149 0 0 0 47.098881
4.1209249 -35.075069 -6.3375244 4 0 0 0 70.223618
23.226656 -18.224077 -2.8077364 18 0 0 0 60.694016
-15.055928 -2.2952445 0.4053081 37 0 0 0 98.111229
16.837358 -33.490437 -9.0952139 15 0 0 0 66.235901
-22.368599 -17.737585 -2.2463691 562 0 0 0 89.757187
2.3961272 5.8692517 3.0407898 31 0 0 0 32.882431
-4.6437769 -23.861853 -8.3043718 6 0 0 0 76.733696
26.227798 -9.0724649 2.8246756 23 0 0 0 56.812286
12.203013 0.41019821 5.6451216 47 0 0 0 49.044479
19.990221 -16.189157 -11.055722 8 0 0 0 62.834946
27.130131 -2.379303 0.71564209 8 0 0 0 51.379967
24.169321 1.6038139 -0.33503014 19 0 0 0 48.950783
24.475489 -10.113102 -2.9978831 36 0 0 0 53.221119
26.826941 -6.3250899 3.2395887 22 0 0 0 53.612801
22.660318 -22.725302 -4.0506892 10 0 0 0 59.528961
-8.9439812 -12.133166 -5.7971897 21 0 0 0 83.824387
-8.4946566 0.053389337 -0.89788324 89 0 0 0 99.076607
26.043615 -7.7559886 1.0856332 23 0 0 0 51.469055
8.4509115 1.9003708 -2.4608958 91 0 0 0 43.510529
-15.301843 -4.9957728 2.7874494 33 0 0 0 95.487488
-7.3804946 -13.551047 -6.7474279 20 0 0 0 79.939842
-8.0257254 -24.446859 -8.4707212 13 0 0 0 77.118721
13.937378 1.4124821 2.3176451 29 0 0 0 45.058815
25.602358 -11.377082 1.9984863 20 0 0 0 55.060993
-7.1301589 -2.0465984 -2.012888 105 0 0 0 96.070145
4.046351 -31.781116 -10.841828 19 0 0 0 70.027008
-35.212921 -2.1077304 6.565341 5 0 0 0 98.017021
-32.735001 1.074433 14.210834 15 0 0 0 2.747648
1.4957737 3.5395033 4.0648589 278 0 0 0 33.464832
14.930532 0.44221765 3.7258823 65 0 0 0 47.679745
5.5519977 2.7396133 -1.7264838 186 0 0 0 41.373184
-14.488549 -0.016752554 4.4391451 13 0 0 0 97.338112
-6.0792365 -7.0650525 -3.991519 91 0 0 0 83.339005
-11.886158 -29.833153 -5.4560661 22 0 0 0 78.189568
-32.688656 3.2987485 9.0034103 9 0 0 0 3.4303999
-4.2293496 0.21282303 -1.460619 262 0 0 0 0.39219201
-18.849184 -19.042355 -6.2209077 9 0 0 0 87.810814
-11.292283 -9.2589579 -4.308629 20 0 0 0 91.11834
26.859303 -3.2117345 1.68998 30 0 0 0 53.417473
12.35614 -0.35724524 8.1217575 29 0 0 0 49.918209
6.031136 2.7408602 3.6690969 208 0 0 0 44.475391
-10.197117 5.7978835 4.4112015 74 0 0 0 10.390528
-35.061302 -5.1367011 12.75292 7 0 0 0 95.004929
-15.643617 -18.508802 -6.9370594 18 0 0 0 86.548477
-6.7164698 -6.7243605 -3.8722632 122 0 0 0 89.56237
-2.6961675 5.4323249 3.0142365 138 0 0 0 18.418688
-13.659916 2.7843406 3.6098301 57 0 0 0 1.966336
-34.636391 1.4177626 7.4209795 9 0 0 0 2.3552001
6.1541829 4.2952385 -0.73790896 402 0 0 0 37.276672
-15.935573 -8.0538931 -2.7090116 18 0 0 0 89.849854
-0.19279274 5.4742279 1.4116969 294 0 0 0 21.74976
4.7450323 5.2386169 1.2069063 89 0 0 0 33.574142
23.589048 -16.32448 -2.3613641 19 0 0 0 58.173183
-1.1215632 -31.290956 -8.8174934 15 0 0 0 72.647682
23.398258 -15.091722 -4.7548223 17 0 0 0 56.132866
24.038452 -9.9062681 -5.2000418 22 0 0 0 57.978622
-6.2899237 -25.501955 -4.0589805 17 0 0 0 80.714241
1.7049487 6.8955064 0.66688168 51 0 0 0 25.952768
12.151118 -1.5867369 10.129936 10 0 0 0 49.533184
8.2106857 3.0455298 -1.9336432 99 0 0 0 41.373184
-6.0210104 -24.435905 -5.6404562 25 0 0 0 75.96032
2.8422146 4.3842473 0.96254671 6 0 0 0 31.123199
-7.3401999 1.8518964 -0.28966597 135 0 0 0 3.921664
-34.931213 -4.3550434 8.8431721 9 0 0 0 95.394302
11.137644 -6.5272012 -6.5114608 31 0 0 0 55.449089
-14.324978 -4.964509 0.2101749 10 0 0 0 96.759552
9.6496267 2.860523 0.39978957 153 0 0 0 46.907906
-4.938643 -16.328758 -8.2470169 26 0 0 0 81.684227
-10.922346 3.2341473 11.819679 12 0 0 0 6.460928
5.6037278 -0.28866529 -3.0494635 176 0 0 0 47.788033
-11.110221 -6.0534892 -3.0139027 55 0 0 0 94.127106
31.418707 -9.6070585 7.9355731 12 0 0 0 51.379967
-33.783279 2.1582911 9.4991817 7 0 0 0 1.269504
6.2067943 1.711605 -2.2411971 138 0 0 0 44.388096
-8.3381071 6.0361776 2.7598932 107 0 0 0 7.2471042
-7.0547776 -26.539135 -11.239942 10 0 0 0 79.44883
-4.1998739 5.3264041 2.0353513 372 0 0 0 16.562431
24.227457 0.81074095 -2.1899917 18 0 0 0 46.422016
22.902098 -17.369186 -5.6102281 18 0 0 0 60.498943
-35.104137 -2.1411953 6.1103616 12 0 0 0 99.574013
-0.78225368 -31.658302 -7.9051595 13 0 0 0 75.659775
-6.5382633 5.4521728 3.1146553 186 0 0 0 10.091776
24.722986 -14.511878 1.2967575 10 0 0 0 60.01664
-13.032515 0.72179204 1.3185515 72 0 0 0 98.304253
5.2566409 -1.590273 -3.4472122 159 0 0 0 51.57325
-0.58017147 5.4980559 1.6281776 344 0 0 0 22.233343
6.1086764 -0.28009489 -3.0891418 154 0 0 0 51.079937
11.854795 2.9019744 -1.0653743 112 0 0 0 44.670208
15.239534 -1.3663759 9.4695578 16 0 0 0 47.396351
4.8687158 -32.341293 -9.6130333 8 0 0 0 71.287292
-19.319038 -20.983923 -6.6493421 16 0 0 0 87.226883
22.713236 -20.127901 -7.5598602 11 0 0 0 61.76947
0.82295167 5.4905758 0.39003801 40 0 0 0 27.710464
-34.999008 -4.6937814 12.712665 6 0 0 0 95.199745
17.079706 -34.672859 -7.0064292 9 0 0 0 64.785667
17.320633 -27.716269 -11.422243 15 0 0 0 64.785667
15.590462 1.4417834 0.59874547 47 0 0 0 48.459007
26.285088 -6.3220744 1.1577946 31 0 0 0 50.601215
10.789277 2.8328407 -2.4147742 17 0 0 0 47.679745
8.2456522 -5.1081071 -5.3308978 61 0 0 0 60.88781
-2.072083 4.840816 0.27636769 227 0 0 0 15.974912
24.847605 -0.49085599 4.7818179 24 0 0 0 48.562176
-9.7402496 -3.4083886 -2.1599855 65 0 0 0 93.546242
26.497475 -8.9182377 4.5595989 8 0 0 0 55.060993
11.736217 -12.777737 -9.1040506 9 0 0 0 61.855232
1.2903224 -37.48119 -3.3194191 12 0 0 0 73.137665
-32.603668 4.4939327 7.8062353 8 0 0 0 2.3552001
-9.7905617 4.8201466 6.7524328 63 0 0 0 9.9980803
-10.446104 -26.962381 -7.9198189 19 0 0 0 77.995773
7.5905418 2.4888463 3.3261254 184 0 0 0 46.2272
25.894144 -2.6831315 -3.1918344 32 0 0 0 51.767296
25.340048 -6.4678521 -6.0658307 7 0 0 0 54.194687
23.261948 -10.906531 -7.9100165 32 0 0 0 58.844929
25.467566 -11.858679 2.7448196 16 0 0 0 58.456833
-3.5204668 7.0751958 1.4329572 20 0 0 0 16.455936
-10.776456 5.0100961 6.8822594 31 0 0 0 6.1777921
-5.4171 -23.276499 -8.1424456 7 0 0 0 77.311996
-18.22558 -17.178652 -5.2540035 16 0 0 0 85.191422
-14.339828 -5.0806637 -2.0467041 17 0 0 0 96.653053
27.074083 -5.5315471 4.3661418 12 0 0 0 54.673153
-9.0479984 4.7302222 1.1615709 69 0 0 0 9.4087677
-6.4793735 -29.187256 -11.004766 14 0 0 0 80.425468
-6.4932723 -28.596378 -12.03415 10 0 0 0 78.862335
0.9539932 -8.9414473 -3.7052014 155 0 0 0 73.52269
16.981127 -26.006269 -14.461191 9 0 0 0 64.485886
-14.07848 -8.4169397 -3.3436298 27 0 0 0 88.678146
26.212484 -4.2990623 -1.0348918 23 0 0 0 54.194687
20.505596 -52.947674 -23.863256 5 0 0 0 69.442047
-0.93580168 -32.405899 -6.8166938 8 0 0 0 77.311996
-5.3023834 -3.9055164 -2.922039 229 0 0 0 90.34317
9.0095997 -0.54607832 -3.6287906 55 0 0 0 52.931839
20.681677 -27.982533 -8.3964329 6 0 0 0 63.516159
22.907427 -11.681274 -8.3746786 28 0 0 0 54.582016
-3.9951425 -10.312134 -5.5373592 78 0 0 0 77.801476
9.6946974 2.9295006 5.0786796 18 0 0 0 43.218433
-14.750969 0.70173812 2.4357812 9 0 0 0 2.4486401
17.944056 -32.393501 -4.8294158 13 0 0 0 64.003075
22.631887 -14.634884 -7.6928911 11 0 0 0 57.784576
26.152924 -2.5943 -2.2445698 39 0 0 0 53.221119
-35.298321 -1.2546338 6.5762854 9 0 0 0 98.404099
-11.273784 11.241382 5.9020929 36 0 0 0 11.26272
3.845331 2.9098513 4.552762 83 0 0 0 37.276672
-8.1795845 -23.112551 -5.9421339 11 0 0 0 80.714241
18.180414 -30.038605 -5.3082781 11 0 0 0 66.529793
24.456392 -16.138935 -0.17630872 7 0 0 0 60.88781
-14.539574 -13.661647 -5.2154827 30 0 0 0 85.191422
18.154535 -26.219088 -11.528415 17 0 0 0 65.652222
18.960405 -27.849224 -7.809607 13 0 0 0 62.544128
5.2371564 4.0915084 -1.0522728 146 0 0 0 38.054657
23.869526 -12.824876 -3.790046 26 0 0 0 57.978622
9.4178314 -4.4763446 -5.3321857 35 0 0 0 55.746304
-6.4263744 -16.256786 -7.8849521 15 0 0 0 79.644417
14.261598 -2.0451174 -5.0357399 21 0 0 0 54.194687
-7.0326619 5.5819111 3.0171373 157 0 0 0 12.835072
17.162121 -35.955212 -5.2097211 11 0 0 0 64.980225
0.81060934 3.8170042 3.8367796 265 0 0 0 28.787201
-14.039522 -11.682441 -4.1857266 53 0 0 0 89.367043
-9.106163 -7.5844836 -3.9635108 47 0 0 0 89.367043
-19.616508 -21.82992 -6.8516836 15 0 0 0 87.031555
-7.7640138 -33.935841 -3.2715199 6 0 0 0 78.862335
17.560556 -29.252695 -10.943899 5 0 0 0 68.271614
25.025177 -9.8381157 -1.9867785 32 0 0 0 54.479359
-10.592585 5.5565424 5.4872394 29 0 0 0 6.7640319
-14.646747 -4.7675138 -0.35995051 5 0 0 0 95.487488
23.00765 -20.626921 -6.5042844 8 0 0 0 63.418369
27.702644 -27.545788 1.4970821 6 0 0 0 64.098305
1.4642512 -4.7896967 -3.7454638 148 0 0 0 70.514946
13.659934 -1.7063888 -4.7973566 48 0 0 0 53.89901
-11.024656 -2.2567241 -1.4931664 43 0 0 0 98.882561
-10.183687 4.362607 1.1769338 34 0 0 0 8.1336317
14.056379 0.69676107 -3.7605078 23 0 0 0 49.431808
-13.866005 -10.714715 -4.0010467 65 0 0 0 89.953026
13.109383 0.62014413 -3.7149215 44 0 0 0 51.079937
20.819107 -24.66831 -12.724943 6 0 0 0 60.88781
11.550508 1.748583 2.2619164 82 0 0 0 47.396351
5.2163992 4.8346019 -0.72327584 81 0 0 0 36.688896
-0.86394513 9.7677898 2.1644773 16 0 0 0 23.799809
5.9067707 2.9160271 3.2398188 258 0 0 0 43.996929
-3.4430637 -23.595703 -10.927899 16 0 0 0 75.96032
-36.59618 0.37715456 6.2373509 25 0 0 0 0.19686399
14.718095 0.9345271 2.9465399 104 0 0 0 47.201279
4.9877949 -4.8232946 -4.5571551 77 0 0 0 60.79488
-20.915176 -26.159781 -8.3156366 18 0 0 0 87.711746
-29.912197 10.002803 7.4108047 11 0 0 0 2.1608961
18.780243 -26.136055 -12.110751 16 0 0 0 67.013634
-15.459073 -27.741129 -9.2614698 11 0 0 0 83.435265
-34.730145 -3.2433143 8.7062044 10 0 0 0 0.29183999
-8.2495689 -8.64604 -4.5428972 32 0 0 0 85.8647
-15.837216 -3.7219305 0.23501492 30 0 0 0 98.404099
26.094234 -8.9905853 1.0457652 11 0 0 0 52.156418
-9.6065836 -31.337044 -3.0253422 11 0 0 0 80.035583
8.6817236 -5.0622425 -5.3198218 27 0 0 0 58.757889
3.746551 10.44794 3.2541466 19 0 0 0 27.321344
-2.7324405 -25.036274 -8.9564667 18 0 0 0 77.024254
4.3337212 6.4197035 0.48386309 9 0 0 0 32.987137
-36.81572 -4.0437689 4.5800109 5 0 0 0 98.79245
24.831326 -12.42755 0.57259947 25 0 0 0 55.835903
-32.014915 4.5995126 9.3953142 17 0 0 0 2.5507841
17.247204 0.34363455 2.9608963 59 0 0 0 51.079937
4.6412067 3.6369016 2.0348258 541 0 0 0 39.225601
12.233434 1.579774 2.2189333 85 0 0 0 49.340416
0.98729998 -31.741005 -8.9801712 25 0 0 0 71.586044
-10.49137 -32.810535 -3.1726911 5 0 0 0 80.230911
14.591304 -1.1652555 -4.6235285 21 0 0 0 49.918209
-8.8529491 1.1378187 -0.40492949 81 0 0 0 99.465981
-3.9974627 -18.864916 -9.3691158 9 0 0 0 80.326141
-32.579193 -1.789808 4.043025 6 0 0 0 99.659264
24.998911 -4.0168991 -6.7590184 17 0 0 0 51.184128
10.214461 -5.9717789 -6.0941081 36 0 0 0 57.098751
-16.322603 -21.247896 -8.0851116 13 0 0 0 87.420418
24.075689 -17.233692 0.45072734 16 0 0 0 58.368767
21.423136 -29.978769 -2.9401588 7 0 0 0 62.156544
17.745869 -29.411348 -7.9809661 16 0 0 0 63.418369
15.862366 -33.47617 -12.972839 5 0 0 0 66.624771
23.955818 -16.676819 -0.64889514 18 0 0 0 56.61824
-4.9099822 -10.441047 -5.5097771 42 0 0 0 84.019714
10.300851 2.577647 -2.4308553 56 0 0 0 43.122944
-12.148926 4.848434 7.9636683 19 0 0 0 8.723712
-4.2474227 -18.382816 -9.1563091 6 0 0 0 80.619263
11.373937 3.188026 -1.6011167 126 0 0 0 44.193024
-8.5747356 -0.76002067 -1.2446601 95 0 0 0 95.981056
-5.5038071 4.3408113 5.4913111 89 0 0 0 8.4249601
-3.957823 1.3158363 -1.0413642 368 0 0 0 3.532032
-6.3863831 -1.4153105 -1.8672682 177 0 0 0 98.691071
1.3465858 -3.4175193 -3.5079153 279 0 0 0 71.287292
-4.5107884 -27.995993 -3.8004563 15 0 0 0 76.244736
-1.4672092 -19.374941 -9.9438705 7 0 0 0 73.137665
-12.74135 6.3044381 4.4778914 6 0 0 0 9.3084164
-9.8218498 -3.9360344 -2.3499138 65 0 0 0 94.419456
-11.610997 -9.0893888 -4.1317415 26 0 0 0 89.849854
4.8173432 -7.9148164 -5.4735508 27 0 0 0 64.872192
-14.808212 -1.5990546 2.2327554 5 0 0 0 95.680771
25.655458 -11.436503 2.3447924 18 0 0 0 53.511169
25.80057 -11.536071 3.4102259 14 0 0 0 55.060993
18.382383 -0.23088603 3.3284936 15 0 0 0 50.014977
-10.877952 -4.7123914 -2.4996488 48 0 0 0 92.383492
1.2208253 -8.7479362 -4.5140886 29 0 0 0 69.637634
-2.8519781 -17.5263 -9.0432405 19 0 0 0 74.491394
18.475706 -28.637218 -6.1471882 5 0 0 0 62.931198
-14.558491 -29.713356 -4.2199569 10 0 0 0 81.008385
0.62793386 -4.106164 -3.6826136 267 0 0 0 68.961281
-11.869738 5.4281764 2.383127 51 0 0 0 5.4883838
-9.4131956 2.6419015 0.33912018 106 0 0 0 1.269504
11.38094 2.5406382 0.55321848 225 0 0 0 46.422016
-3.919632 -25.514267 -6.3687549 16 0 0 0 77.699585
-9.4290867 5.673162 4.9438009 104 0 0 0 9.3084164
-8.6348629 -32.409401 -0.19399291 13 0 0 0 81.008385
7.0827537 -18.24581 -10.600656 6 0 0 0 69.442047
-2.6276777 4.0152378 5.3969054 124 0 0 0 13.5232
11.656846 -0.67309159 8.7660275 21 0 0 0 48.459007
-10.244549 6.2134452 2.1617181 103 0 0 0 8.9164801
-11.239159 1.6710019 0.6271956 171 0 0 0 0.78796798
21.469826 -22.286509 -9.8483276 13 0 0 0 64.679939
3.4276748 -31.019661 -11.692534 21 0 0 0 75.18029
25.217449 -4.9969878 -4.9250541 28 0 0 0 54.866432
7.4959249 3.8737111 -1.4498806 86 0 0 0 40.980225
-15.293919 -5.4307466 2.6343575 6 0 0 0 96.653053
-19.531315 -21.355736 -7.1347108 18 0 0 0 88.784897
-1.0133744 8.7483025 1.7670108 17 0 0 0 20.2752
17.271936 1.9764727 -1.9005994 34 0 0 0 48.263168
-7.8902612 -28.014946 -3.8301563 12 0 0 0 78.088707
-8.5142841 -4.9798012 -3.0289421 69 0 0 0 88.784897
-2.3643472 -25.064819 -5.9619017 8 0 0 0 75.18029
15.389499 -0.49715704 6.604907 38 0 0 0 46.810879
-0.66810191 -36.097008 -3.9429476 10 0 0 0 77.118721
-5.3775125 -36.471325 -1.7249001 7 0 0 0 77.606911
22.615519 -20.167124 -7.1873527 7 0 0 0 60.210945
23.998564 -13.947371 -2.2135127 23 0 0 0 56.904961
17.988054 -28.111794 -8.073431 8 0 0 0 64.590591
0.18538614 -33.073475 -6.5677323 17 0 0 0 75.18029
-34.761852 1.2953472 6.4805775 14 0 0 0 99.574013
9.2391977 1.6085048 -2.6972206 68 0 0 0 44.281345
23.854954 -10.333261 -7.2592778 11 0 0 0 55.166466
-8.0573702 -25.020267 -4.7549558 17 0 0 0 78.667519
-9.3624678 4.6149082 1.1639525 55 0 0 0 9.0145283
9.3617058 -15.972733 -10.026006 6 0 0 0 66.918915
10.112776 -5.6657591 -5.9617105 26 0 0 0 56.812286
-11.304802 1.455879 0.32290944 146 0 0 0 3.532032
26.175604 -1.9957741 -2.546771 36 0 0 0 48.175102
-14.204949 -12.112678 -4.28403 10 0 0 0 89.173759
-29.342897 11.16743 7.8717375 6 0 0 0 7.5450878
-10.953117 -14.473271 -6.4674606 15 0 0 0 87.326973
-8.891325 -3.6869857 -2.4165609 53 0 0 0 91.022079
14.580653 2.4340372 -0.82328892 170 0 0 0 47.396351
1.8383112 6.4731131 1.807811 50 0 0 0 29.567232
-3.4223425 4.5906024 4.2812471 233 0 0 0 17.732609
-33.39497 3.575742 7.842495 14 0 0 0 1.859584
-5.8671861 4.4777794 0.59714645 143 0 0 0 12.246272
22.43944 -21.865374 -5.849782 16 0 0 0 60.88781
-9.5967474 -12.557892 -5.9204249 21 0 0 0 82.46067
6.210609 2.9263451 3.0304246 240 0 0 0 42.634495
8.3825045 -5.4665041 -5.5113087 85 0 0 0 61.274624
8.9734221 -8.1392736 -6.7284703 39 0 0 0 63.807743
-7.6625724 -26.887732 -4.3079 6 0 0 0 81.298691
22.969761 -13.19325 -7.2385588 35 0 0 0 55.359489
-6.9408937 -34.109604 -3.2887571 7 0 0 0 78.475517
-7.7190681 5.7074723 3.6249392 135 0 0 0 7.5450878
-4.9780588 -9.6591959 -5.174479 61 0 0 0 84.603905
-32.608135 2.3996639 11.806605 13 0 0 0 98.497795
-6.0406885 -0.33977118 -1.4823383 206 0 0 0 96.459267
26.409882 -2.6939452 6.3402739 12 0 0 0 49.819904
-12.533774 -30.164972 -4.5757551 12 0 0 0 81.593597
-4.4540229 -36.453739 -2.1260293 7 0 0 0 78.77478
24.724886 -7.7959356 -5.095551 12 0 0 0 56.61824
12.162407 1.8038551 1.7501738 84 0 0 0 47.486465
-39.287788 -17.661924 -2.7464421 6 0 0 0 92.188927
5.7882891 4.0640054 1.6277329 105 0 0 0 40.097534
25.449049 -6.5803752 -2.7998309 38 0 0 0 50.989311
26.408892 -9.1771421 4.2454615 11 0 0 0 56.812286
-27.424339 11.516388 8.8128014 7 0 0 0 3.4303999
23.664452 2.3279271 -3.5286849 23 0 0 0 47.006977
12.181201 2.9425104 -1.437701 93 0 0 0 47.874306
-8.5501375 -32.069061 -1.8236799 11 0 0 0 81.008385
15.35498 -11.234567 -8.9589615 18 0 0 0 60.405502
10.56918 0.41703627 -3.4078453 48 0 0 0 49.626369
-3.6488223 -0.60432315 -1.9602474 104 0 0 0 94.513405
-4.568296 -25.591211 -6.4007392 7 0 0 0 78.088707
17.542341 -28.306334 -10.205097 9 0 0 0 66.431747
-3.8416772 -6.15522 -3.8782313 182 0 0 0 85.968643
26.386272 -0.71999139 -2.4857304 14 0 0 0 47.396351
12.450141 -0.51016641 8.1729517 41 0 0 0 50.111744
-12.237224 -0.66112679 0.63137567 106 0 0 0 96.565506
24.195982 -12.906722 -2.1511903 25 0 0 0 56.325375
-3.184767 -26.131674 -7.3590803 11 0 0 0 74.010368
-6.7448406 -27.960543 -10.572177 17 0 0 0 80.714241
-10.275091 5.8634505 2.2666006 88 0 0 0 6.9601278
1.9184412 3.9804966 2.7246847 584 0 0 0 33.962753
27.362804 -5.1229396 5.8525658 12 0 0 0 54.388226
26.364496 -5.0902066 0.56261969 30 0 0 0 53.026562
11.127481 2.4517071 1.1087009 81 0 0 0 46.422016
-3.490953 3.694133 6.2035689 56 0 0 0 10.873088
14.365488 -0.032613978 5.1163354 39 0 0 0 48.069118
23.015497 -11.663435 -7.9724236 19 0 0 0 59.336449
-7.9096398 5.9399586 2.6690297 135 0 0 0 7.5450878
3.039721 3.0400436 4.602294 148 0 0 0 35.127808
-2.8582568 -30.145357 -10.425594 17 0 0 0 75.18029
-12.762032 -29.526539 -5.7564788 22 0 0 0 80.230911
21.331944 -24.886993 -8.6925993 12 0 0 0 65.560829
10.940019 -7.7203498 -6.9401793 16 0 0 0 58.456833
5.9785147 -5.1463685 -4.9071736 102 0 0 0 63.418369
-6.6173706 -23.088459 -6.6221948 20 0 0 0 76.541443
24.750443 -11.22089 -0.72963619 17 0 0 0 55.254784
11.751524 -12.330908 -8.9311333 13 0 0 0 61.575169
-36.085564 -5.6149735 9.1636639 10 0 0 0 94.901756
21.279249 -21.007092 -12.438796 5 0 0 0 62.737408
4.3378677 -37.666313 -4.2183208 9 0 0 0 74.984962
-35.450081 -1.5217612 5.4146237 17 0 0 0 0.87884802
1.1500245 -8.4296179 -4.9064341 137 0 0 0 69.637634
14.792096 -1.8297274 -4.9531384 24 0 0 0 52.247295
19.617008 -28.264267 -6.9239359 12 0 0 0 65.560829
-32.218937 1.3345258 16.011036 12 0 0 0 3.037184
-33.279202 2.9379444 9.4772024 8 0 0 0 1.662208
-15.167204 -5.1526542 1.9741752 41 0 0 0 95.292419
-1.8954064 3.9301231 5.0518928 140 0 0 0 21.359104
22.852531 -19.755465 -5.2863407 12 0 0 0 58.368767
-11.525939 -9.6847572 -4.4470963 24 0 0 0 90.924034
2.5286086 -36.639858 -4.7142062 7 0 0 0 71.004417
16.16193 -29.26693 -15.257459 7 0 0 0 64.003075
7.3011432 4.5233946 -0.99060202 43 0 0 0 39.707134
11.787059 -1.6617161 -4.4639144 33 0 0 0 50.884865
-10.549044 3.3868153 11.870182 26 0 0 0 4.8993282
-32.938519 0.90441197 13.221483 8 0 0 0 99.378685
4.7255735 -4.3859897 -4.3382087 34 0 0 0 62.246399
-9.5785084 2.8925865 0.46897471 90 0 0 0 6.2663679
-10.581561 -1.281974 -1.1398665 41 0 0 0 97.044479
-11.894672 -10.366518 -4.6690526 20 0 0 0 90.630913
-33.352745 2.3971767 10.214946 15 0 0 0 98.497795
10.338487 0.64357477 8.8035336 31 0 0 0 46.422016
6.3553429 3.9364984 0.919945 300 0 0 0 41.068542
22.017538 -28.205656 -2.8338513 8 0 0 0 61.466881
24.860697 -14.030888 1.6134564 15 0 0 0 58.173183
5.5545425 -0.78505552 -3.2383506 181 0 0 0 52.635902
30.693306 -9.0413475 -3.831938 5 0 0 0 53.125889
0.36460152 3.9369512 3.7701621 272 0 0 0 23.408129
-29.072958 7.5208306 7.1756496 16 0 0 0 5.784832
-12.437468 -32.078945 -3.1216211 6 0 0 0 81.203964
22.151812 -26.916721 -3.4789195 9 0 0 0 64.198402
-9.7746458 4.607584 7.4454517 34 0 0 0 9.8941441
23.762663 -8.4185123 -7.6635413 24 0 0 0 57.292801
8.1959391 4.1629639 -0.90903866 279 0 0 0 44.193024
-1.7138319 3.8788016 -0.24002239 319 0 0 0 17.437952
31.212006 -18.633389 -6.990562 10 0 0 0 58.757889
-6.7110858 -4.0079875 -2.9038122 101 0 0 0 90.239487
7.6098037 -2.6914613 -4.3677273 68 0 0 0 57.487873
16.217621 -32.819946 -13.268558 6 0 0 0 67.990013
18.114582 -27.14953 -9.6117029 7 0 0 0 64.292351
-0.21497156 -32.938759 -6.5341101 6 0 0 0 75.374847
14.238548 2.3622806 -0.62147957 94 0 0 0 45.838337
22.170784 -14.566884 -10.249632 9 0 0 0 56.325375
10.050836 -14.569471 -9.5745735 7 0 0 0 65.753601
9.2269602 2.2797458 2.1846323 128 0 0 0 42.733826
11.789904 -8.0186529 -7.2307959 20 0 0 0 56.519169
23.607922 -8.6627979 -8.3263636 20 0 0 0 54.284546
-3.856158 -7.6560779 -4.457346 108 0 0 0 82.758659
21.481409 -9.158329 -8.0928411 11 0 0 0 56.711937
6.9040799 -5.4371319 -5.1382079 90 0 0 0 59.236095
-5.1937618 0.29397863 -1.3644235 15 0 0 0 2.1608961
6.3931584 -23.284735 -12.503132 6 0 0 0 67.69075
-14.716992 -7.8837757 -3.1267958 22 0 0 0 94.225151
20.951929 -29.651541 -4.699317 18 0 0 0 62.246399
-1.4462565 -5.7104683 -3.7271233 122 0 0 0 75.659775
-34.712406 0.34488183 4.1857319 9 0 0 0 0.095487997
17.366133 -0.47689649 4.0310078 26 0 0 0 50.211842
-8.3170462 -3.691519 -2.4926934 126 0 0 0 93.833473
-11.522043 -12.708236 -5.6040592 24 0 0 0 85.471741
11.236021 2.9236989 -0.28000152 243 0 0 0 42.829311
16.170967 2.5400972 -2.8074381 56 0 0 0 49.237503
-6.4050193 4.0794144 0.49639273 124 0 0 0 6.1777921
26.424772 -9.4292984 4.5527101 15 0 0 0 55.359489
-8.2184534 -2.4926994 -2.0129149 92 0 0 0 97.433853
7.8692641 -4.1097522 -4.8553324 112 0 0 0 59.721985
-10.702139 4.9046144 1.7354833 72 0 0 0 3.921664
11.548039 1.9072441 1.8337096 91 0 0 0 45.644032
25.138916 -2.3185003 7.7747526 7 0 0 0 47.981056
-17.5411 -15.40409 -4.4808741 30 0 0 0 90.536705
18.1451 -28.803677 -6.4841623 16 0 0 0 64.679939
10.917223 -2.0103951 -4.5392523 49 0 0 0 54.866432
9.0131893 2.4197092 2.6605284 161 0 0 0 42.344959
2.7128067 -3.2778325 -3.6714046 18 0 0 0 66.235901
-4.7258501 5.357532 2.3188488 268 0 0 0 12.543744
6.939281 -5.8906746 -5.3319454 96 0 0 0 59.821312
-10.867699 -1.7981931 -1.3165176 35 0 0 0 97.918205
-13.621248 0.72540188 1.5865232 71 0 0 0 2.4486401
21.705952 -6.8550248 -8.1528063 8 0 0 0 56.812286
21.941498 -23.591633 -7.3835921 5 0 0 0 60.109825
-8.4491215 -27.053822 -9.9596739 15 0 0 0 80.133377
4.5247254 4.5066495 -0.30609572 210 0 0 0 36.102402
8.8648558 4.8814692 -0.47201237 53 0 0 0 43.606529
-4.0874486 -0.66623986 -1.937712 245 0 0 0 94.614525
10.106149 1.3313336 7.513463 56 0 0 0 49.145599
15.830042 0.64227223 2.547893 54 0 0 0 46.032894
16.722502 -0.18415935 -4.5333323 23 0 0 0 50.405376
-8.8461962 6.0659065 3.5325799 109 0 0 0 11.65568
-6.9963794 -4.0698595 -2.9230468 89 0 0 0 88.784897
3.1174092 -30.847303 -12.234693 15 0 0 0 70.418686
15.556225 -2.3082669 -5.2483263 23 0 0 0 52.635902
25.80971 -10.948596 2.3625188 24 0 0 0 53.221119
15.731877 -5.5639343 -6.6789222 16 0 0 0 55.746304
-5.0688252 4.937974 3.610465 184 0 0 0 9.8941441
24.335373 -10.933167 -3.0548043 30 0 0 0 53.704193
10.799577 3.152456 -1.0959965 129 0 0 0 45.548801
2.9699864 3.5125771 -1.0469183 347 0 0 0 38.160641
21.914022 -16.199331 -10.580604 11 0 0 0 57.201408
-4.087667 5.8954411 1.1656755 292 0 0 0 15.779072
-7.7086239 6.1784282 1.8972185 147 0 0 0 11.068672
12.70869 -0.31582317 7.2988276 37 0 0 0 51.664383
-5.4254837 -25.611673 -4.7962685 14 0 0 0 77.024254
17.793306 -27.2064 -9.955409 11 0 0 0 66.041855
-3.3834875 -3.1609745 -2.8278458 373 0 0 0 84.891136
17.962177 -1.5011162 7.0687151 17 0 0 0 50.989311
21.239202 -24.021057 -10.22704 12 0 0 0 65.367043
-2.7422352 -10.031042 -5.4797921 54 0 0 0 79.552765
11.060754 -0.29167861 8.1284771 30 0 0 0 49.819904
-2.5629411 -2.3960133 -2.6591187 402 0 0 0 84.697601
-13.854585 -10.573159 -3.9770141 74 0 0 0 90.045181
6.5445719 2.7490959 4.0034785 54 0 0 0 43.218433
25.519068 -4.3574395 -4.2469053 36 0 0 0 51.273472
-4.2364821 -25.634386 -7.2387924 19 0 0 0 74.687233
17.657099 -31.164595 -7.2323408 13 0 0 0 67.013634
-0.10021805 3.9039066 4.1307359 247 0 0 0 21.6448
26.032492 0.51642776 -5.0257001 10 0 0 0 46.714367
3.3462548 -32.218163 -9.1850796 21 0 0 0 70.418686
23.350424 -28.8547 -1.4898599 5 0 0 0 62.737408
22.400156 -15.283271 -10.018936 9 0 0 0 61.466881
-17.04966 -7.8227835 -1.6146069 5 0 0 0 95.199745
-33.964378 2.3887346 8.5835752 7 0 0 0 98.497795
-7.6086869 4.143703 0.69519532 93 0 0 0 8.1336317
-9.2824974 -25.958204 -10.612876 17 0 0 0 77.505791
15.714454 -2.5991762 10.533806 16 0 0 0 50.305534
27.56785 -3.9633138 5.916759 15 0 0 0 53.704193
3.103538 4.2135248 2.1416652 76 0 0 0 36.688896
-14.809716 0.42724705 3.1615274 22 0 0 0 2.2528
11.618344 0.41087693 5.242713 64 0 0 0 50.689537
5.8942432 3.0556056 2.8668232 300 0 0 0 43.70509
-9.6182041 3.9358232 9.1762495 26 0 0 0 5.875968
16.757082 1.5570266 -3.8260748 26 0 0 0 50.305534
-0.023979921 5.2909141 1.3646541 420 0 0 0 22.233343
-6.0446963 5.9675465 1.2822666 102 0 0 0 12.73856
-5.407383 -8.562007 -4.6187825 73 0 0 0 84.310783
-3.1976948 8.1309423 2.4990711 59 0 0 0 17.829632
18.784788 -0.97287792 5.5713139 23 0 0 0 48.950783
-0.5284602 3.851824 4.5462947 144 0 0 0 19.989759
18.633146 -0.66493022 3.8490212 19 0 0 0 47.201279
-30.545021 2.7011139 5.5225072 24 0 0 0 1.464576
24.001551 0.7324543 -0.68467778 44 0 0 0 51.079937
24.054758 -14.896733 -4.8150773 27 0 0 0 55.835903
16.014645 -32.493317 -13.664431 9 0 0 0 69.637634
18.023228 -28.291779 -7.7857633 8 0 0 0 63.028992
22.39753 -23.070557 -5.1613889 16 0 0 0 64.485886
-13.694509 -9.0833712 -3.726553 37 0 0 0 91.11834
24.137285 -9.2647524 -5.1462631 35 0 0 0 57.58976
-10.156039 -26.569073 -8.7871675 17 0 0 0 82.758659
27.030344 -5.3139744 3.9882803 21 0 0 0 49.819904
4.3266816 -6.6617174 -4.966404 50 0 0 0 67.883522
26.220337 -8.4140615 2.4370534 25 0 0 0 51.767296
-34.686619 0.75936925 7.7368197 11 0 0 0 0.488704
-35.130554 -5.3062243 5.760242 6 0 0 0 0
25.773827 -5.4506621 -2.3912587 27 0 0 0 54.970879
2.5163612 6.1244254 2.3328497 63 0 0 0 28.098305
-3.7163687 7.3115201 2.2009947 63 0 0 0 17.927423
18.862345 -18.603621 -12.230226 7 0 0 0 61.080318
-32.31942 6.0466733 10.169267 12 0 0 0 1.662208
16.188375 -54.301468 -23.789415 30 0 0 0 70.707199
-4.9242606 -1.0500911 -1.9903817 6 0 0 0 98.882561
27.432304 -4.4678984 5.4880733 24 0 0 0 49.237503
-9.9145966 4.4573674 1.1741527 55 0 0 0 8.4249601
9.0411606 -3.1498559 -4.739078 48 0 0 0 52.350719
25.701483 -7.7989335 -2.2036872 6 0 0 0 54.777088
11.284872 -1.1368947 9.4212275 17 0 0 0 49.044479
25.269749 -4.4895301 -5.2464228 31 0 0 0 49.819904
-6.6609244 -28.532049 -12.019056 7 0 0 0 78.969086
-12.183108 3.5126562 2.4348574 87 0 0 0 6.2663679
23.357273 -19.333067 -1.4185058 15 0 0 0 61.080318
22.398394 -26.26749 -2.1288714 9 0 0 0 65.456383
4.5126786 -18.789078 -10.451879 12 0 0 0 71.586044
-16.562729 -28.49625 -9.5992403 9 0 0 0 83.728386
17.119328 -32.713642 -8.5959806 13 0 0 0 64.395523
20.876348 -22.458748 -12.781864 11 0 0 0 63.418369
-5.897336 4.8488955 4.6572399 98 0 0 0 10.28736
9.5355549 3.298821 -1.9767188 29 0 0 0 44.86272
22.559256 -19.03223 -7.3345227 12 0 0 0 61.380096
25.385935 -12.007705 2.7377121 7 0 0 0 58.562305
11.760077 2.6321692 -2.6384964 29 0 0 0 48.263168
28.284914 -15.500594 -10.552996 5 0 0 0 55.060993
-9.5761242 -1.8662826 -1.5312922 80 0 0 0 95.874557
-14.390532 -29.21384 -5.4697938 18 0 0 0 79.44883
-12.666424 0.23508427 1.1184307 80 0 0 0 99.269119
6.2791228 -8.5282364 -6.2576675 44 0 0 0 63.516159
-36.548977 1.2898939 11.167416 10 0 0 0 97.918205
-10.121469 6.434432 2.6380847 93 0 0 0 10.873088
11.077917 -2.1092021 -4.6150446 35 0 0 0 54.970879
-15.957185 -26.929064 -10.136222 4 0 0 0 80.619263
24.132811 -17.089697 0.78699285 25 0 0 0 56.711937
-3.6528862 7.547286 2.2541549 58 0 0 0 18.22336
16.899248 -27.018162 -13.865428 9 0 0 0 68.075523
26.492186 0.28305984 -2.1082671 17 0 0 0 51.469055
-36.359341 -3.5230963 4.9557853 18 0 0 0 97.433853
3.6941614 6.1552925 0.01366088 12 0 0 0 33.767937
5.9061227 -27.621431 -13.505855 22 0 0 0 71.974403
15.337364 2.7756016 -3.0177865 24 0 0 0 45.744129
-2.4218497 5.7656775 0.75701153 201 0 0 0 19.105791
9.9782 2.9885931 -0.22016169 140 0 0 0 42.243328
26.656048 -0.62763661 -1.1833067 16 0 0 0 47.292671
14.681688 0.89103389 3.1462688 111 0 0 0 45.644032
22.030241 -25.406174 -5.0232863 12 0 0 0 63.807743
-6.7097211 1.3348616 -0.61787379 206 0 0 0 3.037184
-2.5360997 -6.5473022 -3.9442303 131 0 0 0 77.699585
17.688726 1.3952289 -0.65906155 40 0 0 0 45.644032
-0.4541494 -18.483206 -9.6613388 15 0 0 0 74.010368
-12.771945 -6.2417378 -2.868628 15 0 0 0 90.045181
15.931442 -33.259052 -13.367073 8 0 0 0 68.184067
-8.9489975 6.2992377 2.3546462 98 0 0 0 6.9601278
23.0026 -23.6852 -1.2695501 11 0 0 0 61.274624
-6.4059687 -9.0903778 -4.8067355 78 0 0 0 81.788414
-3.17137 6.0735965 2.697078 31 0 0 0 16.366848
2.5262265 9.1632605 1.4081602 7 0 0 0 30.929665
22.376068 -15.814075 -9.3531008 14 0 0 0 58.456833
-5.700985 -23.216843 -8.1382313 6 0 0 0 77.505791
-3.0712676 -9.4043074 -4.9610686 50 0 0 0 76.925438
13.5507 -1.6377826 10.504692 10 0 0 0 47.592449
8.5796232 -6.2127295 -5.8505254 52 0 0 0 62.051071
-6.9296823 -22.497589 -7.2993274 39 0 0 0 81.684227
25.412447 -4.6590533 -4.2547011 43 0 0 0 51.469055
9.0216579 2.5822444 2.2905152 197 0 0 0 46.907906
23.926891 -14.720571 -1.9635959 24 0 0 0 55.746304
14.473752 1.054871 3.1172433 31 0 0 0 45.449471
21.843006 -26.136606 -5.0977654 15 0 0 0 64.098305
21.076502 -23.062366 -11.238429 13 0 0 0 63.516159
-2.4719589 -5.9766827 -4.0698137 156 0 0 0 77.995773
11.349122 -3.7724907 -5.3078718 27 0 0 0 53.806335
-16.46468 -9.4219933 1.5591799 16 0 0 0 90.630913
-15.443895 -11.674128 -3.9999807 29 0 0 0 86.937859
25.140541 -1.3659123 6.8112068 17 0 0 0 52.247295
24.371826 -17.56669 2.2753665 18 0 0 0 56.812286
-6.9443092 -34.977531 -2.6552818 4 0 0 0 75.270142
22.773365 -16.559141 -6.9359193 20 0 0 0 60.210945
11.548521 -14.415312 -9.7162971 11 0 0 0 62.931198
-2.2717104 -26.097094 -8.2464218 14 0 0 0 78.282494
4.0566726 -32.270741 -9.5496492 19 0 0 0 71.675903
-2.636214 3.4919515 -0.27611238 380 0 0 0 13.72032
11.808719 0.78488636 4.7972636 63 0 0 0 48.562176
21.792791 -20.055084 -10.214985 12 0 0 0 60.498943
23.939331 0.95321071 -4.8661737 17 0 0 0 47.981056
-35.342823 -2.3468747 4.8108511 7 0 0 0 97.918205
-6.9448781 -7.7492104 -4.2582192 88 0 0 0 88.678146
9.0144825 3.0708876 0.88695592 220 0 0 0 46.2272
10.650449 -0.22052389 11.032228 12 0 0 0 47.486465
9.5395641 -2.9598553 -4.7474656 39 0 0 0 56.812286
17.4319 -34.06155 -7.734621 14 0 0 0 67.69075
22.801006 -20.546259 -4.8870559 20 0 0 0 63.418369
-14.673261 -29.001616 -5.7688875 14 0 0 0 81.203964
11.257347 1.4589505 3.8715634 41 0 0 0 49.237503
-17.631693 -7.1580796 -0.97440082 19 0 0 0 91.216637
23.08375 -17.371176 -4.1760793 18 0 0 0 60.405502
16.802868 -0.055087518 3.9262457 17 0 0 0 49.819904
-0.86984831 -31.496407 -8.2710819 11 0 0 0 77.311996
13.887249 2.5789256 -0.76863354 32 0 0 0 47.098881
26.901352 -5.7052507 3.5935884 21 0 0 0 51.664383
22.996325 -13.480483 -8.2920694 14 0 0 0 60.305664
-4.0604949 3.3062727 -0.15858068 306 0 0 0 9.6983042
-6.1896181 -22.801281 -8.0281372 18 0 0 0 77.894142
5.9764466 2.5898697 -1.8396891 148 0 0 0 42.150398
9.1009541 -0.60716504 -3.6702712 75 0 0 0 53.026562
25.816692 -11.269685 2.7775643 16 0 0 0 58.068481
21.16243 -29.948423 -3.3007104 15 0 0 0 63.807743
15.158765 -1.2072986 8.828599 33 0 0 0 50.796032
-3.8971055 4.9771562 0.57163429 163 0 0 0 11.763968
9.7086983 -4.9073839 -5.5748534 45 0 0 0 56.132866
-15.415591 -4.7068667 0.59738523 94 0 0 0 94.225151
14.674625 -0.58842117 -4.4385972 20 0 0 0 47.679745
2.942719 -32.348301 -8.1699276 16 0 0 0 73.816322
10.806658 -0.38222241 8.8279819 29 0 0 0 49.918209
23.121227 -21.34766 -2.3818319 12 0 0 0 58.844929
-3.6241395 -24.099564 -9.493557 8 0 0 0 74.400764
0.56673706 -31.833298 -7.9710803 15 0 0 0 74.984962
-4.7641377 3.85917 6.3309541 49 0 0 0 10.679552
-11.318745 -30.442263 -4.9559093 7 0 0 0 82.565636
8.6925144 3.9923754 -1.4620036 106 0 0 0 44.86272
23.178289 -17.032305 -4.9688764 6 0 0 0 57.098751
-10.772064 -12.139855 -5.5052333 17 0 0 0 86.937859
-4.9903369 -9.4020853 -5.0638208 54 0 0 0 84.798973
17.29635 -18.382235 -11.412749 255 0 0 0 60.01664
-3.4653685 3.9749835 6.0341721 73 0 0 0 15.387648
10.186613 0.96940225 5.3146038 66 0 0 0 49.725952
11.780692 1.3741666 3.2279325 93 0 0 0 44.670208
-6.0676045 -2.6114242 -2.4313138 163 0 0 0 92.383492
14.006677 -7.1668673 -7.0979981 19 0 0 0 56.228352
-2.2861111 -22.444063 -10.647765 11 0 0 0 76.925438
24.683594 -0.96256673 2.5638313 9 0 0 0 47.396351
-32.862946 -1.1827832 2.8464115 13 0 0 0 98.404099
21.697098 -8.8882818 -7.8002095 7 0 0 0 54.866432
22.893864 -18.845297 -3.9786057 19 0 0 0 59.528961
22.671474 -17.267492 -6.4086981 27 0 0 0 57.394432
23.03874 -19.526279 -4.7887564 13 0 0 0 62.931198
-10.388779 6.3932724 2.2067451 72 0 0 0 9.0145283
-29.898785 9.7021618 8.0962706 10 0 0 0 5.1973119
9.9547033 3.4580841 -1.3817018 110 0 0 0 43.218433
-5.9714084 -24.054327 -6.0630865 17 0 0 0 79.165695
21.135677 -23.250353 -10.583395 6 0 0 0 60.305664
19.069086 -29.581915 -3.1803169 12 0 0 0 64.485886
24.308531 -12.34687 -2.7637663 19 0 0 0 59.143169
-7.5593128 -3.3857675 -2.5185177 80 0 0 0 90.536705
24.186323 1.1395124 -0.059676338 31 0 0 0 47.679745
-31.734053 4.5164642 10.678653 12 0 0 0 4.2158079
17.66147 -0.0097562792 3.2132771 28 0 0 0 49.819904
17.925402 -27.046038 -9.934906 10 0 0 0 65.947906
27.380735 -4.5247521 4.0640645 11 0 0 0 49.340416
24.837435 -13.328019 -0.089978024 14 0 0 0 59.431168
-8.5848513 -21.056841 -9.2254677 19 0 0 0 81.491455
-8.1167765 -4.2998123 -2.8094435 62 0 0 0 89.459969
3.0384562 -32.959129 -7.633625 3 0 0 0 70.613503
-8.0546122 -25.283157 -10.825703 23 0 0 0 80.230911
-9.3082829 6.2936897 2.5039353 113 0 0 0 11.372544
-33.269272 0.98696584 12.486296 7 0 0 0 2.5507841
-6.2448988 -34.870266 -2.9981964 6 0 0 0 76.541443
-17.87627 -16.052929 -5.0239553 25 0 0 0 85.581825
26.366583 -9.278532 1.7699823 11 0 0 0 55.359489
17.808516 -0.81836581 5.2914782 15 0 0 0 48.849918
-3.3301528 -24.764542 -7.4926252 13 0 0 0 77.413116
12.028498 2.5089686 -0.19963056 128 0 0 0 48.263168
-12.411414 6.6662703 3.3717918 48 0 0 0 6.5717759
23.536463 -21.255215 -1.1654902 12 0 0 0 60.210945
25.935913 -8.2399206 1.0631708 46 0 0 0 51.767296
-3.7495089 -4.0296793 -3.0702581 304 0 0 0 85.581825
20.616858 -26.267931 -11.30208 12 0 0 0 61.466881
23.952887 -5.4633374 -7.3389835 15 0 0 0 55.449089
16.862291 -29.740559 -11.960432 14 0 0 0 65.456383
21.373219 -22.037397 -11.491441 17 0 0 0 64.679939
3.6488853 -31.750559 -10.809892 17 0 0 0 70.223618
-14.382238 -4.5856609 -1.834784 18 0 0 0 95.588867
10.991698 0.038202245 7.1288958 25 0 0 0 51.184128
19.082554 -18.59173 -12.023442 25 0 0 0 59.336449
-10.786911 -2.4920056 -1.6247017 44 0 0 0 93.739777
23.116308 -23.282593 -1.2451102 7 0 0 0 61.080318
10.696555 3.1644495 -0.79880583 76 0 0 0 42.344959
1.217091 4.7680545 2.0723526 28 0 0 0 26.046976
22.193489 -27.346352 -3.1387942 11 0 0 0 62.737408
-1.9755797 -6.1528416 -3.7956488 108 0 0 0 80.230911
-6.362999 -26.596724 -11.633607 10 0 0 0 80.714241
2.2035456 6.6784468 0.99571526 42 0 0 0 27.127296
26.131062 -1.6184926 -3.1480932 52 0 0 0 51.079937
23.954969 -8.4160767 -6.739388 29 0 0 0 52.442112
22.967392 -24.308641 -0.92570305 8 0 0 0 59.914242
-4.3323755 0.19026032 -1.5199492 99 0 0 0 98.017021
9.753253 2.9414454 4.1933308 39 0 0 0 46.615807
-11.637176 -0.70995867 -0.24675222 186 0 0 0 99.574013
27.543373 -27.78314 1.8976506 11 0 0 0 62.638336
24.718557 -15.748586 3.7359629 17 0 0 0 55.835903
8.8893118 2.2726047 -2.3277352 65 0 0 0 46.2272
5.392518 2.9303396 3.5354176 208 0 0 0 41.654785
10.132689 1.8129464 6.9818501 35 0 0 0 46.615807
3.5218754 -31.042494 -12.33443 14 0 0 0 70.223618
22.004637 -20.382996 -9.0763655 17 0 0 0 62.156544
23.660429 -10.508331 -6.5578432 26 0 0 0 58.456833
24.898365 -14.028003 3.7013655 24 0 0 0 54.970879
-9.4709845 -0.27355683 -0.89846909 71 0 0 0 96.952316
23.43092 -18.671005 -2.2099478 16 0 0 0 57.681664
-2.5372159 -26.028326 -7.8644471 15 0 0 0 76.828926
1.755205 6.7360826 0.55113482 24 0 0 0 27.710464
-13.505452 -27.980368 -9.5396795 17 0 0 0 84.116989
-2.4437277 -10.367265 -5.8209891 30 0 0 0 80.714241
11.127786 3.2907567 -1.7152296 131 0 0 0 45.548801
-5.4201956 -0.28161985 -1.499442 178 0 0 0 0.29183999
23.421974 -18.40427 -2.5044332 10 0 0 0 59.143169
8.0713768 3.5345685 -1.6762433 71 0 0 0 43.606529
-38.742138 -16.002026 -2.2005436 5 0 0 0 91.11834
22.019968 -13.407679 -10.54865 13 0 0 0 59.041279
7.9220848 1.8084711 -2.4019067 84 0 0 0 45.058815
31.531038 -9.5763807 8.4704971 8 0 0 0 56.132866
3.2378254 -31.572887 -10.729237 13 0 0 0 70.418686
-11.407643 5.3457122 6.2753539 41 0 0 0 7.7409282
6.0528936 4.4228253 -0.92591906 261 0 0 0 40.097534
-3.5853722 2.8735797 -0.41549489 382 0 0 0 11.175424
-10.406092 5.4024987 5.6015921 49 0 0 0 5.0956802
29.093344 -17.963791 -4.8618002 6 0 0 0 58.949631
-5.4586692 -9.5122128 -5.0206528 61 0 0 0 83.630333
-6.849617 -5.5689549 -3.4311528 85 0 0 0 89.56237
26.74148 -0.58412111 0.80401015 19 0 0 0 50.305534
-32.166882 5.7921238 11.036271 8 0 0 0 4.80512
18.481571 -30.256283 -3.2108421 11 0 0 0 64.872192
18.23625 -27.626793 -8.3802547 8 0 0 0 65.947906
-33.699589 -0.51100457 13.520541 11 0 0 0 98.691071
24.802862 -16.920387 2.7717021 12 0 0 0 61.080318
23.264874 -15.410618 -4.7768989 26 0 0 0 56.325375
4.853056 2.9887955 3.6365378 268 0 0 0 42.537727
22.829269 -17.823805 -5.3296957 12 0 0 0 59.143169
25.852922 -7.2871799 -0.2298687 26 0 0 0 51.273472
-7.022203 -1.6725066 -1.8634207 159 0 0 0 95.199745
-1.7335973 -35.525185 -3.8651345 6 0 0 0 77.606911
-13.416903 -27.759233 -10.054551 10 0 0 0 79.252739
28.565464 -14.485662 -11.196765 12 0 0 0 57.784576
-18.890085 -26.28513 -9.3476486 15 0 0 0 85.278717
22.287397 -23.809134 -5.2449627 7 0 0 0 64.785667
12.83954 -3.6820083 -5.5296731 26 0 0 0 56.422401
-3.8280253 4.3295989 0.27073532 226 0 0 0 15.479552
-7.5328107 3.5781782 0.44520402 104 0 0 0 4.1167359
-13.679642 2.8909142 3.4478476 135 0 0 0 3.6249599
22.521374 -14.617934 -8.8519573 22 0 0 0 56.228352
8.9583864 3.3569648 -0.052910566 211 0 0 0 45.838337
15.219842 -1.9590132 10.568352 15 0 0 0 47.874306
22.270069 -14.243341 -10.202088 19 0 0 0 56.132866
22.768387 -3.99316 -6.4884601 32 0 0 0 53.026562
-4.783915 -25.625231 -4.7891011 11 0 0 0 76.634621
17.464308 -0.63013625 4.9678779 25 0 0 0 50.305534
-32.577911 1.8643901 14.267924 5 0 0 0 3.1408639
1.4167562 -3.1271672 -3.4036767 149 0 0 0 64.485886
23.863529 -18.16033 1.2458888 9 0 0 0 61.961983
-35.222195 -7.5672994 0.89717489 6 0 0 0 97.145348
-17.312866 -25.923477 -5.4425745 10 0 0 0 83.145218
18.140118 -53.375645 -24.589186 6 0 0 0 71.78112
10.383718 0.18875487 9.7415829 23 0 0 0 47.006977
3.903053 -35.973263 -5.4192138 8 0 0 0 73.52269
-15.463831 -3.5252252 1.192014 7 0 0 0 96.952316
14.275545 2.9427588 -2.7970598 28 0 0 0 45.357311
16.162708 -1.9831973 -5.1857605 21 0 0 0 50.601215
26.351126 -7.7579098 2.463917 19 0 0 0 51.379967
3.8913293 3.4128587 3.104625 312 0 0 0 38.249214
-6.1753764 -30.659639 -7.0545931 23 0 0 0 75.270142
4.3751593 -20.730616 -11.157876 7 0 0 0 70.322685
21.883829 -16.052626 -11.179918 12 0 0 0 60.405502
25.11167 -12.873826 2.2919629 19 0 0 0 54.388226
25.878464 -4.7040124 -2.7027364 17 0 0 0 49.819904
4.5049973 -9.490799 -6.5852809 6 0 0 0 70.027008
-5.4902864 5.2403412 3.8626382 6 0 0 0 9.6983042
-0.98173565 -12.046686 -6.2741046 27 0 0 0 74.881279
