# .PCD v0.7 - Point Cloud Data file format
VERSION 0.7
FIELDS x y z intensity normal_x normal_y normal_z curvature
SIZE 4 4 4 4 4 4 4 4
TYPE F F F F F F F F
COUNT 1 1 1 1 1 1 1 1
WIDTH 947
HEIGHT 1
VIEWPOINT 0 0 0 1 0 0 0
POINTS 947
DATA ascii
3.020443 2.2461221 -1.977563 357 0 0 0 41.555199
25.593012 -14.435375 2.3705516 19 0 0 0 60.870399
-9.2486639 -28.054615 -7.0103445 19 0 0 0 79.906052
-32.047215 3.4262161 13.502518 5 0 0 0 100.07219
11.954994 -4.9990058 -5.4226537 21 0 0 0 57.816319
11.809688 2.6395187 4.1931405 30 0 0 0 47.173634
5.2621775 1.4997616 -2.5460858 207 0 0 0 43.831295
24.285709 -11.611877 -4.4403291 18 0 0 0 59.982079
17.630516 -3.0831795 -5.8257809 16 0 0 0 51.017982
-34.490509 -2.2784536 10.029982 8 0 0 0 99.000572
-31.85157 2.142405 11.537437 10 0 0 0 99.48262
1.9063736 -32.695988 -3.1844554 11 0 0 0 73.892349
25.257298 -5.7873993 -6.0250854 25 0 0 0 53.379841
9.2756853 3.4775953 1.9729586 195 0 0 0 45.101311
19.34696 -30.125145 -7.6840825 7 0 0 0 67.282433
26.993807 1.3854126 -0.37538686 25 0 0 0 48.744705
-8.9530325 5.3975468 4.5695353 115 0 0 0 8.6474237
26.534901 -6.7591782 -0.90732187 7 0 0 0 53.576962
10.4935 3.3818684 0.90248507 114 0 0 0 47.566849
26.377493 -8.466711 1.7031125 22 0 0 0 54.462975
18.75235 -31.653419 -9.8107128 6 0 0 0 67.877373
-31.995461 4.4049687 12.402301 14 0 0 0 2.06336
-28.221994 10.732003 6.4634442 7 0 0 0 3.7286401
4.8519478 -33.819756 -2.4017704 6 0 0 0 75.671043
-7.0298519 -0.20569499 -1.0059689 162 0 0 0 98.021118
3.0148122 -4.3261728 -3.5165274 169 0 0 0 63.240704
10.57092 2.8091044 3.2329788 121 0 0 0 46.582016
11.176831 3.4563277 -2.8780813 34 0 0 0 45.013248
25.466648 -9.7526588 -0.76230764 28 0 0 0 53.873409
-11.961291 -5.0170698 -1.4285529 34 0 0 0 93.691902
2.6896105 4.6023335 1.3220748 768 0 0 0 35.930367
26.415926 0.72274083 -2.7191617 8 0 0 0 47.663616
26.375084 -21.498226 2.9185624 7 0 0 0 62.052097
24.057182 -13.340684 -5.0641966 15 0 0 0 56.237823
20.640104 -28.71628 -1.5625384 12 0 0 0 63.240704
-0.81879097 -26.004824 -8.4124146 20 0 0 0 78.526978
-8.658884 -2.8995564 -1.440568 109 0 0 0 94.872574
10.137803 3.2090147 7.0431056 63 0 0 0 47.270657
26.149612 -10.127919 3.3682752 7 0 0 0 53.773567
5.4558182 -8.1903496 -5.2367549 13 0 0 0 63.729153
-13.727784 -5.8459835 -1.2708106 18 0 0 0 96.736
14.211782 2.3912044 3.7728498 22 0 0 0 44.904961
-6.9137864 4.7993603 0.33797237 104 0 0 0 7.561728
-11.484667 5.2811599 5.9086657 48 0 0 0 8.5468159
-14.480788 -23.293571 -5.1779571 16 0 0 0 85.325058
-3.3686554 3.0446436 -0.71571577 363 0 0 0 11.209984
-13.022079 -13.075371 -2.9548242 49 0 0 0 85.82605
12.121044 2.1296701 6.6193442 23 0 0 0 45.993473
-5.7060356 1.4382466 -0.78546178 178 0 0 0 6.282496
22.735952 -24.678638 -8.2134304 21 0 0 0 61.360897
-5.9761496 -35.255192 1.9821811 5 0 0 0 77.542397
1.9345757 -20.625553 -7.9248757 16 0 0 0 76.560898
-8.7235813 1.2003651 -0.32858413 118 0 0 0 2.9465599
19.744726 -27.640675 -7.2849154 13 0 0 0 66.493698
-14.872877 -5.0817447 0.99714053 89 0 0 0 97.915649
11.09001 1.9479825 6.4871058 33 0 0 0 49.441536
9.2374754 1.763822 -3.0396926 60 0 0 0 48.456192
-0.18511546 -27.553652 -8.9316006 14 0 0 0 78.133507
-0.71155387 9.3160515 0.61505747 11 0 0 0 21.739519
3.3167939 4.3864808 1.8672596 568 0 0 0 32.878338
5.3628068 -4.2722692 -3.9017584 200 0 0 0 63.926273
-11.602828 -3.2622168 -1.0049877 61 0 0 0 98.804222
24.551538 -53.697865 -17.703503 7 0 0 0 66.399231
-6.8755145 -16.093924 -5.198185 19 0 0 0 82.869247
8.1009016 -36.850685 -0.48223191 7 0 0 0 72.906494
-13.492047 2.3793755 3.8176134 9 0 0 0 2.5525761
24.296005 -17.143135 -2.6020982 24 0 0 0 57.903103
7.3680673 3.5638101 2.9288852 204 0 0 0 45.101311
-34.387897 -3.9910002 8.2195759 14 0 0 0 98.216194
-3.8612452 8.0721951 1.8172795 58 0 0 0 17.503744
-35.711182 -5.2961531 5.3788471 17 0 0 0 96.148483
-34.28846 -4.724112 12.486035 10 0 0 0 96.249344
-6.6792049 0.014010721 -1.0167712 187 0 0 0 0.59110397
-31.573263 2.7751942 11.930426 15 0 0 0 1.274368
25.45739 -16.561626 4.1974974 14 0 0 0 60.274433
-32.449234 -2.8027837 3.7089405 10 0 0 0 1.077504
23.483831 -12.629675 -8.2750082 19 0 0 0 59.288574
19.880507 -29.819437 -6.2804651 13 0 0 0 68.566528
24.94331 -11.093811 -2.7731214 23 0 0 0 57.903103
5.9009848 2.2509947 -2.4169743 150 0 0 0 47.371777
24.152891 2.442553 -4.8331585 17 0 0 0 46.582016
-2.3147395 -25.179779 -5.9502039 17 0 0 0 74.681602
-3.5173013 4.3209085 6.0888453 71 0 0 0 16.515585
-8.4474878 -14.420059 -4.5450997 19 0 0 0 81.682175
17.628054 2.9939256 -2.0769126 24 0 0 0 48.547585
-4.3538165 -7.7805529 -3.209255 140 0 0 0 86.222076
11.492653 -3.9079645 -5.0385566 38 0 0 0 56.726017
5.7636347 -5.1246691 -4.1489396 165 0 0 0 61.360897
-4.742981 -1.7026677 -1.841212 299 0 0 0 94.477058
24.337482 -18.833912 -3.7233477 15 0 0 0 63.331841
13.813927 -9.1807594 -6.8510213 20 0 0 0 59.192322
-4.1727104 -4.4547663 -2.484534 289 0 0 0 90.149887
2.3156505 -32.780094 -3.2049642 9 0 0 0 73.695747
6.7116003 -35.45784 -1.8372605 10 0 0 0 71.831039
10.502394 4.1849051 8.4549227 7 0 0 0 46.088192
10.015747 2.377192 6.7328382 58 0 0 0 48.456192
-12.374443 -0.44637647 1.0949687 100 0 0 0 99.48262
5.633791 -31.484367 -8.7906055 20 0 0 0 75.176445
23.557219 -23.830856 -4.7416182 17 0 0 0 60.768002
27.100363 -1.7789403 1.7513534 36 0 0 0 52.095745
3.8720355 3.8963463 3.5910513 274 0 0 0 39.682304
-34.730541 -2.949044 8.2792082 5 0 0 0 98.700546
-34.549904 -1.2282311 7.7276697 9 0 0 0 2.1591041
23.980419 -12.668157 -6.3762264 30 0 0 0 55.936001
-7.6561952 -4.711297 -2.1387167 90 0 0 0 94.380798
24.841198 -17.044031 -0.30057585 15 0 0 0 60.768002
-37.285927 -19.25252 0.92226732 8 0 0 0 93.990913
22.498619 -6.8379312 -7.0867443 23 0 0 0 56.133121
-2.4391005 5.6354413 1.080828 299 0 0 0 21.347328
-1.1644646 -34.896149 0.10217055 5 0 0 0 75.373055
32.007523 0.81027788 -5.2812634 10 0 0 0 49.338623
-6.872334 -26.471081 -2.1499212 18 0 0 0 77.346817
27.734388 0.2311653 4.3704824 23 0 0 0 52.397823
9.238492 -6.9107184 -5.3544221 50 0 0 0 58.405121
-9.1257029 -30.97274 -1.9009123 22 0 0 0 82.571266
-12.601792 -9.2765884 -2.4303005 15 0 0 0 88.284157
26.406593 1.3062595 -4.3116703 28 0 0 0 48.943359
1.4504018 -32.020214 -5.0253558 11 0 0 0 75.671043
22.501493 -7.7641392 -7.2186155 7 0 0 0 56.726017
-2.736258 -27.152843 -0.92593282 13 0 0 0 74.878204
-15.081057 -11.113969 -1.676722 23 0 0 0 93.008385
-2.0897846 -18.157536 -6.6169839 14 0 0 0 78.237694
12.382042 2.0676048 5.4155278 29 0 0 0 44.616447
25.714651 -26.679197 2.0663395 9 0 0 0 60.870399
4.7565947 -11.264736 -5.2624006 39 0 0 0 70.051331
11.045285 -1.9043204 -4.3944378 53 0 0 0 52.595455
2.3223655 -25.459219 -8.8994827 18 0 0 0 71.72403
13.910585 -2.0197396 -4.8856592 27 0 0 0 53.773567
-11.283878 4.5099125 9.1931295 21 0 0 0 6.5822721
18.931072 0.22966596 -5.0969496 17 0 0 0 49.637375
28.347971 -8.2711191 6.2929416 33 0 0 0 53.873409
-3.5237923 -24.835047 -5.8635998 14 0 0 0 75.474434
13.910085 1.7377137 -3.8363793 24 0 0 0 49.441536
26.390093 -6.0378261 -1.1727577 13 0 0 0 54.757633
10.222279 2.8233898 3.465328 68 0 0 0 43.134464
11.774554 -7.6768622 -6.2083893 24 0 0 0 62.345985
-8.4765196 4.4703484 8.2324228 55 0 0 0 8.3489285
23.829145 -16.255173 -5.6959858 18 0 0 0 59.288574
27.325275 -0.81501412 2.4920225 30 0 0 0 48.351746
15.789113 0.85003555 8.6150227 25 0 0 0 46.189312
-2.949898 5.2668796 8.0234108 9 0 0 0 15.04512
25.440737 -8.6922483 -1.3062506 25 0 0 0 56.435711
-14.689384 -5.5727186 2.3149984 63 0 0 0 92.709885
0.4216074 -31.312595 -7.4742737 15 0 0 0 73.011459
0.76965004 5.2740712 1.1324612 1405 0 0 0 25.285889
-1.8021537 -25.328526 -5.4787908 18 0 0 0 79.116547
-0.14321886 -34.908409 -0.27335814 8 0 0 0 76.461571
26.050499 -1.6676748 -3.8063493 19 0 0 0 53.873409
25.335766 -16.33779 1.8628238 15 0 0 0 57.117439
-9.8398666 -33.511776 1.3882726 12 0 0 0 82.571266
-8.691062 -28.889006 -4.1148806 22 0 0 0 79.508995
-7.9264545 5.8346643 2.3916147 334 0 0 0 8.2519035
-32.460266 5.3096614 9.6440849 11 0 0 0 0.68403202
9.2185974 -0.39647439 -3.6669748 61 0 0 0 52.200191
25.355743 0.41997707 6.287322 6 0 0 0 47.371777
20.145067 -33.792706 -1.7533877 9 0 0 0 64.626175
23.450703 -21.689651 -6.7782812 7 0 0 0 63.240704
3.2706273 4.8884683 5.743876 7 0 0 0 32.878338
-12.043369 -1.6889343 0.69505012 123 0 0 0 0.197888
22.244896 -8.6153708 -7.2768269 15 0 0 0 57.312767
18.476862 0.62185353 7.7168217 14 0 0 0 46.779903
25.773603 -3.1848109 -4.5400763 39 0 0 0 51.700226
-17.163874 -21.040667 -3.3560987 14 0 0 0 85.82605
3.5292873 -37.399979 1.4537551 8 0 0 0 74.878204
20.221951 -22.382761 -10.939613 11 0 0 0 63.133953
25.737631 -7.6564283 -1.9772991 30 0 0 0 52.686337
16.951956 0.43169349 8.3823233 16 0 0 0 51.898113
-9.396409 5.9060173 2.7154915 299 0 0 0 11.797504
-0.19919363 4.5468855 3.2511423 362 0 0 0 22.134785
26.329384 -3.2675343 -2.2960448 28 0 0 0 53.183998
5.4305797 -8.7282467 -5.4722037 21 0 0 0 64.22963
6.3809724 3.8176668 2.5176361 256 0 0 0 40.469761
20.641851 -29.092346 -1.5780555 5 0 0 0 63.331841
-34.310219 -1.629038 9.9681396 11 0 0 0 99.287041
16.164091 3.3040023 -2.492332 32 0 0 0 46.482689
1.5929185 -31.512529 -7.5620193 8 0 0 0 72.423424
-3.5617175 -8.4030352 -3.5093 128 0 0 0 79.508995
6.1904359 0.33825681 -3.0064428 160 0 0 0 47.371777
15.970058 2.1908944 2.2796242 33 0 0 0 47.173634
-5.6279287 -1.2979405 -1.5555452 218 0 0 0 98.021118
1.4928824 -28.642519 -3.9339187 15 0 0 0 72.423424
-7.6114888 5.6554475 1.8997623 188 0 0 0 12.97792
15.097406 3.0181158 -0.42146295 61 0 0 0 49.536255
-8.8406525 3.1601315 0.21310794 110 0 0 0 7.9572482
-13.599934 -9.5362492 -1.7395455 66 0 0 0 88.675842
19.922998 -1.5710939 -5.7647963 15 0 0 0 52.686337
-9.5262051 -15.574821 -4.6097493 19 0 0 0 86.815491
17.468616 2.9051285 -1.4104655 41 0 0 0 50.123009
-1.8636458 -22.496948 -7.7420344 8 0 0 0 74.482178
-35.047749 -7.2208157 11.831362 6 0 0 0 98.412285
27.168264 -1.7938309 2.0714998 25 0 0 0 50.514942
-4.8083901 -7.409812 -3.0323472 145 0 0 0 85.629181
26.004284 -10.008926 2.405225 16 0 0 0 58.497536
10.429058 2.8792119 2.9441011 113 0 0 0 43.240704
13.43595 0.78599477 8.9312172 26 0 0 0 47.663616
25.82337 -1.2093836 -5.4334002 28 0 0 0 48.943359
0.71493953 -35.060867 -0.29670256 5 0 0 0 76.066307
11.812549 -8.9120865 -6.5648661 20 0 0 0 63.439102
11.205901 2.9193833 2.1974533 77 0 0 0 46.779903
-5.3825979 -0.21203651 -1.3140265 227 0 0 0 97.826302
0.3981429 -27.531757 -4.596046 13 0 0 0 77.738754
4.7624769 -5.7189856 -4.1200581 154 0 0 0 65.415939
26.248415 -8.158534 0.67295188 21 0 0 0 52.791553
20.661787 -26.460524 -6.5091395 11 0 0 0 62.646786
-12.760125 -25.728075 -6.4056721 16 0 0 0 80.602882
24.838474 -18.264738 0.86741203 14 0 0 0 62.844673
26.413942 -0.66080928 -2.4595928 34 0 0 0 53.183998
2.4067135 -31.401005 -8.1879959 16 0 0 0 75.176445
24.591476 -14.768624 -2.4392514 17 0 0 0 56.726017
-8.5362511 -1.6897583 -1.1455079 96 0 0 0 100.07219
-10.33411 -33.731731 1.7531627 7 0 0 0 81.195518
5.0302014 0.31733963 -2.8303123 269 0 0 0 48.943359
-18.000252 -25.03174 -4.2107372 16 0 0 0 86.418434
26.584515 -5.1362395 0.83683032 24 0 0 0 51.017982
-15.685131 -10.195439 0.60369748 14 0 0 0 90.845184
23.01741 -21.43404 -9.6267271 10 0 0 0 61.754623
25.906075 -12.262166 3.8145103 21 0 0 0 59.682049
27.149584 -0.95431268 1.4968604 21 0 0 0 53.183998
-2.1278706 -25.506651 -2.3849211 22 0 0 0 76.164604
6.5829563 -6.5430965 -4.7025661 102 0 0 0 65.611778
-13.688291 -9.4738598 -1.7408456 85 0 0 0 88.777473
24.046383 -24.76899 -1.4631816 11 0 0 0 60.870399
10.640051 2.7633529 11.061997 8 0 0 0 48.059902
-11.496494 -11.022491 -3.0721588 22 0 0 0 90.941185
10.424216 4.623641 7.6986675 5 0 0 0 45.494785
23.443445 -21.151699 -6.6926174 16 0 0 0 63.043839
25.71821 -13.498749 2.6697431 21 0 0 0 58.798336
23.844484 -20.295311 -5.3985291 15 0 0 0 64.124413
-2.5851622 -4.6108394 -2.672446 421 0 0 0 82.869247
26.601536 -2.2367504 -0.93602526 23 0 0 0 52.488705
-13.549909 2.0503893 3.771039 21 0 0 0 2.1591041
0.4971433 -3.764864 -2.9618757 310 0 0 0 76.164604
26.341181 -1.9285976 -4.8567128 6 0 0 0 52.488705
4.0659652 -32.256084 -5.5205307 21 0 0 0 75.967232
12.62047 0.092560694 -4.0832171 33 0 0 0 49.732864
-34.709282 -0.57826149 6.4626393 6 0 0 0 0.78950399
26.262363 -9.2096148 2.7326169 14 0 0 0 56.435711
3.8830931 3.5952592 -0.4302009 86 0 0 0 40.866302
3.0194478 -37.084385 1.1063876 7 0 0 0 76.658691
-5.4836097 -6.494194 -2.777359 158 0 0 0 86.025215
8.6547365 3.3856606 -2.5047014 61 0 0 0 47.07328
5.4913011 3.9220665 2.6234579 274 0 0 0 40.766464
-12.721952 5.7130928 3.9518986 5 0 0 0 9.6330242
-9.3990822 -25.75449 -6.2198296 12 0 0 0 78.829315
-34.180141 -4.6294174 9.0165968 14 0 0 0 0.68403202
11.876306 2.7311742 3.7274966 73 0 0 0 45.494785
26.614557 -1.9094385 -0.91492701 23 0 0 0 52.292606
-13.621233 -5.9360337 1.2585232 13 0 0 0 93.495552
14.468325 -6.7067609 -6.3293481 19 0 0 0 55.150082
20.115257 -29.87081 -4.0956492 11 0 0 0 66.88768
25.568165 -4.3928046 -5.6671553 21 0 0 0 50.908928
25.205961 -19.972757 1.8900267 8 0 0 0 58.695423
23.335085 -22.988585 -6.6120777 20 0 0 0 62.149632
6.2849522 -4.08358 -4.0012393 154 0 0 0 58.995201
24.785965 -9.0454502 -5.6048951 26 0 0 0 58.497536
11.713547 -9.6681986 -6.7543802 21 0 0 0 64.124413
23.142479 -19.497786 -9.2290907 17 0 0 0 60.964863
-11.723751 -35.355293 4.0736704 7 0 0 0 80.013565
-32.850487 4.1508288 16.097351 7 0 0 0 3.7286401
-36.119225 -16.039364 1.8173486 5 0 0 0 91.834625
-2.7025902 -26.134699 -1.6783494 23 0 0 0 79.619072
-15.061469 -9.607851 -0.69261718 33 0 0 0 94.083328
24.681583 2.2770705 2.4887552 24 0 0 0 46.385666
26.462368 -8.1390772 1.7195603 32 0 0 0 54.266369
19.220243 -26.22613 -10.847038 12 0 0 0 67.976448
6.6787753 -4.1652174 -4.1171284 119 0 0 0 57.027073
-5.1771345 -25.524616 -5.5203819 21 0 0 0 81.195518
6.5799079 -34.922539 -2.1686285 7 0 0 0 73.404671
25.290989 -3.9277894 -6.5201378 33 0 0 0 55.449856
-6.0307665 -32.1381 0.57005376 15 0 0 0 76.263428
23.967709 2.7969515 -3.5357249 11 0 0 0 46.285568
-3.3874505 -19.817924 -6.8317332 16 0 0 0 75.868675
0.47127926 4.4924083 -0.87384099 350 0 0 0 24.798977
6.3203421 -5.0131922 -4.2495408 135 0 0 0 58.798336
-1.8195721 -25.343721 -4.1792951 24 0 0 0 79.116547
16.402897 -0.0295501 10.279007 12 0 0 0 52.292606
22.829823 -4.6765232 -6.9037232 24 0 0 0 54.659584
25.823532 -0.38376838 -5.654439 28 0 0 0 50.033409
18.04751 0.82464194 7.5621171 18 0 0 0 46.582016
13.067181 -2.0930338 -4.8202329 28 0 0 0 55.649025
25.382332 -13.592627 -2.3952024 18 0 0 0 55.936001
2.200794 -34.995888 -0.67616796 7 0 0 0 76.954109
19.627924 -33.439568 -4.8393211 6 0 0 0 69.457405
-1.9617919 -10.463937 -3.9577763 61 0 0 0 80.998909
0.86499119 -23.206921 -8.2586203 18 0 0 0 74.193153
-16.455025 -8.7506266 -1.3927351 14 0 0 0 93.795326
24.092039 -18.068911 -5.1515269 12 0 0 0 63.133953
19.303635 -27.712059 -8.633007 9 0 0 0 65.109505
3.6646333 0.47447938 -2.5936282 251 0 0 0 47.959808
18.934721 -30.952965 -11.613985 4 0 0 0 67.678719
-14.255905 -0.49181667 4.9328761 6 0 0 0 99.48262
-15.081861 -5.1822062 2.7633195 39 0 0 0 96.344322
-6.0535192 -28.934452 -0.058170039 13 0 0 0 79.706627
21.484537 -27.286098 -3.580863 12 0 0 0 64.124413
23.201246 -28.105074 -1.9610866 8 0 0 0 63.729153
-33.460117 -1.4101 14.03097 4 0 0 0 97.718269
-9.2664013 -4.5712008 -1.778461 86 0 0 0 94.280701
32.577408 -16.81958 -5.2344151 7 0 0 0 57.312767
24.453674 -16.711863 -2.0688007 14 0 0 0 62.345985
-3.8868079 -11.102817 -4.1512666 64 0 0 0 81.78688
-4.4637218 -7.2323518 -3.044903 193 0 0 0 86.902275
12.763875 0.77235693 -3.9428949 35 0 0 0 47.270657
0.73183739 5.5128307 -0.58196586 299 0 0 0 26.768385
6.970892 3.9948909 -2.0653141 89 0 0 0 44.708096
9.9058905 3.4393773 5.5199704 72 0 0 0 46.876671
10.647512 -3.4855225 -4.8271408 46 0 0 0 58.209278
-4.6505384 2.9122255 -0.55685037 256 0 0 0 11.49568
10.901 -11.858188 -7.2003913 10 0 0 0 66.29734
8.7257538 -4.0834999 -4.4902501 43 0 0 0 56.828415
11.390742 1.4981078 12.291014 22 0 0 0 43.725311
23.169359 -26.214088 -6.1061125 12 0 0 0 66.399231
-6.5510559 -18.375872 -5.8382797 19 0 0 0 81.880829
8.6058111 3.654912 1.8993355 170 0 0 0 44.420609
25.7736 -13.455269 0.95160049 5 0 0 0 60.374271
-7.4418244 5.8042321 1.2213815 220 0 0 0 10.120448
-13.51753 -9.5887899 -2.0987582 46 0 0 0 91.726593
24.786358 -18.747719 2.6948824 17 0 0 0 61.460735
-32.086021 4.0657978 10.095677 5 0 0 0 3.338496
-12.605124 -21.922182 -5.5802879 13 0 0 0 81.5895
-35.697945 0.97042167 6.4548993 5 0 0 0 3.04512
25.098312 -20.666824 1.1958255 16 0 0 0 62.149632
-12.585908 -30.131197 -2.7329617 7 0 0 0 81.195518
-3.9590414 -25.637821 -6.0555129 19 0 0 0 75.671043
26.814922 -7.9772587 3.1314535 16 0 0 0 54.070526
1.9878069 -34.132118 -1.6487204 9 0 0 0 73.892349
8.9991169 3.3616991 2.9300518 150 0 0 0 45.013248
13.319794 1.8969213 5.9683194 39 0 0 0 50.033409
14.645795 1.6131549 7.402422 32 0 0 0 50.514942
22.577188 -22.868513 -10.230414 17 0 0 0 64.030724
-1.5418177 5.3698874 0.87031943 504 0 0 0 20.265217
24.562243 -8.0867891 -6.1435518 22 0 0 0 54.856194
24.512899 -20.506672 -1.6189626 4 0 0 0 60.768002
-5.5787501 4.6320014 5.0838089 121 0 0 0 13.071616
3.4872103 10.64904 0.53631175 20 0 0 0 27.952385
24.395025 -24.080851 -0.83235395 17 0 0 0 65.219841
18.207056 -29.566833 -12.318964 7 0 0 0 64.42701
23.971865 -16.966278 -6.5151625 15 0 0 0 62.739456
-7.4946532 3.9625294 8.9733877 23 0 0 0 8.6474237
-1.9787323 -25.263998 -4.6639414 11 0 0 0 74.482178
2.0684288 -32.202267 -4.7396235 24 0 0 0 73.798401
-0.44233233 6.351027 0.10707712 196 0 0 0 21.936895
25.517071 -5.7373314 -5.0405927 38 0 0 0 54.856194
-7.7012801 -15.744928 -4.9779606 19 0 0 0 82.079742
10.8866 2.0005596 11.203946 12 0 0 0 47.173634
-2.0765872 -5.6297483 -3.0219538 232 0 0 0 78.631683
24.892641 -22.078554 0.86939591 8 0 0 0 64.32077
17.19031 2.5363994 1.6021113 49 0 0 0 47.07328
7.5826464 -37.391186 0.28928909 8 0 0 0 70.051331
-12.735489 1.4729059 0.88081014 63 0 0 0 1.179392
17.502756 1.6930914 3.801872 22 0 0 0 50.908928
-5.310183 -30.111807 -8.1123638 17 0 0 0 80.800766
-13.214781 -15.217143 -2.9211771 19 0 0 0 89.464577
24.552835 -13.085134 -4.296133 8 0 0 0 59.090687
-1.0870961 -25.652834 -6.0804024 29 0 0 0 73.892349
26.923317 -0.66773468 -1.5368893 14 0 0 0 48.456192
-3.0747881 5.5273547 6.7850938 22 0 0 0 15.141376
-33.295326 2.2512012 7.9576874 14 0 0 0 3.833344
-4.9284644 4.1177487 7.6081843 60 0 0 0 13.861888
-33.50843 1.1004639 9.7275305 21 0 0 0 100.56115
-31.932827 3.0343516 10.314128 6 0 0 0 1.274368
-4.7873211 -3.7233205 -2.265825 163 0 0 0 89.363968
5.3160191 -32.481888 -5.2493796 20 0 0 0 73.798401
3.2316978 -34.209305 -2.029572 6 0 0 0 74.878204
-8.1763268 4.8216414 6.9164357 13 0 0 0 7.1677442
25.101652 -20.41675 0.87329304 9 0 0 0 63.635967
-12.335302 5.950233 3.7864771 53 0 0 0 5.3015041
25.003973 -18.218004 3.0259585 13 0 0 0 59.588608
-0.28163883 -25.757143 -2.9850042 11 0 0 0 78.133507
-10.715125 4.0343299 11.052685 14 0 0 0 4.7096319
16.124331 1.6031731 5.4283357 49 0 0 0 49.142017
19.598774 -33.829029 -4.4490356 10 0 0 0 67.976448
14.310303 0.64854306 10.577622 12 0 0 0 47.762432
-10.729977 -25.642479 -5.7280412 10 0 0 0 84.341248
5.9093041 -2.3023436 -3.5437686 210 0 0 0 59.192322
16.456697 0.44998679 10.046093 16 0 0 0 46.482689
9.6570377 3.4231737 1.1213671 160 0 0 0 43.920895
-8.2607985 1.842441 -0.22520219 99 0 0 0 4.3169279
16.115532 0.56319863 10.164663 18 0 0 0 51.700226
-11.665955 3.259922 13.630533 5 0 0 0 5.4976001
-11.62973 -30.51091 -2.4544518 14 0 0 0 79.116547
-29.001791 7.4154873 6.6751122 11 0 0 0 5.10464
-6.1545415 -32.617538 3.1602247 15 0 0 0 79.422722
-6.0153446 -4.6900473 -2.4399095 127 0 0 0 89.363968
14.004537 3.7211046 -1.577335 49 0 0 0 47.07328
3.4622166 -0.40096959 -2.808892 255 0 0 0 51.805183
-32.096729 2.9896049 14.042274 14 0 0 0 1.4717439
-1.1792959 -21.155224 -7.4724398 18 0 0 0 75.671043
24.229696 -14.087313 -4.363935 23 0 0 0 59.682049
17.088408 2.2278278 2.8790398 25 0 0 0 50.427391
-12.507302 -10.316008 -2.709033 13 0 0 0 88.972542
8.1899929 -3.5356486 -4.2656507 102 0 0 0 58.013439
-11.3928 5.422863 5.169672 54 0 0 0 8.6474237
5.4953384 -31.366922 -9.4112339 22 0 0 0 70.448128
4.4372015 -5.503468 -4.0422187 181 0 0 0 67.386627
16.28447 1.2323611 6.8861756 31 0 0 0 46.088192
14.254534 1.5146515 -3.9432733 24 0 0 0 49.732864
15.701905 1.8658966 4.0689287 28 0 0 0 45.692673
14.839772 -7.7968454 -6.6922383 14 0 0 0 55.936001
5.4009476 3.9457362 3.7634749 34 0 0 0 42.150913
-3.2082589 4.9151282 7.4315286 59 0 0 0 16.123903
-33.178085 1.3285872 10.400489 10 0 0 0 0.39398399
16.153776 -6.3652749 -6.5269809 12 0 0 0 59.090687
3.8470914 -32.07859 -6.120153 24 0 0 0 71.331329
24.297037 -17.594194 -2.6363068 19 0 0 0 58.102016
14.44629 -56.772385 -10.121074 6 0 0 0 73.996033
-13.429502 -15.842358 -3.8168287 11 0 0 0 87.693314
25.609255 -3.1257083 -5.1736221 42 0 0 0 54.856194
10.628762 1.7490191 10.685373 22 0 0 0 49.536255
-12.206054 4.7154317 8.6037493 15 0 0 0 7.9572482
29.972954 -13.598744 -8.8313322 10 0 0 0 59.785473
23.830658 -19.972626 -5.9155989 13 0 0 0 59.288574
-15.850479 -9.7377167 2.0321667 19 0 0 0 94.380798
-12.860001 -10.663709 -0.96307003 84 0 0 0 87.402237
-5.4564323 -27.256248 -7.9204526 17 0 0 0 76.361725
-9.0531874 5.0864043 5.1304646 61 0 0 0 8.2519035
-10.610393 3.5439675 0.77228719 67 0 0 0 7.6605439
25.54285 -2.7380898 -6.1042662 38 0 0 0 53.082111
-6.3699002 5.5080805 2.6221766 450 0 0 0 14.352384
18.763351 -29.612907 -10.506141 5 0 0 0 64.22963
27.198528 -2.1430387 2.3936827 26 0 0 0 49.142017
2.8151355 -28.043369 -8.5323353 21 0 0 0 73.206528
31.850399 -1.3603239 11.220536 12 0 0 0 48.157185
-34.444542 -3.7884128 7.7912512 12 0 0 0 99.875587
-5.835968 4.9118614 5.9545574 27 0 0 0 13.268992
11.889254 -4.8851361 -5.3752675 20 0 0 0 57.707008
24.518276 -21.026585 -1.6452628 16 0 0 0 60.964863
8.630969 4.2020826 -2.2330728 51 0 0 0 42.544384
27.420547 -3.8030059 3.7021093 13 0 0 0 50.033409
-2.2285988 -2.4529068 -2.3126483 454 0 0 0 86.418434
16.509613 0.35218638 10.066015 15 0 0 0 46.582016
-9.9012899 0.059354171 -0.45037565 86 0 0 0 98.607613
-0.82639438 4.2459407 5.0243979 10 0 0 0 21.64736
-36.639324 -17.242125 0.91506654 5 0 0 0 94.576385
19.922989 -29.861633 -5.1569872 8 0 0 0 63.833344
3.2707052 0.54075408 -2.5447314 321 0 0 0 45.601791
2.04704 -32.024929 -5.4024568 11 0 0 0 76.954109
2.3773177 5.1291418 -0.77897054 728 0 0 0 33.178112
-34.316124 -0.57890415 8.1551218 7 0 0 0 99.778046
11.966438 2.9195151 1.8536257 80 0 0 0 45.494785
5.3629532 3.3149815 -2.0192564 144 0 0 0 39.390465
11.968095 3.4298918 -0.40405652 96 0 0 0 43.527679
31.881578 -0.98595643 10.739472 10 0 0 0 49.637375
8.282011 4.4605994 -0.12452785 149 0 0 0 40.074753
26.884289 -8.4595251 4.5415077 18 0 0 0 54.266369
12.297709 -6.1608691 -5.7980533 21 0 0 0 58.894081
23.938866 -25.004198 -1.8298124 11 0 0 0 62.541313
-3.1246886 -23.427277 -5.0541339 18 0 0 0 80.104195
-36.573589 -16.910662 0.45966095 8 0 0 0 96.249344
31.435247 -11.934307 8.3710089 10 0 0 0 56.726017
16.540741 3.4557638 -2.1428938 103 0 0 0 49.536255
-16.706917 -18.792147 -2.822284 23 0 0 0 84.931839
3.5235782 1.9067712 -2.1607156 307 0 0 0 43.831295
9.2378893 0.73361737 -3.3611221 55 0 0 0 46.976768
-16.558769 -8.8392353 -0.99243033 10 0 0 0 90.647041
-4.6889901 1.1198672 -1.0527885 308 0 0 0 4.424192
-2.505918 4.8941569 3.1558592 445 0 0 0 20.758017
8.9137011 3.9536235 -0.68055224 185 0 0 0 41.357056
-11.478424 -3.6225219 -1.1753782 25 0 0 0 93.599236
3.0309072 -4.0272074 -3.4100814 99 0 0 0 64.42701
0.56445575 -12.524912 -5.491539 11 0 0 0 77.346817
25.677479 -12.435405 1.8992889 23 0 0 0 55.150082
-15.616899 -13.732253 -2.4612627 33 0 0 0 88.479233
1.8775046 5.1765127 0.93847823 111 0 0 0 31.597824
23.721693 0.84012783 -5.4110117 33 0 0 0 50.820866
-6.9777222 -27.862329 -6.6220455 16 0 0 0 77.150978
26.154806 -10.61307 4.7879729 15 0 0 0 53.970177
9.0149488 -0.73016995 -3.7712193 74 0 0 0 54.462975
16.087027 -3.0970571 -5.5253315 18 0 0 0 52.884735
25.622726 -13.318468 -2.3881407 13 0 0 0 55.73888
-10.926105 4.0713825 10.829078 13 0 0 0 6.4793601
-0.07746385 -5.3895907 -2.9981766 247 0 0 0 78.330627
24.486406 -19.52298 -2.2440112 13 0 0 0 63.530239
-1.9228659 3.5746551 -0.79112315 333 0 0 0 16.82176
9.2305183 -7.4591627 -5.5213647 42 0 0 0 58.995201
5.2113552 -7.1250615 -4.4797788 70 0 0 0 68.075775
-32.538086 4.6895204 6.5305295 10 0 0 0 0
-5.4634085 -9.3962679 -3.5277469 87 0 0 0 81.5895
25.35391 -16.531803 4.5161257 16 0 0 0 58.695423
-2.2621636 -30.474457 -8.8341389 22 0 0 0 74.389763
5.8804064 -4.907187 -4.1147852 168 0 0 0 60.870399
24.949825 -12.114171 -1.8065083 10 0 0 0 59.982079
23.031729 -26.730822 -5.7551842 17 0 0 0 65.024002
27.703823 -3.5031693 6.2282143 11 0 0 0 51.305218
14.64491 3.320204 -1.6783915 73 0 0 0 47.663616
-5.6096845 4.5115695 6.7556748 64 0 0 0 15.04512
21.537565 -26.943077 -5.2660942 6 0 0 0 64.030724
25.557608 -6.6770816 -3.8041227 31 0 0 0 55.346432
22.149672 -12.812264 -9.0708208 11 0 0 0 58.209278
17.779093 2.1820836 1.6166819 27 0 0 0 47.465729
18.879946 -27.492451 -11.825521 6 0 0 0 63.635967
17.185125 3.343019 -3.1331389 47 0 0 0 49.835262
-5.8382525 3.7745433 8.3156395 42 0 0 0 10.120448
12.938046 -1.9084991 -4.7536435 21 0 0 0 55.449856
17.193012 -4.0859165 -6.0077357 16 0 0 0 53.576962
24.22768 -17.707678 -5.1244397 18 0 0 0 62.937088
3.3103085 10.968215 2.5421298 25 0 0 0 30.612736
-14.41855 -0.37018049 4.1605749 8 0 0 0 0.98483199
23.650656 -24.824535 -4.8627672 12 0 0 0 61.066498
24.070236 2.3616691 -1.7344087 10 0 0 0 49.637375
-2.9779663 -35.401997 1.2070866 5 0 0 0 79.313148
6.9142137 0.71577442 -2.994307 117 0 0 0 48.257793
13.248869 -0.39161554 -4.3243847 31 0 0 0 50.318336
1.651947 -9.2554665 -3.3465929 30 0 0 0 71.919357
11.373706 3.0706015 2.855696 13 0 0 0 46.582016
-3.6384766 4.3701129 4.9397688 108 0 0 0 17.895679
25.913387 -8.7552385 0.63443172 23 0 0 0 53.183998
4.7082291 -33.664627 -3.0461845 5 0 0 0 71.041283
3.8237214 -31.795551 -6.6988401 17 0 0 0 74.482178
2.8828287 -32.608887 -3.5300448 7 0 0 0 74.979584
25.981779 -11.398874 5.2526655 19 0 0 0 59.192322
3.4176049 -33.35704 -2.9771671 8 0 0 0 71.632896
-11.286386 -6.7161446 -2.0009139 42 0 0 0 89.859581
1.78383 5.4273133 -0.54390502 312 0 0 0 32.878338
-15.999624 -15.533236 -2.4479814 20 0 0 0 86.114563
-10.019917 -34.446239 2.5014443 9 0 0 0 77.844482
4.8541846 4.9754572 -1.4040461 150 0 0 0 37.027328
25.793285 -10.224293 1.0203947 11 0 0 0 58.695423
23.693823 -23.806004 -4.1434789 12 0 0 0 65.415939
-4.0199566 0.15944828 -1.4538693 67 0 0 0 100.66176
-7.763278 -6.5180278 -2.6232746 77 0 0 0 87.207169
-8.7890377 5.5191431 4.1441345 110 0 0 0 7.268096
1.8834611 3.0952203 -1.540723 325 0 0 0 35.340031
25.135141 -20.419476 1.8927007 11 0 0 0 58.894081
8.5042448 -5.8977175 -4.8916311 88 0 0 0 59.484417
-32.753082 1.731187 9.8850927 13 0 0 0 2.1591041
12.500826 1.6177018 7.85219 63 0 0 0 44.81485
-14.447629 -8.980238 -1.9370291 14 0 0 0 91.137283
6.2667012 -32.003937 -8.215827 20 0 0 0 71.72403
24.561495 1.9895662 1.8389403 35 0 0 0 49.732864
24.94566 -8.0012798 -4.1718307 30 0 0 0 57.816319
23.5065 -26.69833 -4.0154762 12 0 0 0 64.824066
9.9474669 -1.3587967 -4.0533752 54 0 0 0 53.675522
24.802128 -22.510977 1.9132206 6 0 0 0 59.785473
-10.919245 -25.456877 -6.2312255 9 0 0 0 79.706627
26.525452 -8.7605362 2.7674162 14 0 0 0 56.133121
26.524952 -1.1451992 -1.848605 15 0 0 0 50.318336
11.912228 1.309949 -3.6476634 40 0 0 0 46.482689
28.035151 -0.39557537 6.1246538 30 0 0 0 51.106304
26.087921 2.9350007 -4.4900284 21 0 0 0 49.536255
-3.2713995 -25.962217 -2.1612961 23 0 0 0 75.27578
-5.9955993 -6.8891416 -2.8951221 117 0 0 0 84.645119
-1.2634583 7.8947229 0.82731611 16 0 0 0 22.042112
12.694499 1.5324231 7.4426126 27 0 0 0 48.547585
23.435402 -12.51326 -8.6267767 12 0 0 0 60.870399
16.576981 1.3662689 5.777276 33 0 0 0 47.762432
8.221077 4.4842353 0.69165051 36 0 0 0 41.459713
-1.0388665 -25.773062 -2.4347513 10 0 0 0 75.474434
18.817907 -33.747578 -7.5197263 13 0 0 0 65.109505
1.3489372 6.9418325 0.90001369 28 0 0 0 29.129984
24.997494 1.9684559 4.6823583 27 0 0 0 48.059902
23.667936 -18.928003 -8.3613491 18 0 0 0 63.729153
22.631704 -6.118609 -7.0268693 28 0 0 0 55.649025
23.379707 3.5600975 -4.8830171 22 0 0 0 47.371777
-12.594076 -30.096439 -3.0651112 16 0 0 0 82.767105
25.480448 -3.7333782 -5.5848455 28 0 0 0 50.514942
1.0674906 -31.524784 -6.905365 15 0 0 0 77.451775
12.032158 0.80280852 9.9562979 19 0 0 0 47.270657
0.22283611 -27.551313 -5.3961067 18 0 0 0 74.681602
-10.189273 -32.744545 0.72455883 7 0 0 0 78.133507
-5.2801127 5.5197954 0.31986174 116 0 0 0 12.385536
-35.053967 -6.771718 11.806948 10 0 0 0 98.607613
22.548109 -27.171093 -5.7656951 10 0 0 0 65.308418
-6.5020599 -28.498945 -3.7753513 21 0 0 0 76.857857
-4.4962349 -1.8285245 -1.9231123 225 0 0 0 97.129219
-13.546813 2.9347184 3.0239835 20 0 0 0 4.6208
18.652748 -33.373505 -8.6662092 4 0 0 0 69.853439
-31.885218 4.4192944 12.939801 10 0 0 0 0.48767999
2.3165338 -31.100338 -9.1426258 17 0 0 0 72.02816
25.450766 -15.606722 2.3734858 12 0 0 0 61.460735
-35.691872 0.26324797 7.1494794 23 0 0 0 98.607613
-32.200851 3.0928068 8.6661577 13 0 0 0 1.179392
-4.0341425 7.6146436 1.1822094 83 0 0 0 18.398209
32.012661 0.41659483 -5.3089976 8 0 0 0 49.536255
-10.240868 -25.592421 -6.2245731 15 0 0 0 79.313148
26.488682 0.73408622 -3.0270419 46 0 0 0 49.244671
24.224394 -12.137895 -4.4879313 20 0 0 0 60.274433
-14.973788 -5.5789175 0.77118838 71 0 0 0 92.81485
5.4772344 3.8969254 3.7724996 41 0 0 0 42.348545
-36.303783 -16.610851 1.3680624 8 0 0 0 93.205757
-32.798389 4.2445712 15.678629 5 0 0 0 5.405952
26.387428 1.778092 -3.976733 24 0 0 0 47.07328
-10.170166 4.3509221 8.9026241 16 0 0 0 10.619136
13.958778 3.1060047 -3.4530928 16 0 0 0 44.708096
20.441864 -26.515686 -6.4934659 7 0 0 0 62.739456
24.247692 -15.744547 -4.5472398 18 0 0 0 60.471809
-7.760705 4.9680357 4.8077197 57 0 0 0 7.561728
11.748554 -7.3472438 -6.1116033 21 0 0 0 62.052097
19.637833 -25.68178 -9.9712391 10 0 0 0 64.42701
23.848232 -16.275682 -5.4112267 11 0 0 0 57.707008
22.866062 -22.620529 -8.9367485 18 0 0 0 65.415939
15.643755 -0.032417651 -4.6697183 23 0 0 0 53.082111
22.512999 -5.713171 -7.2895718 22 0 0 0 57.027073
23.428049 -25.538225 -6.0420494 22 0 0 0 66.099457
1.1286261 -32.736233 -2.8593378 8 0 0 0 72.708351
-34.276245 -1.4153064 9.9557352 14 0 0 0 99.389183
-8.1900291 -4.5354476 -1.9818676 88 0 0 0 91.921661
-2.4474325 -25.315619 -3.882369 15 0 0 0 77.936386
11.818704 -8.4625692 -6.4391494 16 0 0 0 63.043839
-1.8926493 -4.0682039 -2.6295958 498 0 0 0 83.360771
-2.0740366 -9.9114437 -4.0650816 34 0 0 0 78.041084
26.059645 -10.039641 2.7020488 18 0 0 0 56.920834
9.9825563 2.3866739 6.1151867 34 0 0 0 46.680576
3.3531015 5.0573168 0.53473055 791 0 0 0 36.922878
-35.261574 -7.6047177 10.980595 12 0 0 0 95.070206
6.8011599 4.2077322 0.52423197 259 0 0 0 42.150913
21.251583 -26.16283 -8.2802858 6 0 0 0 62.345985
23.20668 -21.387253 -8.3366814 13 0 0 0 63.240704
-28.538315 8.7122841 7.6952209 6 0 0 0 2.749696
7.3575883 -12.19523 -6.3710713 27 0 0 0 69.457405
20.793955 -27.875193 -1.8841114 5 0 0 0 64.518402
23.828243 3.4575329 -2.541106 40 0 0 0 47.371777
19.723238 -32.642361 -4.3403692 12 0 0 0 67.678719
21.653402 -13.544582 -8.3501711 6 0 0 0 61.953281
4.5744486 1.046277 -2.5693555 227 0 0 0 46.385666
27.487146 -2.4588766 4.1722164 28 0 0 0 53.970177
1.5780464 4.3711424 2.9119811 485 0 0 0 33.07571
3.0930593 -5.2420812 -3.4713302 50 0 0 0 69.655807
10.435154 4.1433268 -2.5544431 48 0 0 0 42.150913
26.437748 -1.955338 -1.8995594 21 0 0 0 50.820866
24.558865 -13.480282 -3.7329218 29 0 0 0 56.133121
22.493444 -23.516373 -10.822696 9 0 0 0 65.901825
-4.6337371 -22.757368 -7.069695 26 0 0 0 79.619072
8.5485258 -8.3507204 -5.5859027 59 0 0 0 60.471809
-0.76120615 5.7461605 0.72292215 354 0 0 0 25.681152
-11.343437 -32.133282 0.41603544 7 0 0 0 80.302849
20.097343 -29.297991 -6.905622 5 0 0 0 63.635967
-12.061882 -1.1953706 0.62744677 102 0 0 0 96.931839
22.815664 -21.062506 -10.29706 9 0 0 0 64.912125
13.622432 2.0814729 4.5277843 65 0 0 0 49.927681
26.272804 -3.9033818 -1.7330709 20 0 0 0 50.427391
-35.106518 -2.3362527 6.5569968 5 0 0 0 99.000572
9.4846983 4.0580735 -1.5170839 125 0 0 0 44.81485
19.521347 -30.431805 -7.0324192 10 0 0 0 64.124413
1.9596344 5.0357809 0.55944949 328 0 0 0 33.571327
-13.066945 -13.12229 -3.1506882 18 0 0 0 87.402237
15.865899 0.64935911 10.019903 17 0 0 0 51.606014
13.503814 -7.0431824 -6.2288899 22 0 0 0 57.510143
24.614437 -15.51471 -2.0013962 24 0 0 0 61.754623
-4.8698201 4.6567187 4.2825675 135 0 0 0 14.060032
-11.122603 -30.097292 -4.6529131 17 0 0 0 82.079742
24.771111 -23.327417 1.5537926 9 0 0 0 61.6576
-34.965042 -4.9658179 5.2640333 6 0 0 0 96.249344
3.8521047 3.8618875 -0.75481397 318 0 0 0 35.537663
-12.825768 -10.590081 -1.5041727 55 0 0 0 92.119041
-14.013984 -19.970272 -4.2933078 22 0 0 0 84.645119
-33.771233 -1.5742826 11.523315 7 0 0 0 0.68403202
25.895319 -12.949924 5.5848122 9 0 0 0 58.405121
-33.84903 0.98459578 8.7365599 6 0 0 0 0.093952
-7.4214191 -6.1742716 -2.5901556 72 0 0 0 88.871681
23.963665 -20.90497 -4.4514408 10 0 0 0 59.588608
9.213419 0.251331 -3.4832387 71 0 0 0 49.441536
4.4696612 -3.4842746 -3.4961517 198 0 0 0 62.052097
-0.59763277 6.9749327 0.024192946 52 0 0 0 23.225088
19.169504 -32.989067 -6.6856117 9 0 0 0 69.553406
-34.322601 -5.3246632 12.805582 7 0 0 0 0.68403202
-9.18328 -28.521955 -5.2971797 10 0 0 0 78.237694
10.469684 3.293571 1.0268255 151 0 0 0 46.088192
-7.8091111 4.9489455 0.53913277 94 0 0 0 10.027008
-13.52845 -16.360846 -3.9101892 15 0 0 0 87.495171
7.9460311 -7.1327477 -5.082181 54 0 0 0 61.460735
4.4010906 5.02139 5.7427888 5 0 0 0 34.947071
3.9321637 -33.41272 -11.025555 14 0 0 0 76.164604
10.071804 -4.5359387 -5.0300689 48 0 0 0 54.954239
0.25544161 -29.446278 -4.2808628 19 0 0 0 74.681602
23.878912 -13.402384 -5.6367831 18 0 0 0 59.484417
-10.469188 5.1468921 1.5543245 121 0 0 0 9.9215364
-32.459377 4.1086974 17.108164 14 0 0 0 0.48767999
18.058598 1.7983847 2.9892251 33 0 0 0 50.908928
6.469934 -32.097832 -7.9557071 21 0 0 0 70.051331
-34.09063 0.40759221 8.256424 10 0 0 0 1.376256
-11.162578 1.9414593 0.45807576 107 0 0 0 0.48767999
-8.3556051 -12.785969 -4.1246271 31 0 0 0 82.475006
23.583921 -18.479456 -7.5220547 22 0 0 0 60.374271
24.278629 -7.868516 -7.7173676 23 0 0 0 56.435711
1.1393995 -28.629488 -3.9210458 9 0 0 0 72.620544
16.954632 -2.4296091 -5.5396032 14 0 0 0 50.514942
23.823124 2.8821857 -5.0125308 6 0 0 0 47.862015
13.720242 -11.674343 -7.5036139 8 0 0 0 61.066498
-3.8482795 -6.5425329 -2.9429569 206 0 0 0 83.262718
24.116077 -21.114468 -3.2144344 13 0 0 0 61.162495
-9.07901 -11.008682 -3.5329375 27 0 0 0 89.068802
23.789785 -2.4214275 -5.3747416 21 0 0 0 51.409409
29.24411 -2.7577515 7.4778829 9 0 0 0 53.970177
25.942862 -12.087136 3.8159919 19 0 0 0 59.588608
25.558384 -3.1027 -5.5417929 23 0 0 0 50.123009
-4.1355929 5.4180212 2.0493817 425 0 0 0 14.455552
5.7812004 1.833225 -2.5068102 151 0 0 0 45.013248
27.644611 -4.1792622 6.1907787 16 0 0 0 51.700226
15.954382 -1.5891665 -5.137351 21 0 0 0 49.835262
12.665601 -9.7784929 -6.8511043 17 0 0 0 61.953281
2.0650601 4.2984357 3.024533 371 0 0 0 32.878338
-14.539935 -2.4881859 0.95095152 32 0 0 0 100.46541
-34.797195 -5.5476184 12.131161 7 0 0 0 97.52269
19.185665 -33.489677 -6.7624483 7 0 0 0 69.655807
-11.024976 -32.596474 0.75478703 11 0 0 0 78.526978
-13.389986 -10.03938 -0.94255692 36 0 0 0 88.187645
1.1747991 6.7159944 -0.38535482 15 0 0 0 27.361025
1.9676335 5.1213346 2.0298951 191 0 0 0 33.375233
26.604624 -4.9718194 0.84647572 26 0 0 0 50.908928
-10.443742 3.862807 11.923819 32 0 0 0 4.7096319
10.700459 2.904469 2.2626204 39 0 0 0 45.013248
-10.44546 -33.300789 1.4067794 10 0 0 0 82.869247
10.431433 2.1128778 9.5611973 27 0 0 0 48.943359
0.28999719 4.2307472 4.2739334 227 0 0 0 27.263231
10.79064 2.5445912 10.852158 11 0 0 0 42.348545
16.409367 1.6325245 4.8450904 32 0 0 0 47.566849
-11.358699 3.1475427 13.798299 8 0 0 0 3.533056
-8.7045593 4.8435001 5.8918653 79 0 0 0 11.693312
4.236465 -3.8513718 -3.5410931 280 0 0 0 63.240704
24.305674 -15.781189 -4.232842 16 0 0 0 58.894081
10.763074 3.0659132 -2.9249563 47 0 0 0 46.976768
23.793886 -22.919968 -4.9838586 19 0 0 0 61.953281
3.236753 -31.731142 -7.0366535 16 0 0 0 76.361725
23.27981 -20.981119 -7.6156597 7 0 0 0 59.879169
21.437534 -54.800045 -17.615795 16 0 0 0 67.282433
-8.9233494 2.4816427 0.042180508 90 0 0 0 2.06336
-6.4607096 -25.436064 -2.3143868 18 0 0 0 78.829315
-4.6691041 -27.57279 -0.89278716 14 0 0 0 75.967232
-7.9817376 3.6844399 0.20443048 104 0 0 0 4.7096319
19.5159 -58.261593 -10.687336 8 0 0 0 72.816643
-15.676783 -10.07929 2.6584766 9 0 0 0 89.363968
24.493137 -6.8301301 -7.3197503 21 0 0 0 54.167809
25.934761 -0.7650094 -4.6954422 22 0 0 0 51.805183
12.660902 -8.2309113 -6.429296 21 0 0 0 60.670975
-9.421072 4.8917961 6.1128168 50 0 0 0 6.1905918
25.80176 -4.4114442 -3.6451051 26 0 0 0 53.970177
-14.693357 -5.2663684 2.3049827 61 0 0 0 93.008385
10.357336 1.6157262 -3.2704258 47 0 0 0 47.371777
5.4022207 3.718461 3.7663572 65 0 0 0 40.866302
28.164469 -1.1387118 4.3490987 4 0 0 0 53.183998
26.598423 0.32340452 -2.0693128 33 0 0 0 51.017982
22.807465 -3.6501596 -6.7827659 18 0 0 0 53.970177
25.536343 -10.585611 0.23987336 19 0 0 0 55.845119
11.013174 -0.96107411 -4.1516957 45 0 0 0 49.637375
-4.5709071 4.281436 -0.14842878 194 0 0 0 13.071616
-10.505505 -32.09465 0.044189781 7 0 0 0 81.485565
23.305904 -26.345367 -5.0082459 11 0 0 0 61.6576
24.018787 -12.926422 -5.2872715 14 0 0 0 57.619457
-8.3611393 -7.1897235 -2.6702006 68 0 0 0 91.834625
21.73284 -27.396513 -2.6167481 5 0 0 0 67.190018
1.9124092 -3.5472879 -3.0927782 336 0 0 0 68.566528
4.26193 6.4427981 1.2843413 32 0 0 0 33.669121
-5.4921846 2.5628152 -0.51433504 193 0 0 0 6.282496
6.7052455 -9.4944754 -5.4577174 32 0 0 0 63.331841
24.562927 -18.028561 -2.991075 25 0 0 0 59.785473
-9.3277407 4.058054 9.9246082 19 0 0 0 5.4976001
20.679312 -18.275238 -9.9487152 15 0 0 0 61.360897
1.9942729 -9.2198458 -3.0785549 166 0 0 0 74.587395
25.322708 -5.446527 -6.3179893 33 0 0 0 54.757633
-4.0334687 0.020102868 -1.4888626 223 0 0 0 2.06336
-1.6538782 -25.161043 -6.4492726 10 0 0 0 77.451775
-2.3036883 5.5282502 0.41467088 640 0 0 0 16.82176
-30.153933 8.910861 7.1572361 7 0 0 0 5.6929278
14.862666 -3.008498 -5.323276 13 0 0 0 54.659584
3.6289899 -33.396214 -2.9876921 6 0 0 0 71.527168
-11.630251 4.194386 10.92575 21 0 0 0 9.9215364
-34.280029 -5.9429407 9.6344671 18 0 0 0 98.895103
9.0744791 -15.41308 -7.7372842 6 0 0 0 67.976448
-10.04323 -30.630196 -3.1051099 9 0 0 0 81.485565
3.9414718 -5.5630264 -3.679774 118 0 0 0 64.912125
27.805632 -2.0440896 5.6730576 28 0 0 0 53.675522
3.352087 3.9567413 -1.511194 259 0 0 0 34.357246
-13.291892 3.2234142 2.3347685 25 0 0 0 4.9075198
-12.498204 1.772579 1.3709129 79 0 0 0 3.2430079
24.429455 -24.941578 0.23420481 11 0 0 0 60.768002
24.26026 -11.998238 -8.7581644 9 0 0 0 60.374271
6.1224704 4.5269132 -0.31048203 321 0 0 0 42.544384
3.901732 6.9725533 -0.34048262 13 0 0 0 34.261505
26.079533 -2.8960929 -4.5669436 53 0 0 0 51.503872
-3.9210079 5.4098248 2.0177426 363 0 0 0 14.84928
-33.474033 0.96987545 9.5886984 12 0 0 0 3.338496
-11.512098 -34.568619 3.2727871 4 0 0 0 83.162621
-16.449585 -17.614391 -2.6850135 36 0 0 0 85.325058
7.9881244 -4.9115272 -4.5379953 82 0 0 0 60.274433
7.1504793 3.9252343 1.631428 241 0 0 0 44.420609
-5.8860269 -26.815231 -7.8047051 24 0 0 0 76.658691
14.602098 3.447355 -1.1172529 175 0 0 0 49.045761
-9.2737246 5.8999085 2.0361342 106 0 0 0 7.0702081
27.495806 -4.2241583 5.5225892 18 0 0 0 54.954239
3.8644514 5.2544188 -0.7674312 189 0 0 0 37.907711
23.506393 -18.685345 -7.2507114 6 0 0 0 58.894081
-35.772266 -6.8679199 8.1788092 7 0 0 0 98.607613
23.590414 -17.529343 -7.6921177 22 0 0 0 61.558529
-3.5442643 7.3689599 0.60354698 16 0 0 0 20.562689
-15.440058 -9.4993095 -0.98226041 23 0 0 0 89.662209
6.1108246 3.4558902 -2.0742543 125 0 0 0 43.240704
13.473557 -2.500721 -5.0118961 25 0 0 0 56.040958
-4.8485565 5.6306443 0.43165311 159 0 0 0 11.693312
-6.7228808 -17.178715 -5.5012431 20 0 0 0 82.375427
-10.064995 5.391902 4.5893893 82 0 0 0 11.011328
3.8262599 -31.691706 -7.0561118 14 0 0 0 76.066307
3.3141043 4.7669158 1.7146056 176 0 0 0 37.118977
-0.5490883 -12.07382 -4.9291458 45 0 0 0 75.474434
-3.1174264 -7.6692977 -3.3626566 157 0 0 0 82.571266
25.771408 -10.040642 1.315873 16 0 0 0 57.027073
-1.1236598 5.393157 2.3360643 144 0 0 0 21.451263
-0.47642192 -12.130572 -4.9537201 54 0 0 0 75.373055
22.067387 -25.729343 -10.43891 10 0 0 0 63.530239
23.305401 -18.02844 -9.7175398 11 0 0 0 63.530239
-10.983649 -32.371334 0.4036493 6 0 0 0 80.104195
24.132265 -24.256353 -1.4429387 15 0 0 0 60.670975
-4.2975178 -17.771938 -6.1647172 10 0 0 0 76.954109
17.51145 2.9646552 -1.8368365 30 0 0 0 46.976768
-32.512157 2.9917285 7.8967957 17 0 0 0 4.2283521
-0.63991505 -27.427736 -1.8137492 18 0 0 0 78.330627
25.137238 2.3886323 -2.4694841 17 0 0 0 46.582016
-32.991688 0.7876153 11.927448 6 0 0 0 98.804222
-0.95878834 -26.916954 -1.7713016 19 0 0 0 78.526978
-4.2923551 -1.9942429 -2.0073335 194 0 0 0 93.008385
-2.5043795 -26.154566 -2.4398644 7 0 0 0 76.361725
14.750446 3.1850741 -0.75692385 104 0 0 0 46.189312
27.177599 -6.5943313 4.6112809 23 0 0 0 53.183998
10.233567 4.1377354 7.5630999 4 0 0 0 44.22451
12.829062 2.8731818 -3.3227115 31 0 0 0 46.285568
24.81148 -22.553677 0.86872298 9 0 0 0 64.518402
6.2515731 -34.48494 -2.4909985 7 0 0 0 75.077377
18.444588 -32.029594 -11.418603 11 0 0 0 66.493698
25.362 -15.28295 1.8622274 24 0 0 0 56.632065
-16.738789 -19.061825 -2.8523941 35 0 0 0 84.841469
-6.0992937 -23.899805 -3.6491804 19 0 0 0 80.407043
-1.5597508 4.8731389 2.7054551 517 0 0 0 21.542145
-30.299532 8.8447142 6.4474502 6 0 0 0 2.4558079
14.408012 0.67895883 -4.2554188 24 0 0 0 52.292606
2.7665422 4.9478784 0.53266507 197 0 0 0 35.733761
-12.122802 -29.438423 -6.1871243 23 0 0 0 82.671875
26.111576 -10.878263 4.106421 13 0 0 0 57.312767
-12.821733 -12.134355 -2.5088482 50 0 0 0 91.042816
-6.0632129 5.3802748 3.0912273 42 0 0 0 13.071616
-17.855371 -24.206293 -4.4465685 15 0 0 0 88.187645
-9.7242785 4.8511171 6.72821 42 0 0 0 7.6605439
10.861663 1.75032 8.0799484 39 0 0 0 47.762432
26.35392 -9.2593279 3.0560062 16 0 0 0 54.856194
-5.5344653 -33.592922 -0.11474793 7 0 0 0 79.026947
25.426889 0.50129175 5.9417181 5 0 0 0 48.943359
5.3706841 -1.4092152 -3.2467618 236 0 0 0 53.970177
24.374437 -14.171054 -3.7832847 19 0 0 0 56.527615
-7.1894188 -5.2742419 -2.3743541 96 0 0 0 89.859581
10.16596 2.2252798 5.8771658 45 0 0 0 43.527679
-13.939723 -5.7462626 0.37272248 5 0 0 0 95.360001
32.678867 -16.616686 -4.8465276 15 0 0 0 55.649025
25.869778 -15.344161 4.5325594 18 0 0 0 58.013439
-2.6789284 -31.670063 -3.6286142 23 0 0 0 79.313148
25.528427 -9.9672222 -1.6988943 7 0 0 0 58.695423
5.595921 -31.80674 -7.8300114 9 0 0 0 70.448128
16.701368 -2.183758 -5.4333949 15 0 0 0 50.318336
27.423206 0.70416033 2.2615938 21 0 0 0 49.045761
3.868782 6.8684115 0.057002682 19 0 0 0 34.261505
0.67822796 -4.4153528 -3.1407447 287 0 0 0 75.768318
25.965912 -10.359097 2.3984292 16 0 0 0 58.695423
-4.5914493 -0.90325475 -1.6471424 330 0 0 0 95.266563
15.865136 2.1342816 2.8668358 38 0 0 0 48.744705
-11.870797 -21.917728 -5.7595448 10 0 0 0 82.767105
25.136362 -17.101511 0.88424158 7 0 0 0 62.250496
11.654361 3.4991038 -0.52863991 94 0 0 0 44.904961
-4.2065921 -4.954957 -2.5567803 282 0 0 0 87.693314
-33.949005 0.70635587 8.5709515 8 0 0 0 98.804222
26.780437 1.9660046 -1.3400469 13 0 0 0 46.876671
4.4804306 -33.537525 -3.0277789 9 0 0 0 71.13472
26.716972 -1.0804971 -0.86208886 29 0 0 0 51.805183
15.427192 3.0417948 -1.0067143 42 0 0 0 48.059902
3.5022335 10.789009 3.096426 26 0 0 0 30.898945
22.94142 -19.645887 -9.9944258 13 0 0 0 64.32077
13.703692 1.3125987 8.2076244 29 0 0 0 47.173634
-11.873031 5.3922181 1.8638029 80 0 0 0 7.857408
-5.039669 4.9172254 3.4463995 230 0 0 0 15.638784
-1.0147656 -25.653856 -2.1836987 21 0 0 0 73.892349
4.5407143 4.6490917 0.0070395954 657 0 0 0 36.829952
17.5443 2.7956593 -0.97093552 22 0 0 0 47.07328
4.9052892 4.305553 1.278877 484 0 0 0 37.820671
-37.321049 -18.981653 0.92447251 9 0 0 0 94.083328
-10.618663 4.0063243 11.168023 29 0 0 0 10.42176
-30.049133 9.2819452 7.2062368 7 0 0 0 5.8885121
11.421822 2.1176693 5.0364738 50 0 0 0 44.31488
-3.8895724 6.9705439 2.4446454 75 0 0 0 16.624895
-1.4008361 4.1638098 -0.69246453 345 0 0 0 21.150463
-9.3916836 5.7136707 1.0088067 37 0 0 0 11.296256
-12.315207 3.5676746 1.4613219 109 0 0 0 7.0702081
5.2195892 -33.2323 -3.678452 6 0 0 0 73.892349
10.937174 3.4515419 10.961316 20 0 0 0 43.240704
10.56979 3.905278 -1.5569125 97 0 0 0 44.028927
27.37677 -4.9976072 4.0547996 6 0 0 0 55.449856
24.390545 -18.85519 -3.3737013 23 0 0 0 61.754623
20.406794 -17.936344 -10.128025 5 0 0 0 62.937088
10.171306 2.4802628 7.459868 43 0 0 0 42.844673
18.687729 -32.550449 -9.2540455 9 0 0 0 64.912125
-9.6550007 3.9651735 0.56592417 81 0 0 0 5.6017919
24.425457 -16.913368 -2.0799284 23 0 0 0 62.447872
8.2520447 -1.2569307 -3.7546787 80 0 0 0 52.292606
8.2142115 0.19980389 -3.3660729 90 0 0 0 52.791553
26.09951 1.1915694 -5.3141303 22 0 0 0 47.465729
-12.004832 -6.6715169 -1.8721117 42 0 0 0 95.070206
-9.9812975 5.3586054 4.7050047 59 0 0 0 9.4366722
5.1375327 -31.405205 -9.6853552 14 0 0 0 72.225281
5.3780308 -7.5625982 -4.5540757 54 0 0 0 66.598145
-34.548027 -5.9455218 8.8171177 7 0 0 0 95.755264
5.734231 -32.495235 -5.6383882 21 0 0 0 75.176445
-5.3262982 -22.580439 -7.0389805 21 0 0 0 80.104195
8.3506765 4.1390891 -0.054131266 211 0 0 0 45.29792
-34.500397 -5.012403 7.2206264 26 0 0 0 0.39398399
23.604702 -25.452482 -3.2053943 16 0 0 0 61.26413
25.009609 -20.133312 -1.2760675 8 0 0 0 58.894081
15.047325 2.1468537 3.1435959 57 0 0 0 45.405697
-5.020031 -25.554956 -5.5252419 13 0 0 0 81.092354
-35.82703 -6.8862987 7.7937193 8 0 0 0 100.16743
25.921495 -13.685576 4.1442914 12 0 0 0 58.798336
23.713085 -9.6050501 -8.200202 11 0 0 0 59.192322
26.092607 -9.0908794 1.9928014 28 0 0 0 53.280514
-12.747429 -5.5357656 -1.386793 19 0 0 0 91.921661
23.647604 -13.388836 -7.862536 15 0 0 0 56.435711
-13.664657 -18.536503 -4.5688286 7 0 0 0 88.187645
26.920696 -1.8418558 0.72650725 28 0 0 0 50.62656
-31.797178 1.8182336 11.835517 11 0 0 0 0.78950399
-4.6690531 4.2177544 -0.15648399 170 0 0 0 12.780032
-2.4894066 -8.030652 -3.5692174 134 0 0 0 82.869247
7.9789453 -0.80957472 -3.5792134 76 0 0 0 51.503872
15.760996 -2.7327368 -5.3760715 22 0 0 0 52.595455
24.44689 2.0554552 1.2272823 39 0 0 0 46.582016
-3.0666273 4.4758282 5.3911219 77 0 0 0 17.607424
-37.029522 -2.1519992 11.334081 19 0 0 0 97.52269
26.972359 -1.5141969 0.74924278 20 0 0 0 50.427391
6.041647 3.8740261 2.4537916 269 0 0 0 39.980034
-4.7443924 4.2240043 6.0055466 75 0 0 0 15.83616
-5.3643389 -6.7611942 -2.8297663 158 0 0 0 85.523453
24.564758 -8.2819443 -5.8982053 38 0 0 0 53.379841
-5.2566137 1.6461366 -0.81533629 233 0 0 0 4.0322561
13.040805 -1.0779842 -4.4948788 11 0 0 0 52.791553
20.331642 -33.314835 -2.9346297 11 0 0 0 69.161987
24.60092 -19.823652 -1.586635 10 0 0 0 60.471809
1.5166165 3.8933344 -1.2269371 399 0 0 0 32.386559
22.874475 -21.890678 -9.3983507 16 0 0 0 60.374271
9.9011402 -3.8786762 -4.8147287 47 0 0 0 54.167809
20.333126 -30.718113 -2.7689548 9 0 0 0 68.566528
-36.234295 -1.254729 6.6536503 12 0 0 0 0.48767999
1.5307791 4.467639 -1.0397055 302 0 0 0 30.0224
-5.5100536 -9.2146654 -3.4791856 96 0 0 0 81.78688
3.4634566 -3.8815923 -3.4653893 67 0 0 0 61.360897
-35.148735 -2.8818676 5.8176475 11 0 0 0 1.274368
25.443859 1.4790547 7.3777223 19 0 0 0 48.257793
7.529778 -32.947262 -4.76264 6 0 0 0 69.655807
11.188228 -4.7739286 -5.291801 25 0 0 0 59.588608
5.2847676 3.6960447 3.9844706 4 0 0 0 37.225216
14.624108 3.3932319 -1.3009531 117 0 0 0 44.420609
12.793844 1.6728498 6.6701832 26 0 0 0 48.456192
11.197592 3.8291695 -1.6600218 94 0 0 0 44.420609
-3.6147895 -35.46608 1.5613674 5 0 0 0 78.041084
-9.3311348 -5.4201641 -2.0132887 84 0 0 0 94.772476
0.65304822 -31.190409 -8.0657806 22 0 0 0 76.066307
