# .PCD v0.7 - Point Cloud Data file format
VERSION 0.7
FIELDS x y z intensity normal_x normal_y normal_z curvature
SIZE 4 4 4 4 4 4 4 4
TYPE F F F F F F F F
COUNT 1 1 1 1 1 1 1 1
WIDTH 946
HEIGHT 1
VIEWPOINT 0 0 0 1 0 0 0
POINTS 946
DATA ascii
-12.175762 -34.660702 -6.3220663 7 0 0 0 80.295677
-9.6191902 -34.791046 -7.1309667 9 0 0 0 82.374908
9.5383968 6.6279621 1.3167381 19 0 0 0 39.792385
-9.1021023 -24.221283 -7.7967038 10 0 0 0 83.857918
-1.2622255 -21.183451 -14.510877 12 0 0 0 79.30291
3.6157279 -5.4031601 -5.5138516 161 0 0 0 69.111038
-8.5358992 -24.596912 -15.24677 15 0 0 0 81.880066
23.883717 -7.3976674 -7.7992849 20 0 0 0 52.896767
2.8511705 2.4372628 4.2708468 152 0 0 0 35.453697
-2.1284513 -35.87043 -9.0615587 10 0 0 0 79.01619
-3.7101574 -5.6658182 -5.0529256 120 0 0 0 87.707138
6.9017982 -0.10120343 -2.8553357 149 0 0 0 48.265217
14.91144 -27.285316 -15.590465 6 0 0 0 65.155838
-9.2533331 -5.7114663 -4.8304262 39 0 0 0 92.846596
-1.5119935 4.2128696 0.52315778 324 0 0 0 22.272768
-1.9342228 -33.334927 -10.772182 8 0 0 0 74.161919
25.166409 -4.4955735 -4.8262401 30 0 0 0 55.663616
15.914663 -19.427095 -14.471653 439 0 0 0 63.867905
21.324528 -15.070769 -9.804224 14 0 0 0 57.929214
22.439062 -11.942142 -8.3306484 29 0 0 0 57.535488
-34.130424 2.7163975 9.8887396 10 0 0 0 0.58803201
-12.541943 -1.9042958 -1.6623074 39 0 0 0 0
-0.80865896 3.6857097 4.2500033 252 0 0 0 21.196545
-10.009708 4.5927238 1.4807689 36 0 0 0 9.3048325
-15.957194 -3.9966412 0.62825948 81 0 0 0 96.194817
26.512541 -5.112668 0.60966599 11 0 0 0 54.184704
-8.5818834 4.4339356 7.4385185 57 0 0 0 7.3448958
-35.235672 -1.1858766 7.2336597 13 0 0 0 1.860864
3.6465805 -16.011684 -11.842058 3 0 0 0 71.199997
26.382122 -4.8985901 0.93739915 26 0 0 0 52.502785
3.2115042 3.3937974 -0.39769414 347 0 0 0 38.224384
-5.9977355 3.6642563 6.7193689 73 0 0 0 8.6272001
20.186331 -24.065819 -8.7880411 15 0 0 0 63.670784
-6.4212551 -22.278265 -11.727792 8 0 0 0 79.30291
-15.104285 -32.419102 -6.5168872 6 0 0 0 83.460861
22.924915 -9.7679062 -8.1162472 24 0 0 0 56.153343
-17.207481 -33.097164 -5.3675923 6 0 0 0 85.73056
-6.2098317 0.6218639 -1.3249724 220 0 0 0 2.1539841
2.7688596 2.6560905 -0.81892896 450 0 0 0 35.849472
-10.72386 -8.6093855 -6.3942122 34 0 0 0 92.548355
6.5692959 -2.9448769 -4.4742794 107 0 0 0 54.674686
-10.780151 10.559009 6.9930377 29 0 0 0 10.194944
-12.030746 6.639957 4.9231167 38 0 0 0 9.1079683
26.558796 -3.5954609 0.97484535 33 0 0 0 51.713791
-26.879002 12.996226 8.9540415 7 0 0 0 8.1274881
16.559574 0.87088442 -1.1147587 100 0 0 0 50.332417
4.0338364 2.4748755 3.5566885 304 0 0 0 43.931137
10.261709 1.009089 2.0177648 111 0 0 0 47.869438
-4.9050145 3.8756802 0.54957038 176 0 0 0 8.51968
11.5968 -0.083251774 3.2766898 91 0 0 0 51.119362
15.910562 -27.443718 -12.415176 7 0 0 0 66.443779
23.607653 -13.077988 -1.913642 28 0 0 0 57.731838
-11.266955 6.676527 4.3873773 45 0 0 0 6.3669758
23.912889 -1.0726414 -1.4079577 18 0 0 0 50.332417
-9.3294487 -22.50201 -9.0996027 15 0 0 0 79.500542
-57.006397 -5.2290645 4.9388781 6 0 0 0 98.659073
3.83494 -8.6773968 -7.2424603 44 0 0 0 71.794174
14.427694 -3.5877876 8.704072 20 0 0 0 53.094143
23.434196 -13.743633 -1.9396799 33 0 0 0 58.125568
14.113282 -3.7990029 -5.7182503 26 0 0 0 55.566078
-3.6462612 1.725467 -0.90472758 320 0 0 0 6.2681599
19.693136 -25.419783 -9.8912458 16 0 0 0 67.526909
6.3373895 -11.3431 -9.3660583 19 0 0 0 66.642174
-26.607672 13.30387 9.3449097 10 0 0 0 6.75456
14.432014 -1.605763 4.4542022 44 0 0 0 49.547009
-7.5110984 5.3445096 4.9095936 30 0 0 0 12.842496
18.168098 -3.6467865 6.0938544 15 0 0 0 54.184704
-10.76105 3.725996 1.4687206 154 0 0 0 7.7368321
22.682981 -14.995071 -4.379149 26 0 0 0 57.440769
18.717722 -27.208624 -12.564469 10 0 0 0 63.570431
-15.701803 -26.355663 -11.716627 20 0 0 0 83.460861
-16.968674 -24.496893 -13.091623 10 0 0 0 84.546303
19.88648 -27.6238 -6.8783855 11 0 0 0 68.030724
-5.4382353 -22.594002 -12.111938 14 0 0 0 80.295677
6.4274206 -0.49848747 -3.0728824 150 0 0 0 49.253887
21.640215 -19.181179 -5.0419531 24 0 0 0 61.292801
19.20175 -28.10915 -9.5538912 11 0 0 0 65.258751
1.3042015 4.1299438 2.8771014 16 0 0 0 29.25568
14.748551 -34.798813 -10.245422 8 0 0 0 66.840317
13.208273 0.19743463 1.8654379 60 0 0 0 49.253887
-7.1047277 2.7766249 0.08223711 146 0 0 0 5.196032
14.28012 -27.940815 -18.630714 7 0 0 0 69.020927
19.37768 -21.921322 -14.940876 8 0 0 0 63.273983
-10.39823 -0.034645904 -1.2856762 67 0 0 0 0.48307201
0.58270574 -8.5109329 -4.874649 161 0 0 0 73.666817
-34.623909 -0.66681248 12.510328 15 0 0 0 98.165756
11.725116 -2.6327882 -4.8885918 39 0 0 0 56.549377
15.786554 -28.004436 -11.70327 14 0 0 0 69.902596
-2.3151898 3.7492259 0.281858 266 0 0 0 18.927361
-15.32934 -27.599777 -9.458848 33 0 0 0 86.234627
-34.782852 -0.36287451 11.2465 6 0 0 0 0.78464001
-7.5926275 4.4905109 6.1433496 51 0 0 0 8.2327042
8.7405252 -4.9815025 -6.0938349 34 0 0 0 61.490177
-16.460129 -27.220226 -9.5142679 16 0 0 0 86.828285
14.76315 -2.4808838 -4.9708443 20 0 0 0 53.98912
26.242851 -4.7549782 -1.3741167 15 0 0 0 50.921726
9.9892645 -1.1216208 9.5077095 17 0 0 0 48.660736
-14.063162 2.7259359 2.7729883 6 0 0 0 2.3495679
20.355862 -17.92322 -13.80071 9 0 0 0 61.292801
9.7890711 -0.49404094 7.2839322 50 0 0 0 49.844479
-5.0684352 -25.240025 -11.200256 6 0 0 0 76.337921
24.932209 -13.180654 3.2064841 9 0 0 0 58.917377
-5.6723466 1.2725424 -0.97490466 185 0 0 0 5.7812481
-18.84515 -13.156529 -6.738008 24 0 0 0 93.527809
-7.1274652 3.8647542 6.9479194 36 0 0 0 7.7368321
-10.39536 -8.8417463 -6.5930419 32 0 0 0 87.024384
-1.3282424 -19.004267 -13.456444 7 0 0 0 74.062592
22.529858 -25.313307 -2.2135835 10 0 0 0 61.591808
16.960304 -1.6701823 3.4251354 82 0 0 0 49.451519
3.244729 2.2457533 4.4535346 121 0 0 0 37.037056
13.653228 -30.820669 -18.441454 7 0 0 0 71.596542
15.603516 -1.2283137 2.942977 32 0 0 0 50.724609
18.433372 -30.467463 -8.570179 15 0 0 0 67.723778
26.725092 -7.4910393 5.7932973 24 0 0 0 57.045761
24.607843 -7.6458907 -4.2713585 28 0 0 0 54.478336
-11.991137 -23.582344 -13.690662 13 0 0 0 84.05658
2.0233998 5.1437473 4.0590386 38 0 0 0 30.23616
-12.421917 -5.8748474 -4.5283566 34 0 0 0 94.617599
-0.48554331 4.4088116 0.5808084 306 0 0 0 24.438017
12.878433 -1.6013457 -4.2880921 36 0 0 0 53.29229
16.674723 -29.261089 -9.1143885 7 0 0 0 64.959229
-9.1226482 -3.1807947 -3.3157969 79 0 0 0 97.969666
-4.9985061 2.4510291 -0.31052589 240 0 0 0 9.6985598
-3.7779603 1.4730697 -1.0397141 375 0 0 0 8.3223038
-3.0498838 5.2644148 3.2869473 241 0 0 0 14.61376
20.533297 -25.79393 -5.4610291 15 0 0 0 62.477055
9.571414 -2.2515333 -4.4053349 42 0 0 0 55.069183
19.654295 -29.17606 -8.0319262 12 0 0 0 65.352448
7.964345 -14.06421 -11.466132 8 0 0 0 64.760063
4.5518465 3.3395197 -0.52321893 197 0 0 0 41.071617
-8.0592747 6.4694905 2.4426665 29 0 0 0 8.6272001
23.302837 -14.249033 -1.9598604 19 0 0 0 58.430721
-10.348534 -11.663106 -8.2829723 15 0 0 0 89.878784
-31.6968 5.4706001 14.157093 8 0 0 0 5.4819841
23.041725 -14.938507 -2.6481385 19 0 0 0 61.988609
-29.157763 10.964389 9.5882549 5 0 0 0 5.0900478
-11.51764 -29.950975 -7.9620471 11 0 0 0 83.953156
-2.7253284 4.3644347 0.70646143 280 0 0 0 15.687168
19.045565 -24.701883 -13.683139 14 0 0 0 62.676991
8.6013041 0.93209684 -2.3115227 81 0 0 0 49.547009
23.311365 -10.867558 -5.3802791 29 0 0 0 55.069183
-11.059134 -2.4222429 -2.6614132 56 0 0 0 99.835907
-9.8882141 -6.7050619 -5.3182364 35 0 0 0 92.155396
-6.4531302 5.9397407 2.9001551 138 0 0 0 11.370752
-11.738201 -23.134377 -14.449305 9 0 0 0 80.597763
-11.348572 -27.064928 -9.3317261 9 0 0 0 79.60704
24.579197 -7.3610911 -6.2541447 11 0 0 0 57.535488
21.745577 -16.83193 -8.3777361 7 0 0 0 63.472385
22.451811 -13.792229 -9.4455795 8 0 0 0 61.791233
-10.438225 -18.92944 -12.249217 12 0 0 0 82.868225
8.1097565 0.56500435 -2.5108798 94 0 0 0 48.560127
-15.696205 -31.653032 -6.8906999 12 0 0 0 85.439743
-13.595755 -7.4405727 -5.367065 20 0 0 0 95.301117
14.015065 -34.184174 -13.459462 15 0 0 0 71.885056
-8.3429594 -20.619093 -13.467486 17 0 0 0 84.452095
16.021065 1.0983531 -2.9008324 25 0 0 0 51.713791
14.730889 -30.657055 -12.966399 11 0 0 0 66.048767
-5.8424358 -24.376987 -10.891294 8 0 0 0 76.931839
-15.377625 -31.495337 -6.8382907 6 0 0 0 85.336319
17.514421 1.052547 -2.2839563 17 0 0 0 51.819519
1.1151707 3.8130524 3.5317662 147 0 0 0 30.721792
17.695505 -2.8268933 -5.505692 20 0 0 0 50.635777
-2.7927284 -29.455559 -14.172103 13 0 0 0 79.699455
-17.276157 -7.2408538 -1.5937595 168 0 0 0 96.883453
22.794807 -10.129746 -8.4730959 18 0 0 0 58.035969
12.067329 1.3300821 0.40663794 93 0 0 0 49.350655
-32.134609 7.9922743 9.9419594 7 0 0 0 3.235584
-26.557421 13.138902 9.7709589 11 0 0 0 5.0900478
21.382132 -21.509069 -3.7872481 14 0 0 0 62.279938
-9.2650385 -23.385113 -14.709317 10 0 0 0 82.57254
23.023342 -15.487863 -2.3368068 23 0 0 0 60.696575
-14.439888 -5.8695979 -4.2865686 16 0 0 0 95.496964
-3.1090701 4.5520253 4.0027008 179 0 0 0 15.202048
-4.8673038 -34.704193 -8.8060932 9 0 0 0 80.295677
17.053249 -5.0938144 8.7317972 29 0 0 0 57.339394
3.0514801 4.5038967 0.36710891 224 0 0 0 35.552769
-11.454262 5.8096747 3.7323837 73 0 0 0 10.091776
15.627299 -0.56161749 -3.8961968 18 0 0 0 48.660736
9.5988483 -4.0339313 -5.5738025 34 0 0 0 59.510017
-9.9225121 -24.368206 -14.983298 7 0 0 0 80.995583
-2.2620153 4.0717864 4.3553958 188 0 0 0 14.809344
8.738946 -0.91690153 -3.5361104 68 0 0 0 54.674686
25.193737 -11.876781 1.1206387 12 0 0 0 55.069183
-10.573469 4.3515682 2.0834372 114 0 0 0 8.7155199
-4.102406 2.3181062 -0.4721221 358 0 0 0 10.679808
-12.81747 2.9585474 1.2723784 47 0 0 0 2.8413441
-5.8525133 -5.0076122 -4.4008808 144 0 0 0 90.376961
8.7774868 2.4651194 0.81852496 224 0 0 0 46.688511
-2.5208495 4.3857484 0.69975448 268 0 0 0 16.276224
-58.843552 -9.8867455 5.880475 5 0 0 0 95.894012
-1.6586682 -3.9201005 -4.1248655 230 0 0 0 80.995583
-1.3610455 4.9811301 2.1938469 522 0 0 0 18.732544
15.135994 -25.39608 -17.078794 9 0 0 0 66.24691
19.823158 -25.876795 -8.7917395 13 0 0 0 62.778881
22.486996 -14.047997 -5.9057312 13 0 0 0 58.628098
-9.8224716 3.2837272 9.6565409 12 0 0 0 4.9989119
23.702723 -14.795313 0.39480948 21 0 0 0 60.101631
-7.5834274 -23.78331 -8.9231567 15 0 0 0 83.066109
15.715921 -30.806862 -8.8119116 12 0 0 0 70.500351
-4.602766 -24.133125 -12.198915 12 0 0 0 76.141312
9.3398848 0.51492429 3.6063645 83 0 0 0 51.713791
24.317007 -8.6980362 -4.627358 17 0 0 0 56.747009
-16.722246 -32.178326 -6.1633224 7 0 0 0 82.57254
13.59134 1.1687416 -2.6249125 30 0 0 0 46.688511
-9.2129459 -8.9596834 -6.8031273 24 0 0 0 91.068413
20.352764 -23.372183 -8.6646719 23 0 0 0 63.372799
20.908117 -19.709421 -7.6929431 14 0 0 0 60.211201
16.133123 -30.436136 -7.5176783 11 0 0 0 65.456383
-16.218946 -26.115473 -11.732076 17 0 0 0 83.755524
25.408844 -8.3968258 0.19817315 32 0 0 0 57.836544
-9.3456602 -7.6689858 -5.9653168 31 0 0 0 88.994049
22.694738 -12.319593 -6.7909727 19 0 0 0 56.060162
26.445036 -8.357234 5.3711576 24 0 0 0 52.808704
15.543195 -1.6750362 3.9568851 31 0 0 0 49.547009
-4.5094504 -1.1473607 -2.6166656 7 0 0 0 97.773056
-16.189585 -2.5646441 -0.56198072 35 0 0 0 100.71347
6.6600871 2.3206654 2.316746 263 0 0 0 42.357506
25.818714 -10.21446 4.3027573 24 0 0 0 58.719231
-12.875035 2.2198906 1.5526488 68 0 0 0 5.0900478
-10.679001 -11.387692 -7.9827862 17 0 0 0 88.602371
13.811196 -32.501423 -15.920166 10 0 0 0 68.425468
9.9366808 -1.3481964 10.529581 17 0 0 0 48.85939
-3.3171866 -3.5133076 -3.7488723 291 0 0 0 86.828285
25.811165 -8.3874798 1.8596454 21 0 0 0 56.153343
7.1208506 3.047291 -0.89988315 102 0 0 0 46.29248
-5.2058883 -1.6135268 -2.8298082 18 0 0 0 98.659073
-11.728946 7.2577047 3.6806552 38 0 0 0 8.2327042
-9.4541006 -32.757294 -8.5012016 6 0 0 0 82.57254
14.908941 -32.436626 -11.014863 5 0 0 0 71.199997
-15.390159 -1.0752881 0.073463202 32 0 0 0 1.074688
-4.4635277 -27.797319 -15.260848 7 0 0 0 80.796928
-3.2945349 4.0215826 5.1298656 136 0 0 0 13.916672
14.793362 -30.527277 -13.287182 13 0 0 0 67.634689
-35.253468 -1.9130778 7.9483099 9 0 0 0 100.82381
25.04591 -30.074436 -1.5369509 7 0 0 0 65.258751
-17.928963 -10.647525 -6.093286 31 0 0 0 94.708733
-8.6283121 4.4215212 6.9465661 49 0 0 0 5.4819841
7.7380872 1.5182111 5.9842296 7 0 0 0 45.896446
22.859993 -11.160619 -7.6566219 32 0 0 0 60.211201
24.966177 -12.583829 2.1414175 21 0 0 0 57.045761
13.825152 -2.3538158 -4.8838058 34 0 0 0 55.663616
-13.477099 4.2223334 3.3788688 20 0 0 0 5.7812481
26.497332 -7.0526543 2.9533899 4 0 0 0 56.847874
2.8393018 2.8903625 3.4531946 301 0 0 0 40.185345
-5.8177099 -8.76266 -6.6403322 48 0 0 0 84.150787
23.719469 -5.0782061 -6.7791076 24 0 0 0 54.674686
-4.6072059 -30.83148 -11.227866 6 0 0 0 80.493309
30.635752 -8.3868876 10.002431 6 0 0 0 56.945663
23.192423 -10.762965 -5.9475846 38 0 0 0 58.234623
21.447184 -21.848505 -4.5815916 9 0 0 0 65.549057
-7.6427107 6.4154944 2.7421679 130 0 0 0 10.589696
21.439917 -23.594147 -3.1850965 14 0 0 0 66.144508
3.0750606 -25.669277 -17.142477 13 0 0 0 74.658813
25.471292 -11.350425 3.5431552 19 0 0 0 56.255745
-1.4881251 5.2287745 1.8206517 541 0 0 0 21.782528
11.928968 -2.5366457 7.8122621 33 0 0 0 54.283009
5.0120988 5.5293164 1.5770704 95 0 0 0 37.72467
-17.902594 -10.566766 -5.7604632 28 0 0 0 93.135612
-3.8578894 -4.0336957 -3.9929709 249 0 0 0 88.798721
4.2216148 6.0245023 1.2109016 31 0 0 0 35.748352
18.974182 -23.454567 -14.531167 8 0 0 0 67.329536
4.6519327 5.434629 1.9948661 22 0 0 0 35.651329
6.1829014 1.5818228 3.9204636 191 0 0 0 45.108734
14.490367 -32.384922 -12.924969 9 0 0 0 71.397629
18.504244 -25.025896 -15.577689 8 0 0 0 62.97728
-32.270966 3.3718157 11.732137 11 0 0 0 100.12441
-6.6580987 -21.546745 -11.154902 15 0 0 0 77.92128
-15.146612 -29.0037 -8.6040211 5 0 0 0 80.995583
29.390663 -20.35198 -8.95786 13 0 0 0 62.582272
-7.0587621 0.27108893 -1.4489031 168 0 0 0 100.71347
10.016656 -1.0016524 9.5294666 6 0 0 0 48.463104
-8.1044693 5.274621 5.4044123 31 0 0 0 8.8232956
-7.9655843 4.2307134 7.3968005 15 0 0 0 11.269888
-1.2012275 -28.742807 -15.639756 12 0 0 0 78.906364
10.053219 -0.97331184 9.0017109 45 0 0 0 52.411648
-5.8291893 -9.0190125 -6.7834868 43 0 0 0 83.953156
7.3343539 2.4349697 -1.3143442 113 0 0 0 47.671551
-7.029511 -15.011786 -10.547414 17 0 0 0 81.782532
14.382741 -29.696342 -15.930533 7 0 0 0 71.002625
15.379499 -32.726299 -8.712615 8 0 0 0 69.418755
14.071854 -0.35543755 2.8724432 46 0 0 0 48.265217
3.4135823 3.5902658 3.0395942 65 0 0 0 39.792385
16.47262 -29.539219 -8.6143284 14 0 0 0 69.902596
9.9453373 -3.6662633 -5.2857008 38 0 0 0 55.368191
23.874725 -1.1050512 0.054810353 37 0 0 0 48.757248
-8.4003992 4.4142084 1.1942713 82 0 0 0 5.4819841
-9.757781 -0.8976472 -1.8860023 75 0 0 0 0.58803201
23.445421 -8.6504536 -8.1084042 21 0 0 0 55.368191
-12.920784 -24.650919 -12.279635 17 0 0 0 82.57254
-8.025178 4.4014339 1.162014 63 0 0 0 5.7812481
-35.235428 -1.5452243 9.0566883 12 0 0 0 1.761536
14.544971 -30.010698 -15.029921 7 0 0 0 67.634689
23.09502 -17.073988 -2.7989135 4 0 0 0 62.97728
-32.989452 3.1380682 12.82649 6 0 0 0 2.5448959
5.3179955 -19.463829 -14.326751 6 0 0 0 68.71347
23.746883 -15.189259 1.0572407 12 0 0 0 57.14304
-3.8492887 -25.437677 -12.297307 6 0 0 0 80.597763
-10.9022 -24.258032 -13.394559 10 0 0 0 81.584641
4.9318972 5.3149815 1.2592934 96 0 0 0 36.340736
-14.550396 -21.560505 -12.253835 10 0 0 0 87.707138
-3.3016026 4.4265571 4.3235807 164 0 0 0 16.37888
26.054945 -7.2415981 2.2011883 30 0 0 0 53.886974
-37.141663 -3.3806574 6.4843373 8 0 0 0 100.23091
26.789082 -6.0865607 2.985064 9 0 0 0 56.255745
11.094311 -3.2354324 9.1587057 27 0 0 0 55.465984
-14.859805 0.91058058 3.3226435 28 0 0 0 1.860864
25.243469 -29.935966 -1.5358182 5 0 0 0 65.155838
-31.99715 5.7132649 11.922712 19 0 0 0 0.58803201
-11.871511 -26.907825 -9.3436375 7 0 0 0 79.899391
24.058794 -12.631367 -1.2328479 23 0 0 0 60.498177
-3.5573239 5.0743537 1.2303095 117 0 0 0 13.236736
23.7099 -15.245928 0.065719046 12 0 0 0 61.88493
-14.782044 0.22527006 4.6515818 19 0 0 0 2.8413441
15.056824 -27.526419 -15.143337 14 0 0 0 70.209534
6.4431105 3.0998209 1.7851434 195 0 0 0 43.838463
4.2807827 9.3957939 4.8924818 17 0 0 0 29.451008
7.8411922 2.0172451 -1.589749 105 0 0 0 45.612034
19.285955 -26.893785 -10.188993 8 0 0 0 68.121857
-3.8592348 -29.159748 -14.074766 8 0 0 0 80.295677
-17.709146 -24.540712 -13.705703 14 0 0 0 86.521599
-20.004946 -15.527629 -8.8426085 16 0 0 0 92.744446
13.712224 -1.9875304 5.5673552 36 0 0 0 51.621376
21.266577 -13.400587 -11.521829 14 0 0 0 60.40704
21.95417 -21.387342 -1.1635706 9 0 0 0 63.570431
13.65727 -4.8376656 -6.340199 17 0 0 0 55.172096
23.080078 -16.817762 -0.69211149 15 0 0 0 59.706879
5.8718877 -22.33917 -15.87676 8 0 0 0 74.260735
-14.517901 1.1090676 1.2627 38 0 0 0 0.39244801
11.766211 0.50862724 -2.8941784 30 0 0 0 47.379456
27.875048 -8.7811022 6.3935318 8 0 0 0 55.956478
-15.057927 -3.6533551 -1.1009643 10 0 0 0 97.869827
-8.2722244 -28.913876 -11.608827 18 0 0 0 79.30291
25.470861 -10.03757 1.8354185 26 0 0 0 57.14304
25.011885 -7.461741 -2.7124732 36 0 0 0 52.699905
9.3866243 -5.8999138 -6.7290201 27 0 0 0 62.187263
14.084249 1.3210992 -0.23415937 196 0 0 0 49.64864
24.613844 -8.1653862 -3.668442 26 0 0 0 57.929214
-6.7746859 -26.808212 -16.242149 9 0 0 0 80.493309
-21.158649 -18.20846 -10.223613 15 0 0 0 87.024384
-9.4495411 -12.870558 -8.9948568 21 0 0 0 84.943359
-13.772817 -31.514212 -7.6386204 7 0 0 0 81.482498
15.891892 -0.41258356 1.4254131 64 0 0 0 49.941761
24.610224 -13.765236 1.8085798 15 0 0 0 59.312126
10.52983 -6.3701768 -7.0026093 20 0 0 0 58.430721
-6.7765408 -21.805418 -12.312637 11 0 0 0 83.066109
25.920567 -0.6612215 -3.4612827 8 0 0 0 53.202431
-10.812137 5.3680992 6.4539185 35 0 0 0 8.6272001
-7.493197 2.1908603 -0.24383548 106 0 0 0 2.1539841
22.214766 -13.704203 -6.8951812 16 0 0 0 56.945663
25.992006 -4.0927539 -1.6365902 15 0 0 0 52.108288
13.364129 -3.3355837 -5.3799677 30 0 0 0 55.267326
-10.629154 -5.2994242 -4.4092436 31 0 0 0 92.647934
-4.993257 -22.872093 -12.656307 13 0 0 0 81.680893
10.40212 -5.5657115 -6.5596905 28 0 0 0 55.862015
-11.338841 6.5525522 3.6722419 51 0 0 0 6.1706238
19.590771 -27.556269 -8.1220608 7 0 0 0 66.542084
-8.7886343 -21.413628 -9.9980736 7 0 0 0 79.41069
25.098944 -5.8286204 -3.5861518 36 0 0 0 56.453888
11.238968 -4.0432463 10.015611 12 0 0 0 52.610306
12.131327 -2.0996916 6.684381 34 0 0 0 50.23872
21.184755 -16.30368 -9.6302328 11 0 0 0 63.472385
-22.263319 -20.775188 -11.496319 18 0 0 0 88.011261
20.479612 -19.142477 -11.7569 17 0 0 0 65.059326
2.9498398 -3.7219675 -4.4668536 95 0 0 0 67.923714
-8.4223471 5.0313082 5.8293242 51 0 0 0 11.665408
19.009169 -24.13623 -14.239584 8 0 0 0 65.851395
-11.022902 4.4335566 8.6597824 64 0 0 0 9.4108162
-2.9292936 -31.463266 -11.402288 8 0 0 0 79.60704
0.95771968 3.8954785 2.7772558 289 0 0 0 26.496256
-7.0432153 -35.274326 -7.7195535 8 0 0 0 76.443901
9.6247072 0.99574852 6.0540047 8 0 0 0 45.699329
-18.77935 -12.405764 -6.9416881 23 0 0 0 89.089279
23.873638 -10.408177 -4.7072959 22 0 0 0 57.836544
24.427034 -10.908615 -1.8477858 23 0 0 0 56.352257
9.6195087 -1.2653866 7.4261608 36 0 0 0 49.253887
-8.814517 5.1828985 1.6808037 50 0 0 0 7.83744
24.6509 -10.11368 -1.8215041 25 0 0 0 55.862015
12.731836 -2.5791817 -4.8670421 20 0 0 0 52.896767
20.249289 -23.89419 -8.4312048 17 0 0 0 61.988609
21.476984 -22.070961 -5.06599 15 0 0 0 60.895233
7.810339 0.52334327 -2.5274212 137 0 0 0 50.23872
-7.6823792 -8.5539494 -6.4405785 42 0 0 0 86.521599
19.458534 -23.860477 -12.444625 14 0 0 0 65.549057
11.754288 0.12417658 2.862179 72 0 0 0 49.253887
19.432554 -24.131649 -12.524989 13 0 0 0 65.654785
24.551037 -7.4426537 -4.5653186 26 0 0 0 55.956478
10.282448 0.81982595 2.4090836 96 0 0 0 49.744385
-0.29025751 -33.854816 -10.939769 7 0 0 0 73.373184
4.5806103 9.9672556 3.7142439 19 0 0 0 31.224064
16.713547 -0.73949212 1.4879315 43 0 0 0 50.23872
-9.2189646 -24.178215 -8.5028524 9 0 0 0 80.6912
23.032387 -13.044642 -5.8735795 23 0 0 0 57.929214
-8.3535404 -34.17263 -7.8950553 7 0 0 0 78.708733
-35.115181 -2.3019021 8.8712111 21 0 0 0 97.475327
-12.231505 4.2258816 2.1480203 64 0 0 0 3.038208
22.967485 -17.330872 -1.7966158 4 0 0 0 58.430721
19.215263 -24.843189 -13.226754 5 0 0 0 67.634689
22.971466 -11.475941 -6.3588152 23 0 0 0 60.298496
-10.001301 -3.9752591 -3.7019298 51 0 0 0 97.277443
5.456883 1.4552774 4.6021423 84 0 0 0 48.560127
-5.9834337 -2.0556791 -2.9971969 8 0 0 0 93.042946
2.4338114 5.8594327 1.2668275 9 0 0 0 29.153025
-8.5443707 3.0484998 0.40143216 100 0 0 0 6.2681599
19.843348 -19.534584 -14.613169 8 0 0 0 63.867905
-7.0843086 -33.167488 -9.0481768 8 0 0 0 76.642052
22.692358 -16.017231 -4.7947865 9 0 0 0 59.510017
14.942527 -3.8573794 8.5995579 31 0 0 0 56.747009
21.494381 -21.970881 -3.0586579 22 0 0 0 65.549057
-5.4475093 3.3412759 0.28635105 217 0 0 0 11.269888
-8.924366 -6.1925888 -5.2201538 34 0 0 0 88.602371
14.982373 -32.073902 -10.922482 13 0 0 0 71.095299
5.4634948 1.9896913 3.6088319 195 0 0 0 43.536129
21.017244 -21.784992 -8.8243876 19 0 0 0 64.167679
16.993269 -0.40698728 0.68926167 48 0 0 0 49.941761
19.388149 -20.70215 -15.460845 12 0 0 0 66.24691
10.849741 0.41717905 2.820271 89 0 0 0 47.184128
-1.2260104 -34.608406 -10.084977 10 0 0 0 77.040382
-35.210632 -1.6126853 7.2027659 9 0 0 0 1.664256
-2.8398817 -5.7749424 -4.8135004 58 0 0 0 85.73056
-13.678907 -23.840908 -13.798914 6 0 0 0 83.166977
18.132727 -30.864025 -6.7738266 7 0 0 0 67.923714
17.107309 -1.1108228 1.9555289 36 0 0 0 53.689602
20.506769 -25.099689 -6.1000004 12 0 0 0 65.456383
-32.037056 3.7025483 15.468077 11 0 0 0 100.23091
22.512844 -10.568508 -9.5120163 11 0 0 0 56.747009
10.79544 1.642863 1.058805 34 0 0 0 47.08173
-12.328807 3.7625644 2.110465 71 0 0 0 2.4468479
5.6268201 0.80546153 -2.2329426 221 0 0 0 50.724609
7.2578797 1.3737608 3.6799016 155 0 0 0 44.51968
12.216236 -0.53913879 3.788466 67 0 0 0 48.463104
23.256897 -13.408847 -3.9115191 35 0 0 0 61.197056
-4.229033 5.4093976 2.5215096 269 0 0 0 17.261568
23.032093 -15.624599 -5.9184332 5 0 0 0 57.639423
-6.7512808 -25.649748 -7.6443667 10 0 0 0 80.597763
-3.0445924 -30.418493 -11.872546 19 0 0 0 76.443901
-17.469278 -8.2847395 -0.017866574 16 0 0 0 91.464706
14.024957 -28.536137 -18.381165 14 0 0 0 67.526909
-11.244907 2.995085 11.15164 7 0 0 0 2.055424
-19.703749 -14.706673 -7.8683028 23 0 0 0 89.782784
14.432042 -5.9361339 -7.0784826 15 0 0 0 57.639423
2.1075912 5.6598454 3.1545687 128 0 0 0 30.040577
-13.87493 1.7114769 1.6168587 40 0 0 0 4.3056641
4.0877166 8.7878056 6.1313009 17 0 0 0 32.892929
21.397917 -14.426542 -9.9576073 19 0 0 0 59.221504
-28.513929 12.695727 8.9526463 9 0 0 0 9.2149763
-6.9641228 5.4585166 4.0565591 100 0 0 0 8.51968
-32.226021 4.9495573 13.627246 7 0 0 0 0
11.502504 -0.83593154 5.0551305 87 0 0 0 53.792255
20.467611 -22.122019 -9.7283468 12 0 0 0 61.292801
-35.52763 -0.60273689 8.4483767 9 0 0 0 99.835907
-11.260772 0.21153542 -1.0710517 43 0 0 0 98.855682
25.8109 -7.8695216 1.5544116 30 0 0 0 57.440769
1.4455931 -11.005088 -8.4602652 82 0 0 0 76.337921
20.463087 -24.710264 -6.4665871 16 0 0 0 66.935806
-24.357149 -15.594317 -4.7039065 42 0 0 0 90.969597
-17.027699 -10.368875 -6.1337757 16 0 0 0 89.682175
16.692848 -2.4591646 -5.17559 20 0 0 0 50.437119
24.221045 -10.961326 -2.8538561 19 0 0 0 54.872318
9.4643679 6.6511636 1.7403604 23 0 0 0 41.269249
22.700407 -11.791572 -8.0978699 14 0 0 0 55.76115
3.9945095 -0.65129942 -3.0090342 193 0 0 0 55.956478
-11.879431 -4.965107 -4.0619397 43 0 0 0 93.725182
-1.6129587 -30.651611 -12.355444 20 0 0 0 77.328644
-45.750351 -26.611443 -8.0423517 6 0 0 0 90.076927
6.4930024 1.5243899 4.442596 24 0 0 0 47.184128
26.447374 -7.9255629 4.3354168 13 0 0 0 57.339394
14.430779 -0.71723199 2.934834 75 0 0 0 48.660736
-9.8339472 4.6959291 7.1754136 41 0 0 0 10.28736
-17.379772 -8.0855045 -1.1742277 22 0 0 0 93.135612
26.628984 -4.6566768 2.274915 29 0 0 0 52.305664
-34.062229 2.4425676 10.44591 5 0 0 0 99.639297
-10.640041 4.4076123 1.8009582 113 0 0 0 5.586432
-9.1803207 -3.4646842 -3.5177832 71 0 0 0 92.647934
-4.6735501 -5.4037762 -4.7628131 149 0 0 0 89.782784
14.014458 -32.78027 -15.048227 7 0 0 0 71.687424
5.4306297 2.9711733 2.5921862 70 0 0 0 42.949375
22.754759 -16.476992 -5.5765948 12 0 0 0 62.876671
-17.204821 -6.3534026 -3.6617765 6 0 0 0 92.846596
24.445532 -7.9004545 -6.6386952 14 0 0 0 53.094143
13.025653 1.9066706 -1.168828 83 0 0 0 45.699329
3.9082026 -7.1215358 -6.4001613 34 0 0 0 64.860413
-7.1008191 -22.218836 -10.105107 9 0 0 0 78.118141
-7.008009 4.3805013 5.9797001 60 0 0 0 6.8554239
19.373207 -27.169754 -9.7746162 9 0 0 0 66.542084
-1.7429849 -33.894432 -10.377542 4 0 0 0 78.906364
23.074045 -19.349133 0.70844162 5 0 0 0 60.803841
21.370119 -16.643057 -8.9687939 20 0 0 0 60.298496
7.7466755 -6.7863421 -6.7835512 20 0 0 0 62.97728
-3.7555125 -26.609367 -11.223537 7 0 0 0 80.399872
20.655184 -25.992626 -4.5814333 16 0 0 0 65.654785
-31.979799 6.6572232 8.9410591 14 0 0 0 5.7812481
-17.511116 -25.818024 -11.562059 14 0 0 0 82.770432
23.934315 -12.753895 -1.233453 23 0 0 0 60.605183
1.9302855 -25.431725 -16.899679 6 0 0 0 75.348221
6.3667388 3.4108038 0.54221082 395 0 0 0 40.082943
10.056751 -1.0906432 9.2417336 28 0 0 0 50.635777
-4.0733914 0.70979482 -1.4880775 10 0 0 0 3.3262081
-13.191687 -22.245199 -13.854328 16 0 0 0 86.828285
-12.186921 -2.5607042 -2.5954001 51 0 0 0 96.785149
3.5043013 2.6140566 3.6022296 263 0 0 0 36.933887
-43.077152 -19.683577 -7.14081 7 0 0 0 91.663361
-9.1017723 4.8382311 6.3956881 46 0 0 0 7.4439678
25.16098 -3.7072828 -5.4033132 31 0 0 0 52.017151
-4.6635613 5.2354364 3.1517415 179 0 0 0 13.038848
-34.912773 3.1075816 4.3278189 6 0 0 0 2.1539841
26.380232 -8.4814358 4.9878049 24 0 0 0 54.478336
-13.609332 -4.0484095 -3.3533287 22 0 0 0 98.659073
-3.8329606 -7.4036865 -5.8875432 29 0 0 0 82.374908
26.207262 -1.6968869 -2.2217283 26 0 0 0 53.792255
-36.017822 -0.67792684 3.5872209 5 0 0 0 98.265091
20.455557 -19.358335 -11.813948 15 0 0 0 65.155838
-34.451469 -1.8911846 1.3087932 9 0 0 0 99.248131
-7.2612062 -8.7744551 -6.5654454 46 0 0 0 87.616508
-13.318627 2.6934636 2.1385257 32 0 0 0 0.8768
9.8660488 -3.043952 10.725749 15 0 0 0 51.514111
19.410013 -29.626373 -6.2746572 8 0 0 0 65.549057
-12.182759 -0.65743536 -1.4561816 63 0 0 0 100.82381
17.739353 -25.380716 -16.921236 8 0 0 0 68.517632
21.476269 -22.97299 -3.9392684 14 0 0 0 62.778881
-4.5748677 4.6795483 4.080461 148 0 0 0 14.11328
22.781385 -13.062426 -6.155962 18 0 0 0 59.617023
-7.6178422 0.29270604 -1.3856204 150 0 0 0 2.7402239
2.8134243 3.9627318 1.580241 807 0 0 0 35.849472
25.776226 -5.1618462 -1.3680079 23 0 0 0 51.22765
10.735633 -57.347897 -22.855597 6 0 0 0 71.885056
26.762306 -6.7762594 3.6293163 14 0 0 0 53.491199
-1.3985887 -28.163366 -16.645563 16 0 0 0 77.328644
9.6302719 -0.3528429 6.8599801 64 0 0 0 53.29229
11.208457 -3.8802154 9.9534969 19 0 0 0 52.411648
21.955498 -17.408413 -5.1994338 18 0 0 0 61.988609
-10.272016 -25.945648 -15.593785 11 0 0 0 79.104515
-24.025496 -15.143224 -5.7584596 1183 0 0 0 89.485054
10.160213 -6.44526 -7.0451193 18 0 0 0 60.498177
21.411806 -16.464487 -8.9405737 29 0 0 0 60.211201
10.93613 1.9624851 0.54110134 138 0 0 0 46.688511
-33.484886 4.8564301 8.5454912 11 0 0 0 100.82381
4.8195024 2.6939266 -0.95663565 214 0 0 0 39.886337
2.1247871 4.6038117 0.50296575 293 0 0 0 29.843712
12.782958 2.1320753 -1.9439573 37 0 0 0 46.985985
-33.524715 4.8330059 8.1524496 7 0 0 0 1.5654401
-14.607826 -26.897488 -11.397592 18 0 0 0 81.191681
6.6661868 -1.0874054 -3.4242058 125 0 0 0 53.98912
-4.8043823 -6.2968245 -5.2946229 106 0 0 0 88.798721
20.622002 -13.701749 -12.251498 8 0 0 0 57.440769
-34.39764 2.108413 9.9084129 5 0 0 0 0.285696
-36.431633 -3.2194238 7.365818 12 0 0 0 0.978432
19.256344 -23.438461 -13.296385 11 0 0 0 62.187263
13.582444 -0.060660612 2.0918317 63 0 0 0 47.97184
24.438864 -5.3921032 7.1727624 21 0 0 0 52.896767
19.391489 -26.843826 -9.6985188 17 0 0 0 66.443779
22.627728 -20.026546 0.34771931 14 0 0 0 62.778881
14.668261 -0.4060533 2.0462587 57 0 0 0 49.941761
14.593478 -31.087875 -13.452967 9 0 0 0 67.832832
-9.8542414 -14.516729 -9.9016027 16 0 0 0 84.347389
-5.9888821 -31.562441 -10.313347 5 0 0 0 76.244225
10.337018 2.4179981 -0.50431955 143 0 0 0 45.896446
-3.4511981 2.0092626 -0.72903311 495 0 0 0 9.3048325
25.024057 -6.2993317 -3.6036563 30 0 0 0 56.747009
19.540161 -26.210051 -10.060918 8 0 0 0 67.832832
-8.7390223 2.0022438 -0.20800643 85 0 0 0 5.8736639
17.412148 -18.342775 -14.265153 116 0 0 0 60.999424
1.0693287 -31.514095 -12.7223 5 0 0 0 75.94445
-13.045688 -1.0222661 -0.27882352 87 0 0 0 100.42777
16.784254 -19.478207 -14.810668 20 0 0 0 63.472385
12.30279 -2.3361042 -4.6859307 29 0 0 0 52.699905
11.634198 -4.1196871 -5.8067346 39 0 0 0 58.521088
-4.7164507 4.9217796 3.7052333 168 0 0 0 15.883264
23.920372 -8.3510084 -6.8401389 41 0 0 0 55.069183
3.292419 0.96667504 -1.9771614 332 0 0 0 48.660736
19.737223 -23.956896 -11.783035 12 0 0 0 62.187263
-15.580906 -32.89233 -6.2048197 6 0 0 0 81.979645
15.741899 -30.982975 -8.3704453 16 0 0 0 68.912125
16.117607 -2.2747974 -4.9885592 16 0 0 0 50.332417
-8.8668547 0.81222552 -0.92755181 95 0 0 0 0.48307201
2.5174251 3.1453507 3.2633798 378 0 0 0 34.862335
14.75178 -30.607964 -13.777537 8 0 0 0 69.308159
5.8329511 3.2121775 2.2372458 113 0 0 0 39.690239
12.756194 -3.4374356 8.9704323 19 0 0 0 51.514111
7.036478 2.0646107 2.5730436 217 0 0 0 46.396416
-10.407585 3.3092597 9.9067926 14 0 0 0 6.6603522
20.5347 -19.393456 -11.373069 7 0 0 0 63.472385
-16.815651 -27.552816 -8.7816458 6 0 0 0 83.659264
12.99924 -1.033584 -3.9640205 28 0 0 0 49.350655
25.897774 -8.0592899 2.1855881 27 0 0 0 54.382336
1.9612242 -3.6715159 -4.358634 130 0 0 0 70.897919
-7.4711547 -24.812551 -8.2725935 6 0 0 0 77.92128
6.3882875 -1.9887147 -4.0073957 103 0 0 0 58.035969
24.834948 -8.0782328 -2.7311032 32 0 0 0 53.094143
-34.777775 -2.2819214 0.89911962 5 0 0 0 100.62797
14.217964 -0.3230345 2.1791229 50 0 0 0 48.265217
-35.687332 0.8929556 5.6402783 6 0 0 0 2.7402239
21.286953 -14.090043 -10.638014 8 0 0 0 62.384384
23.58798 -16.196951 1.7875595 10 0 0 0 60.803841
-7.3713236 3.2309701 8.7303619 30 0 0 0 4.5020161
22.615265 -15.785011 -3.7043061 16 0 0 0 60.999424
-8.6754456 -5.7098417 -4.9850621 33 0 0 0 88.994049
3.0845542 4.5210075 1.0694873 170 0 0 0 32.405502
-0.63492703 4.9880986 0.971596 201 0 0 0 22.567425
-6.2042713 2.2216289 -0.33029735 188 0 0 0 6.2681599
24.03174 -11.059386 -3.4633644 30 0 0 0 58.125568
24.418985 -10.513358 -2.8423305 20 0 0 0 54.579967
15.089073 -4.4480114 9.5192118 20 0 0 0 52.017151
-3.5948224 4.9668727 3.5595303 239 0 0 0 14.70464
-36.679688 -4.9670973 9.2664614 9 0 0 0 0.285696
-7.8561931 -25.03425 -7.9264994 17 0 0 0 82.969086
11.866755 -1.9065065 6.5328741 33 0 0 0 50.041344
14.192268 -35.649586 -11.271972 8 0 0 0 70.407166
20.098061 -19.106869 -14.127357 15 0 0 0 61.88493
-16.607849 -14.303482 -8.9151506 22 0 0 0 91.956482
14.66601 -26.238207 -17.842085 5 0 0 0 68.425468
-16.037754 -26.348373 -11.456136 15 0 0 0 81.979645
18.702015 -24.115343 -16.665291 11 0 0 0 67.723778
-16.137421 -3.6882856 -0.57163811 4 0 0 0 99.639297
-32.834782 2.0133011 14.209419 7 0 0 0 3.7168641
0.53807658 3.8163171 1.2151639 73 0 0 0 25.222656
8.025713 -3.2473161 -4.8822136 69 0 0 0 55.862015
-10.876723 4.7725925 7.5697317 33 0 0 0 4.5020161
3.6841061 0.14028171 -2.4961183 271 0 0 0 47.279102
20.460394 -21.669476 -10.330853 19 0 0 0 64.365059
25.419445 -3.4410117 -4.4529285 24 0 0 0 53.399296
19.557255 -25.135466 -10.64971 9 0 0 0 64.264191
-5.2978411 -11.306114 -8.1381922 28 0 0 0 83.559166
20.907124 -24.983452 -3.7472761 10 0 0 0 62.082561
-13.179602 1.4016594 1.1785717 86 0 0 0 0.8768
-0.10407986 -8.7359343 -4.9853539 52 0 0 0 74.950401
-12.242657 -30.588718 -6.0246663 12 0 0 0 82.57254
7.4452229 -5.037631 -5.7410784 31 0 0 0 59.221504
16.25522 0.70265657 -3.1616535 18 0 0 0 47.379456
14.940864 -31.324677 -11.6468 12 0 0 0 67.723778
-12.297168 -18.5874 -11.913168 24 0 0 0 87.616508
-5.2748265 -5.9970021 -5.0075717 136 0 0 0 86.321411
-4.1477914 -30.13208 -11.798724 31 0 0 0 77.040382
-8.9916954 -27.66655 -8.0127239 7 0 0 0 79.899391
-8.2875061 6.3324184 3.2547896 104 0 0 0 11.468544
21.605793 -18.935709 -5.3517342 27 0 0 0 62.778881
15.754629 -27.309093 -12.775148 14 0 0 0 68.121857
20.552282 -23.594875 -7.4899259 10 0 0 0 64.959229
-4.0329595 5.6686282 1.9912205 168 0 0 0 14.70464
-10.620202 5.1432681 6.7373891 26 0 0 0 5.0900478
-3.998662 -23.901907 -15.570471 9 0 0 0 77.434364
14.359622 -3.1542175 8.2141218 7 0 0 0 56.153343
4.5989828 2.0283182 4.0549841 175 0 0 0 40.476929
-7.2595692 -3.0691659 -3.475358 63 0 0 0 95.301117
5.4327374 -0.91232401 -3.2730308 167 0 0 0 55.862015
9.9230471 -3.991816 -5.5075521 35 0 0 0 57.535488
-14.77156 -8.0878429 -3.3841341 49 0 0 0 90.472191
-9.944809 5.5157824 5.7981243 40 0 0 0 5.9755521
-10.269389 -11.431864 -8.1610632 24 0 0 0 89.981949
2.7069609 -10.002607 -8.5132961 10 0 0 0 72.384254
13.763289 -33.327843 -15.220434 12 0 0 0 71.885056
0.16544633 -31.499071 -12.271024 13 0 0 0 74.752258
5.1772437 -9.9259434 -8.2700977 18 0 0 0 68.912125
11.629707 -4.0407186 9.9755192 13 0 0 0 54.382336
9.8905315 -3.4889348 10.484763 10 0 0 0 54.283009
-2.2793903 4.9058442 3.8576105 78 0 0 0 19.518208
-16.021494 -26.030693 -12.084224 17 0 0 0 85.336319
-1.5365775 -30.166672 -13.525591 13 0 0 0 75.648254
10.13551 1.2583021 1.6315048 133 0 0 0 45.896446
15.773304 -2.7891133 5.7641745 22 0 0 0 50.53056
11.621015 -3.7303562 -5.503376 36 0 0 0 56.352257
-1.3256055 -28.382101 -16.33379 17 0 0 0 75.547134
-9.6113577 -25.858873 -7.9113569 16 0 0 0 82.177025
21.931623 -6.007596 -7.3216853 22 0 0 0 53.98912
5.0403385 1.9751823 3.9048593 144 0 0 0 41.269249
-16.586788 -26.556427 -10.609377 14 0 0 0 85.439743
12.632344 -1.0032359 4.4043612 54 0 0 0 50.635777
-16.918264 -32.582478 -5.8583479 5 0 0 0 80.995583
5.2186089 6.8722711 2.6479754 15 0 0 0 37.920258
-13.324053 -24.67687 -12.36808 5 0 0 0 82.770432
23.419737 -9.4944887 -6.8537874 23 0 0 0 55.862015
9.7327604 0.93597972 2.4195032 104 0 0 0 47.869438
9.9268007 -0.5745976 5.255559 50 0 0 0 50.136318
3.4047756 -9.5740566 -7.7582645 62 0 0 0 72.975868
-17.795849 -7.2590213 -0.95531482 24 0 0 0 92.351746
-17.464279 -5.9665871 -3.6809714 7 0 0 0 93.2416
20.232653 -26.007183 -7.9046278 19 0 0 0 65.851395
25.120024 -11.900014 2.1441259 15 0 0 0 56.652031
20.391516 -19.986732 -11.504329 9 0 0 0 63.769089
10.785602 2.6100416 -1.0737617 133 0 0 0 45.807617
-10.827909 -24.048502 -8.9813051 10 0 0 0 83.263229
-9.3812113 -5.4847932 -4.6701956 55 0 0 0 91.560188
-9.7494497 2.9438996 10.239194 23 0 0 0 6.5610242
24.497154 -10.593038 -2.1515441 22 0 0 0 57.731838
17.346531 -26.060854 -15.099953 6 0 0 0 68.82074
10.468579 -1.1005676 -3.7891548 48 0 0 0 49.744385
6.8096242 -3.359601 -4.7284126 115 0 0 0 55.267326
-6.742106 -5.6191049 -4.7830434 89 0 0 0 87.116035
-8.8055162 -12.239349 -8.7280645 19 0 0 0 86.521599
20.727961 -22.568056 -7.7585588 20 0 0 0 66.144508
2.4127777 -25.488274 -16.969381 12 0 0 0 75.054588
-6.7829394 4.8546729 1.3087298 96 0 0 0 10.875648
13.481275 -30.114185 -20.299307 8 0 0 0 71.596542
13.880738 -33.818348 -14.324553 7 0 0 0 68.622337
-2.9152799 -36.528152 -8.2933836 6 0 0 0 76.141312
26.727043 -6.4309525 4.3559093 27 0 0 0 56.453888
20.998749 -19.284298 -9.4765291 16 0 0 0 61.591808
27.96171 -8.4793434 6.7648449 23 0 0 0 54.184704
-8.6617317 1.4585167 -0.54955804 92 0 0 0 3.3262081
-4.171474 -23.649405 -14.63363 21 0 0 0 81.085953
15.760982 -2.062887 4.4105382 52 0 0 0 53.094143
14.798148 0.45050874 0.44822389 72 0 0 0 50.635777
14.697532 -1.2610041 -4.2853818 23 0 0 0 54.283009
24.517923 -4.2114406 6.5760751 15 0 0 0 55.368191
2.4594798 4.8779893 4.146317 39 0 0 0 29.843712
19.40361 -24.463102 -11.858954 16 0 0 0 62.477055
24.745272 -7.5394378 -3.6440871 18 0 0 0 57.535488
-7.6616516 -23.18841 -9.1500673 6 0 0 0 78.314499
20.872889 -20.625233 -10.622878 11 0 0 0 65.456383
-7.4568491 6.3640289 2.3324978 38 0 0 0 9.1079683
23.990959 -0.75017035 0.65861797 13 0 0 0 51.621376
22.137318 -18.688618 -3.2665336 15 0 0 0 59.312126
-13.200062 -23.992786 -13.464288 6 0 0 0 81.191681
8.631773 2.3912106 -1.4150956 85 0 0 0 46.885376
-16.49851 -26.268885 -10.988592 9 0 0 0 87.116035
23.923262 -2.0269091 1.2056732 45 0 0 0 49.350655
-32.126484 4.505023 10.485353 21 0 0 0 4.8025599
20.381245 -24.29068 -7.5956497 18 0 0 0 65.258751
-4.1961551 -24.63483 -11.937084 6 0 0 0 80.888321
-14.496376 -26.143347 -12.871766 15 0 0 0 81.284607
21.686422 -13.59471 -10.654704 11 0 0 0 61.988609
2.3877399 3.1044431 3.3651612 331 0 0 0 38.312447
2.4203815 3.4525149 2.7635148 544 0 0 0 33.980415
8.7360735 1.4967934 -2.0182807 94 0 0 0 50.136318
-0.6571359 -7.3441482 -6.4190903 7 0 0 0 74.161919
24.056807 -10.702381 -3.782553 19 0 0 0 59.510017
-35.461716 -0.79223633 8.9474173 6 0 0 0 98.165756
17.076488 -1.3053148 2.3537202 36 0 0 0 50.724609
-7.6415081 4.3329153 6.4959459 47 0 0 0 11.565056
19.467672 -24.683254 -11.419329 15 0 0 0 67.436798
-13.311126 4.4559932 3.7624807 7 0 0 0 2.9352961
15.226132 -30.244751 -11.80483 13 0 0 0 69.020927
21.403572 -15.233403 -8.6783218 16 0 0 0 59.617023
-0.72806734 5.0267053 2.7948892 183 0 0 0 20.608513
-34.116673 0.63159382 12.647457 8 0 0 0 2.9352961
-10.508595 -2.6094408 -2.8150015 65 0 0 0 96.194817
-8.7923698 -11.909468 -8.565032 16 0 0 0 86.720001
25.89772 -7.1426592 1.1992474 31 0 0 0 52.305664
16.665998 -30.042641 -7.8570375 5 0 0 0 66.738174
-6.1825404 5.7546215 3.0413423 153 0 0 0 14.70464
-6.2892823 -6.1617918 -5.0476627 99 0 0 0 89.287933
24.807634 -9.6136904 -2.8205836 13 0 0 0 53.98912
-4.4539661 -6.5619984 -5.4826527 107 0 0 0 82.473724
22.556347 -12.567184 -7.0756383 27 0 0 0 57.836544
23.471779 -12.050257 -3.4775395 21 0 0 0 58.826241
17.494993 -2.6851628 4.7014084 30 0 0 0 55.069183
27.271513 -15.793535 -12.125119 9 0 0 0 58.125568
22.123163 -5.2451091 -7.0440454 29 0 0 0 51.819519
-21.1765 -18.62525 -9.8740568 11 0 0 0 91.759361
-3.9363868 -28.504913 -15.051862 13 0 0 0 78.708733
19.975962 -19.183144 -14.529629 7 0 0 0 63.670784
14.176231 -3.4172256 -5.4834652 21 0 0 0 53.491199
22.897911 -15.354539 -3.0560277 18 0 0 0 57.535488
-28.595055 12.031777 10.112586 4 0 0 0 4.1087999
2.7478518 4.3902068 0.87462223 825 0 0 0 34.960129
-10.271163 -9.5405674 -6.9390955 38 0 0 0 88.011261
-31.681631 4.9727416 12.555961 15 0 0 0 3.520256
23.959215 -2.4735024 1.1953988 12 0 0 0 49.64864
-15.348547 -27.10367 -10.573921 13 0 0 0 84.743935
-8.8068361 -6.6153817 -5.4232812 42 0 0 0 89.682175
-5.2733293 -32.949795 -9.6709919 8 0 0 0 79.01619
20.678362 -18.621378 -11.66372 29 0 0 0 64.760063
0.53657496 -4.472816 -4.3574944 37 0 0 0 70.699005
-1.0035797 -21.280426 -14.571642 14 0 0 0 79.104515
9.0519171 -0.88810235 -3.501673 73 0 0 0 52.896767
24.819239 -6.0273356 -4.8633881 36 0 0 0 56.652031
-13.270982 -7.0530014 -5.2012515 21 0 0 0 95.496964
3.880811 -6.9928093 -6.4028625 41 0 0 0 66.642174
-15.029532 -30.27232 -7.8786488 7 0 0 0 83.857918
-4.6384983 -25.410526 -13.48973 17 0 0 0 79.41069
25.755894 -1.3885419 -4.778708 14 0 0 0 53.689602
-6.8929262 4.043077 6.5805368 43 0 0 0 11.958272
24.618851 -5.0026941 -6.6877251 36 0 0 0 52.896767
-4.9154611 -34.225883 -9.2541771 14 0 0 0 75.547134
21.850655 -21.522385 -0.80994099 7 0 0 0 62.082561
23.950598 -1.8816547 1.2111275 27 0 0 0 49.253887
24.895491 -10.419939 -0.20973307 25 0 0 0 54.382336
-0.25137854 -35.984486 -9.6843719 7 0 0 0 73.373184
25.906664 -9.8848381 4.3048034 19 0 0 0 58.521088
21.268536 -16.98937 -9.0189581 22 0 0 0 60.498177
14.613788 -34.976418 -10.66891 9 0 0 0 68.517632
4.8705125 5.3943119 0.90029907 71 0 0 0 36.143871
23.706232 0.70897526 -2.2313175 36 0 0 0 47.577343
4.8838096 5.0596704 1.3201592 118 0 0 0 35.058689
-0.44490343 -29.516769 -14.735272 15 0 0 0 73.373184
-7.7628722 -7.5980463 -5.9481688 65 0 0 0 85.837311
2.0261109 -29.480701 -16.704592 7 0 0 0 71.990013
24.369783 -12.216312 -0.89820319 14 0 0 0 58.628098
11.823071 -5.3745131 -6.5091972 20 0 0 0 56.549377
15.036757 -32.415279 -10.493896 13 0 0 0 69.50528
2.8477039 3.7165532 -0.14857353 341 0 0 0 36.538368
11.099617 -0.58343601 -3.4903381 45 0 0 0 50.53056
25.387663 -5.5772347 -2.6476336 45 0 0 0 51.514111
-5.1540575 -30.607065 -11.171587 9 0 0 0 80.796928
-19.448153 -18.296741 -10.444932 8 0 0 0 89.584129
-11.590821 5.3455806 3.5108027 70 0 0 0 4.6973438
-28.90864 11.858681 9.258153 6 0 0 0 7.1487999
19.859955 -22.307976 -12.058631 18 0 0 0 64.860413
12.570527 0.50152522 1.6324558 76 0 0 0 50.437119
22.46793 -18.535988 -2.1607039 23 0 0 0 60.696575
25.988617 -2.0634944 -4.4833417 51 0 0 0 52.502785
23.422447 -12.572318 -3.189183 28 0 0 0 57.535488
-13.88515 -30.388247 -8.263936 10 0 0 0 84.943359
-6.1861763 1.3255225 -0.90484917 206 0 0 0 2.4468479
21.333401 -22.602907 -2.7138011 19 0 0 0 64.264191
-20.101713 -25.472229 -14.677162 61 0 0 0 87.222527
-32.109505 6.588851 11.096215 14 0 0 0 4.2155519
17.166162 0.4836174 -0.95876795 51 0 0 0 49.153023
-11.052233 2.9143379 0.71689463 84 0 0 0 1.761536
19.978262 -28.205582 -5.2207141 11 0 0 0 68.121857
-14.429274 -26.641703 -12.003641 21 0 0 0 84.452095
5.9529734 3.5112562 -0.4978669 121 0 0 0 39.495167
13.155348 -4.1088529 -5.8585677 24 0 0 0 52.896767
19.751226 -21.273254 -13.961972 8 0 0 0 66.24691
-4.8432674 -5.0547304 -4.4953551 179 0 0 0 88.798721
3.6352513 -26.130665 -17.056913 12 0 0 0 72.582146
-16.411551 -25.379684 -12.974064 19 0 0 0 82.374908
-8.7978106 -24.315901 -7.7960715 5 0 0 0 83.659264
-4.6016426 -24.961405 -10.168062 17 0 0 0 79.41069
12.643478 -0.5414477 -3.6551337 32 0 0 0 53.594879
4.2167721 -6.0855169 -5.9211369 54 0 0 0 65.059326
-11.769618 -24.228622 -12.751251 8 0 0 0 85.439743
13.143113 -0.44156492 -3.5892239 33 0 0 0 51.819519
-3.5559449 -30.687725 -11.674069 10 0 0 0 75.054588
12.204298 0.79663652 1.3042103 78 0 0 0 46.885376
-11.230909 -7.4392967 -5.6644201 24 0 0 0 88.994049
-8.6056175 4.5412593 6.7390661 46 0 0 0 7.4439678
24.46162 -5.7597203 -6.7124953 31 0 0 0 53.399296
15.961298 -4.5055513 8.9193888 13 0 0 0 51.910912
16.764565 -1.6260011 3.6177325 34 0 0 0 54.184704
-11.093686 -8.5591755 -6.2571588 22 0 0 0 91.166206
-10.857248 0.33753884 -1.0313412 68 0 0 0 99.052544
-36.968914 -3.6097012 7.4235854 8 0 0 0 96.983299
4.208282 9.6224661 4.4748344 25 0 0 0 34.176254
-1.095775 6.5465469 1.9568278 23 0 0 0 21.87904
-13.305091 4.1324577 4.2436981 5 0 0 0 4.2155519
-8.8691483 5.997776 4.6640792 184 0 0 0 9.0188799
9.1839266 3.0140908 -0.90275013 136 0 0 0 44.51968
-14.720567 -0.49656641 5.9283247 15 0 0 0 99.537918
-34.209366 2.8671553 9.118083 8 0 0 0 3.822336
-13.868653 -18.237566 -11.441831 18 0 0 0 85.241341
-14.575216 -8.0808029 -5.2903337 47 0 0 0 91.956482
26.622593 -4.3557715 3.2856071 11 0 0 0 53.689602
-10.218859 -22.381378 -11.209747 13 0 0 0 83.364349
-8.4345961 4.7232766 6.2350888 57 0 0 0 6.0718079
-10.818661 -4.4046736 -3.8368952 44 0 0 0 95.496964
-5.5156512 0.5578928 -1.4520663 62 0 0 0 2.1539841
-34.542183 2.8541074 8.1967602 14 0 0 0 0.58803201
-14.788424 -7.0344033 -4.762033 43 0 0 0 96.194817
14.816216 -32.765659 -11.095897 8 0 0 0 71.292419
0.88141966 -29.574116 -15.537926 16 0 0 0 76.045311
18.212393 -25.614573 -15.736025 5 0 0 0 63.273983
24.215117 -11.191109 -2.5033088 28 0 0 0 59.706879
6.5018668 2.6960721 -1.0738746 135 0 0 0 44.915455
-8.0218811 6.2196798 3.3110702 122 0 0 0 9.9993601
21.334475 -24.339794 -2.8391695 6 0 0 0 64.860413
-11.130879 2.6290743 1.1145672 96 0 0 0 2.9352961
27.712225 -9.3363771 6.7457089 17 0 0 0 54.674686
16.388802 0.98292255 -1.5162179 38 0 0 0 47.08173
-5.2320185 -31.842962 -10.369899 13 0 0 0 75.846397
-5.442709 -23.13019 -10.900327 16 0 0 0 80.201729
26.314802 -2.4681251 -1.2922693 27 0 0 0 49.547009
4.9969888 4.4957972 2.4844408 62 0 0 0 39.297279
1.1124777 5.1878653 1.0873345 307 0 0 0 26.298368
10.577332 -2.0870852 7.5888448 37 0 0 0 55.862015
4.2481327 8.9346285 5.7492719 18 0 0 0 31.31008
4.9661727 3.4849069 1.2431531 225 0 0 0 41.269249
11.228121 -6.6433277 -7.2714133 19 0 0 0 56.549377
-58.97773 -9.8370495 5.1386323 5 0 0 0 97.475327
22.545025 -15.763466 -4.0477347 17 0 0 0 62.582272
25.604223 -2.9863808 -4.461112 20 0 0 0 53.094143
-8.5708361 5.4575496 5.8875175 36 0 0 0 6.9521918
5.1047974 5.0472803 2.5732751 36 0 0 0 40.185345
21.60833 -16.680565 -7.2657032 23 0 0 0 58.628098
22.525074 -3.012723 -6.0000372 7 0 0 0 51.819519
20.204082 -22.712738 -9.8199739 18 0 0 0 61.591808
-12.213106 7.0772223 4.143034 46 0 0 0 10.978048
-2.8341789 -34.913971 -9.3998423 5 0 0 0 74.556419
-11.149297 3.1197703 1.4516943 68 0 0 0 6.75456
23.303753 -13.066973 -3.2153268 21 0 0 0 57.836544
-20.845129 -17.885054 -9.6110296 9 0 0 0 91.956482
-15.884503 -32.013378 -6.4997625 10 0 0 0 83.857918
13.016861 1.858905 -2.1521618 34 0 0 0 48.952831
22.260975 -18.445328 -2.8397081 19 0 0 0 63.867905
21.574066 -23.163536 -3.1586814 10 0 0 0 65.946114
-10.145246 4.3653612 1.3360542 36 0 0 0 4.2155519
-12.816284 -3.8420663 -3.3483388 28 0 0 0 93.832703
16.139132 -25.957203 -14.746039 7 0 0 0 69.308159
-33.401318 2.0406361 12.50759 5 0 0 0 3.6275201
22.687881 -16.034698 -3.0921566 33 0 0 0 57.929214
4.9602242 3.2770438 1.6047714 454 0 0 0 40.082943
24.970366 -8.8294754 -1.4787549 28 0 0 0 53.491199
-6.1332688 -24.51976 -10.512818 20 0 0 0 82.079231
21.415306 -22.412296 -2.7045686 10 0 0 0 64.167679
25.127707 -12.703516 3.5460932 13 0 0 0 57.045761
-3.9957528 5.4108686 1.4816991 121 0 0 0 15.988736
25.669662 -4.863236 -1.9621371 38 0 0 0 54.184704
25.381784 -9.2363596 0.82391512 29 0 0 0 55.172096
-8.049015 5.9509711 3.6643322 79 0 0 0 11.269888
20.730604 -25.43177 -4.9393125 13 0 0 0 67.040512
-29.147604 11.486851 8.4787407 8 0 0 0 3.7168641
-5.7902627 -24.042793 -11.004119 11 0 0 0 78.620926
-35.311821 -1.2620344 6.5905113 5 0 0 0 99.537918
8.9575901 2.8038969 -0.41660216 193 0 0 0 44.717823
11.155704 1.5788789 -2.1400323 47 0 0 0 45.807617
5.0959806 -7.2975659 -6.7906399 74 0 0 0 68.71347
20.423605 -19.587591 -12.359083 8 0 0 0 60.298496
6.5019126 -14.687938 -11.593257 7 0 0 0 68.121857
21.172327 -17.059883 -9.3737822 19 0 0 0 62.187263
23.51252 -8.5108967 -8.1093216 24 0 0 0 55.267326
15.728078 -3.2755847 -5.6163492 25 0 0 0 56.255745
-6.8501277 -19.892263 -13.210634 15 0 0 0 78.314499
3.81652 -23.083849 -16.066475 18 0 0 0 75.745789
-9.3344955 5.1921248 1.740845 56 0 0 0 7.4439678
-9.7225552 6.1115408 2.3308213 34 0 0 0 9.8941441
20.512569 -17.373896 -11.712387 23 0 0 0 59.312126
18.562304 -15.454377 -13.120289 5 0 0 0 64.264191
2.5004318 4.990911 4.0842209 35 0 0 0 31.618816
-33.701435 3.5075102 9.8448381 14 0 0 0 0.978432
20.756889 -18.12081 -9.9515343 22 0 0 0 64.462845
-10.324461 3.5368476 0.87239528 47 0 0 0 7.6398082
-9.1652985 -11.710509 -8.3650503 17 0 0 0 85.439743
16.091379 1.4808159 -2.0875986 51 0 0 0 51.315712
5.9202013 3.7799923 -0.32384798 171 0 0 0 42.061569
25.007425 -5.7896724 -4.2037363 32 0 0 0 53.29229
-4.9418888 -24.350954 -11.411662 14 0 0 0 79.699455
18.423672 -29.64056 -9.8044453 6 0 0 0 65.946114
20.516794 -26.480354 -4.6260705 12 0 0 0 65.851395
-2.4746635 5.5171232 1.4514227 120 0 0 0 17.849089
24.77684 -4.411181 -6.4054227 22 0 0 0 50.921726
-8.9345465 -0.52941757 -1.7481316 90 0 0 0 97.577988
17.900311 -28.920359 -10.483658 7 0 0 0 69.220612
-6.6344686 -24.101877 -9.9844294 17 0 0 0 80.796928
-4.8302855 -30.204828 -11.542185 12 0 0 0 75.745789
9.4541626 -3.2244265 -4.9725099 46 0 0 0 54.974464
21.575418 -13.387766 -11.27088 6 0 0 0 58.628098
-10.837555 0.78395295 -0.75782859 55 0 0 0 1.761536
-27.729565 10.095545 9.5270977 5 0 0 0 3.3262081
-6.3999801 -1.3210928 -2.4848721 86 0 0 0 98.462463
14.736601 -34.626102 -9.0698519 7 0 0 0 70.010628
12.98829 -3.365634 8.7991123 22 0 0 0 53.202431
14.88082 -32.604488 -10.52529 8 0 0 0 69.617149
-34.384735 3.0533202 8.7169371 9 0 0 0 99.929085
-10.082042 -21.354471 -9.364028 18 0 0 0 83.559166
-5.9241323 -26.75705 -8.3122158 11 0 0 0 81.584641
20.449905 -9.5585346 -9.7014875 21 0 0 0 55.069183
-4.5238161 -25.174963 -13.853091 15 0 0 0 81.085953
