# .PCD v0.7 - Point Cloud Data file format
VERSION 0.7
FIELDS x y z intensity normal_x normal_y normal_z curvature
SIZE 4 4 4 4 4 4 4 4
TYPE F F F F F F F F
COUNT 1 1 1 1 1 1 1 1
WIDTH 947
HEIGHT 1
VIEWPOINT 0 0 0 1 0 0 0
POINTS 947
DATA ascii
21.916685 -8.5645485 -7.2798276 31 0 0 0 53.110783
27.964334 -8.6272192 6.5401125 13 0 0 0 54.869503
23.37137 -9.3772888 -7.4410257 21 0 0 0 58.084095
13.128798 -1.2720133 -4.0691185 30 0 0 0 50.284801
-15.358354 -25.932848 -12.456273 8 0 0 0 85.799423
25.731022 -10.767441 4.0339189 23 0 0 0 53.307392
19.526627 -28.280792 -8.2498198 17 0 0 0 65.815811
7.0713387 2.6752942 -1.3637187 117 0 0 0 42.887936
2.186166 -30.706327 -14.289257 19 0 0 0 74.429184
9.8739891 -0.6976698 -3.4667506 50 0 0 0 48.245247
24.631073 -6.5545788 -5.6981502 33 0 0 0 54.479359
-13.293216 -34.032501 -4.1054692 4 0 0 0 78.341888
2.59217 -33.170574 -10.244826 10 0 0 0 75.893761
-6.3736668 -7.9560814 -5.4129071 68 0 0 0 88.143875
-7.6352029 3.7113097 0.5394783 99 0 0 0 5.6396799
-11.645883 -8.8135281 -5.480648 25 0 0 0 88.732414
-10.296917 -25.196692 -12.471089 12 0 0 0 81.778435
23.250244 -12.192446 -5.4326668 26 0 0 0 54.869503
-4.1001825 -5.9874072 -4.5704179 107 0 0 0 83.444481
-6.9828539 -8.5356503 -5.6469288 61 0 0 0 86.583549
-18.729618 -13.769807 -6.4913898 21 0 0 0 90.606079
15.536709 -31.140902 -9.8010883 13 0 0 0 66.492157
25.152945 -6.6335602 -3.1751544 36 0 0 0 54.384384
8.2283039 -5.0632248 -5.4499297 22 0 0 0 57.603584
24.625843 -13.704087 2.2182074 16 0 0 0 56.717823
9.7833881 1.5461557 5.8190413 12 0 0 0 49.117695
-16.534117 -32.074841 -4.3811574 7 0 0 0 81.582336
-11.365067 5.806232 6.4754772 30 0 0 0 4.6632962
-13.762845 3.0482616 2.3465915 23 0 0 0 5.0536962
27.101528 -5.1873302 4.8650517 19 0 0 0 53.110783
20.016199 -27.845036 -6.9160242 5 0 0 0 67.081215
-5.0259838 -25.736917 -7.0347276 15 0 0 0 75.408386
-10.048217 -5.8597794 -4.2119412 42 0 0 0 89.032448
15.668733 0.44140774 0.39362186 29 0 0 0 51.265537
5.6172705 1.8524579 4.5335956 18 0 0 0 44.733185
-9.7188063 4.5747967 7.8582621 44 0 0 0 9.6322556
4.0110488 -2.0679061 -3.4669549 30 0 0 0 54.479359
14.003676 -0.4736841 -3.7241666 33 0 0 0 50.872833
13.563859 -3.388442 10.344788 21 0 0 0 51.946495
14.615214 -28.898081 -16.261553 11 0 0 0 64.733437
-15.08252 -10.89502 -5.4584928 13 0 0 0 92.367874
22.972507 -18.865955 0.75745469 10 0 0 0 59.651329
19.583593 -26.998857 -9.3433037 10 0 0 0 63.857407
14.984971 -29.057961 -15.195698 13 0 0 0 67.962364
-4.1409512 -27.275673 -9.5393 9 0 0 0 77.948669
30.445669 -12.595782 7.6669278 17 0 0 0 54.774784
-5.3294373 4.3353462 5.6505942 76 0 0 0 8.1692162
1.2188001 -36.223095 -7.9242444 8 0 0 0 71.784958
-5.1005497 0.39196232 -1.5191525 149 0 0 0 98.833664
-6.560812 5.6287503 3.6289425 129 0 0 0 13.329664
17.139006 -26.509398 -13.870437 9 0 0 0 63.071487
22.890326 -12.006264 -7.3151517 41 0 0 0 58.084095
3.6405244 -27.031542 -15.474156 12 0 0 0 70.025475
8.2614021 -3.8209651 -4.9893346 56 0 0 0 53.995522
21.497334 -20.409447 -7.0245566 29 0 0 0 62.483967
12.021162 1.7390072 -2.3373811 29 0 0 0 46.395393
6.5378594 -9.0289936 -7.1705785 28 0 0 0 63.857407
-3.7891123 5.6120052 2.3750305 205 0 0 0 14.301952
15.331383 -33.408482 -8.0528431 7 0 0 0 65.423874
7.6950374 0.82621676 -2.4130886 96 0 0 0 48.637184
-32.395157 4.1284413 11.057096 8 0 0 0 0.58086401
-8.9546556 -1.1541942 -1.8683604 113 0 0 0 97.172737
4.8947272 -2.6083899 -3.8256092 50 0 0 0 54.774784
12.531338 -2.9794233 9.1314116 22 0 0 0 55.454975
17.191053 -1.5838013 3.8192525 45 0 0 0 53.110783
11.667451 -2.9032612 9.9045362 11 0 0 0 51.850754
-15.181511 -28.214527 -7.4976149 28 0 0 0 83.444481
2.3685398 -4.674696 -4.5710549 186 0 0 0 64.34304
-11.98891 -7.8320026 -4.9722834 30 0 0 0 93.145348
25.168205 -9.9260035 -1.7350775 11 0 0 0 54.674946
9.4910917 -6.4907827 -6.5119243 19 0 0 0 58.383617
28.073326 -8.0972052 7.3514242 22 0 0 0 51.360767
20.453363 -27.560778 -4.7316947 10 0 0 0 65.228287
18.579874 -0.49173853 -4.2586179 22 0 0 0 52.336128
-31.632324 4.4503241 11.857423 24 0 0 0 4.0796161
11.839011 0.10179122 3.6108146 72 0 0 0 48.245247
-4.1513815 -25.31624 -13.071344 7 0 0 0 76.482559
-6.2219415 -1.8168157 -2.5769749 112 0 0 0 97.951233
-6.1110497 -0.98734415 -1.6900104 192 0 0 0 0
-2.9504333 6.1531363 2.3307092 105 0 0 0 18.212608
6.3362288 -3.697907 -4.5415554 101 0 0 0 55.454975
-1.4900361 -28.546135 -15.569357 8 0 0 0 78.145279
24.275333 -1.5772283 1.9944149 28 0 0 0 51.164417
-11.201653 4.2526331 9.6416502 15 0 0 0 8.5570564
13.890559 -0.54809058 4.1977205 14 0 0 0 49.026817
-2.8216345 -4.5518861 -3.9894228 188 0 0 0 86.38797
-2.9957247 6.5582666 1.8014615 34 0 0 0 16.845823
26.678234 -2.47334 0.51094228 7 0 0 0 53.22163
-3.9945624 -6.8594546 -5.0171504 99 0 0 0 82.266365
-20.255053 -17.860163 -7.9795656 18 0 0 0 90.8032
-3.4677033 5.9412708 1.6012746 244 0 0 0 16.845823
-5.4246216 4.9826651 0.96743727 122 0 0 0 10.414336
26.544029 -2.0918503 -0.79142106 30 0 0 0 53.026302
17.920887 -26.008543 -15.814758 7 0 0 0 62.583038
13.543756 -0.98410642 4.8284488 53 0 0 0 49.506046
-7.206881 -4.1871653 -3.6919427 60 0 0 0 92.367874
26.41958 -6.5303907 2.7278965 24 0 0 0 50.872833
12.084796 1.9141524 -0.50780249 130 0 0 0 46.097919
-13.347651 -30.452471 -6.5455766 5 0 0 0 83.734268
-10.981808 2.7890399 0.93876338 111 0 0 0 3.8848
-12.694457 -10.614765 -6.2292981 17 0 0 0 87.94957
-0.056902029 4.2124553 0.10934048 411 0 0 0 21.910528
-9.933567 -6.8630805 -4.6792912 36 0 0 0 91.092995
-5.7446265 4.4146657 5.7251806 84 0 0 0 9.5278082
-14.616957 -7.448616 -4.1588507 64 0 0 0 90.019585
20.321856 -28.184065 -4.0137811 8 0 0 0 62.288383
13.923054 -1.3883984 5.3897133 34 0 0 0 53.22163
-33.631824 1.8024341 12.164638 4 0 0 0 98.445564
-8.4325705 -22.698725 -7.9889541 14 0 0 0 79.624962
22.844183 -3.1983993 -5.9505453 21 0 0 0 50.971134
-1.4052848 -30.49884 -12.332357 25 0 0 0 76.287231
-4.7278762 -6.7413335 -4.9238248 103 0 0 0 87.170052
7.4335957 0.55437678 -2.551748 106 0 0 0 45.902847
27.834347 -8.8529053 6.8880301 8 0 0 0 53.414913
-35.678158 1.2634506 4.863389 13 0 0 0 99.814911
4.4464221 3.8211842 0.29352877 6 0 0 0 35.664127
-10.739242 3.9980578 1.1815863 65 0 0 0 4.0796161
14.269704 -1.8185673 -4.4593554 26 0 0 0 50.776577
-5.1298108 6.0484433 1.8886893 228 0 0 0 12.45568
13.413152 1.904281 -0.93224692 60 0 0 0 49.506046
-3.0877466 3.9768105 5.6110711 90 0 0 0 13.71776
9.9092875 -1.3257536 8.8538017 21 0 0 0 53.894657
-16.295294 -27.074018 -9.0301609 10 0 0 0 84.229889
23.173882 -19.329405 2.2362649 19 0 0 0 59.745281
-12.27879 3.3120892 2.0112522 126 0 0 0 1.067008
8.8242817 2.605422 0.81072348 234 0 0 0 47.071487
9.641119 1.7473412 1.5491996 169 0 0 0 45.618431
-6.2327785 5.0508366 4.7556615 93 0 0 0 8.0668163
20.936298 -16.933079 -11.213388 18 0 0 0 62.975742
-1.8607967 4.7216816 3.9696376 74 0 0 0 16.161024
-17.270554 -13.84754 -6.8838186 16 0 0 0 86.677246
7.7696595 -4.0912595 -4.9305797 30 0 0 0 56.523521
10.642014 -8.9141788 -7.9082112 19 0 0 0 59.941887
21.595186 -23.917959 -2.7947254 10 0 0 0 63.659775
14.971064 -35.092812 -9.2119093 6 0 0 0 69.043709
-18.724968 -22.597559 -11.179811 19 0 0 0 85.01683
14.179633 -32.86227 -14.531772 13 0 0 0 69.043709
-8.0424948 -15.422748 -9.337719 16 0 0 0 85.01683
8.9235983 1.4133942 3.3366015 110 0 0 0 45.811455
-17.230553 -9.6084204 -4.7139091 29 0 0 0 94.23027
-0.65797019 -18.076889 -11.472212 9 0 0 0 72.664322
3.4991345 -10.062006 -7.298243 68 0 0 0 72.075264
-16.356543 -26.47263 -9.8684225 12 0 0 0 81.189629
-8.6748924 0.10643439 -1.2518232 98 0 0 0 97.857796
-6.7499127 5.5074344 4.0465698 121 0 0 0 8.0668163
-8.4878321 -22.133692 -8.4834499 24 0 0 0 83.052032
9.9472284 2.0223024 0.73692948 150 0 0 0 43.766785
-18.917828 -14.265208 -6.6210189 20 0 0 0 90.410751
-35.849655 -2.917269 9.9733057 12 0 0 0 99.511551
24.710508 -6.6781888 -5.1049371 22 0 0 0 51.360767
13.448866 2.2888932 -2.1014683 43 0 0 0 47.560703
-6.6316056 -0.82435924 -2.0017226 145 0 0 0 95.604477
-17.631258 -19.114113 -9.6100416 21 0 0 0 84.229889
12.903998 1.5495859 -2.5180147 30 0 0 0 46.786049
17.408497 0.52709216 -0.83836192 38 0 0 0 48.142338
9.9652567 0.38779482 -2.8923237 60 0 0 0 46.487553
0.49668145 -33.923187 -9.1913633 7 0 0 0 72.075264
6.2358885 -2.465579 -3.9879959 86 0 0 0 58.280449
-6.1062469 5.7278934 3.1627223 145 0 0 0 12.356608
-17.970505 -11.788402 -5.4960518 35 0 0 0 88.248322
20.527258 -22.578938 -9.3352985 17 0 0 0 65.32019
16.356283 -30.271637 -6.9710007 17 0 0 0 69.135101
22.14916 -14.121956 -9.7616138 12 0 0 0 56.23885
12.045909 -1.8219233 8.1624575 20 0 0 0 50.481407
-11.91285 -30.009571 -5.9525733 11 0 0 0 81.582336
-35.289219 -0.87106085 8.3864985 17 0 0 0 98.833664
11.791408 2.331337 -1.0712795 98 0 0 0 45.511936
-6.4584341 -22.123837 -10.034327 20 0 0 0 76.78054
20.747164 -19.362574 -10.678684 16 0 0 0 59.16032
13.589395 -0.29523629 -3.604809 26 0 0 0 50.678017
4.9493761 3.452631 1.5008537 487 0 0 0 37.133312
10.678688 -6.3750029 -6.6561084 27 0 0 0 60.826881
25.161955 -9.9750576 0.26360771 20 0 0 0 57.798401
8.4742975 1.8841919 5.759429 8 0 0 0 48.142338
24.464275 -6.129281 -6.9467535 27 0 0 0 54.284546
-4.845962 -11.30919 -7.1778193 62 0 0 0 82.068993
19.488554 -23.665985 -12.878724 17 0 0 0 66.207489
21.634747 -20.770313 -5.9721375 16 0 0 0 64.14669
23.101614 -19.455355 1.555524 14 0 0 0 62.975742
4.5184221 2.9059503 0.025828663 118 0 0 0 42.600193
27.503483 -15.334522 -12.452682 5 0 0 0 58.577408
5.0603986 3.9234712 -0.50514174 136 0 0 0 39.667198
14.818549 -32.369953 -11.59853 5 0 0 0 65.423874
-13.382251 -2.8323386 -1.1391287 78 0 0 0 99.030273
21.44842 -24.309465 -3.2167373 8 0 0 0 65.423874
-13.008858 1.7386892 1.3283722 58 0 0 0 99.814911
-35.141666 -0.84445143 7.0258188 11 0 0 0 97.267967
-8.7443371 6.4599972 4.164319 43 0 0 0 8.8501759
5.1208076 1.9403069 -1.6331854 243 0 0 0 44.54221
21.905434 -18.499508 -4.938931 34 0 0 0 59.941887
10.240116 -0.43189099 9.2958555 15 0 0 0 50.481407
14.55841 -6.4399652 -6.9296236 16 0 0 0 55.454975
-12.603892 -4.4432726 -3.1584682 29 0 0 0 96.976898
-4.9712553 -25.386192 -8.9266987 16 0 0 0 78.639359
23.919289 -10.278974 -4.9682064 36 0 0 0 58.383617
-11.537582 0.75803113 -0.5335232 84 0 0 0 98.729729
11.341887 -2.2247934 -4.4177341 39 0 0 0 53.503487
23.021822 -11.874867 -6.3394852 29 0 0 0 59.550209
17.84552 -0.86211812 1.7109381 42 0 0 0 49.311489
-31.450571 4.73772 12.18376 11 0 0 0 2.626816
9.9308968 -1.0767753 8.1188459 43 0 0 0 51.557121
14.763424 -33.009678 -11.165623 3 0 0 0 70.417412
-16.43285 -27.446905 -8.4286308 13 0 0 0 80.993027
3.0127344 4.5021982 0.72202414 413 0 0 0 34.493183
22.058767 -21.147846 -1.4805071 7 0 0 0 64.053246
22.425474 -20.023958 -0.72822523 16 0 0 0 60.332287
-8.643013 5.910141 5.0542002 26 0 0 0 10.022912
-6.2632604 1.040054 -1.0251517 195 0 0 0 2.3278079
-9.7387848 -22.987234 -10.361262 8 0 0 0 83.64032
-8.8674631 4.6318793 1.1296477 65 0 0 0 6.117888
0.60413426 -4.6613631 -4.0861382 106 0 0 0 69.722366
24.525049 -5.8281035 -6.9324141 17 0 0 0 54.089985
5.1235585 4.4392295 2.5188823 69 0 0 0 40.251904
-17.888344 -12.4939 -6.0827422 25 0 0 0 90.998016
-2.3539221 -21.263887 -12.627872 17 0 0 0 77.363708
-31.651672 5.6727457 12.854628 5 0 0 0 1.455616
-3.9240875 -24.99596 -11.069603 9 0 0 0 74.712318
-14.365055 -8.5718021 -3.1291134 116 0 0 0 93.733124
-11.345215 6.2258186 2.9402785 91 0 0 0 4.957952
-9.1383829 5.1724405 1.4622034 62 0 0 0 9.8268156
-16.989006 -6.7606206 -3.1514165 14 0 0 0 94.712318
19.163488 -23.777201 -14.130015 17 0 0 0 64.733437
6.2682467 -3.5062811 -4.4407787 143 0 0 0 55.164673
4.8723016 -16.717331 -11.270806 11 0 0 0 69.329407
25.738432 -5.8804679 -1.2482109 28 0 0 0 50.678017
24.074236 -8.1022148 -7.0656033 26 0 0 0 55.552258
-6.5302615 -24.507824 -8.7280617 23 0 0 0 79.711235
-8.5691614 5.9284439 1.7741791 61 0 0 0 8.1692162
-1.3829191 -30.684889 -11.996861 22 0 0 0 74.625793
-2.698668 3.89416 5.5249572 99 0 0 0 12.5504
12.003465 0.49242997 2.7415321 78 0 0 0 50.971134
11.128437 -5.1102514 -5.9349389 22 0 0 0 53.995522
8.2139645 -14.429035 -10.539948 8 0 0 0 63.857407
-2.387938 6.1102209 1.4176588 108 0 0 0 16.161024
14.535715 -28.903725 -17.073465 14 0 0 0 68.1577
21.203882 -8.5842609 -8.360939 28 0 0 0 53.307392
15.221174 -35.415051 -8.4518871 9 0 0 0 65.815811
-1.361573 5.5625558 1.0216357 365 0 0 0 22.989056
1.1630528 -34.851803 -8.8573084 9 0 0 0 76.585983
-9.6585693 1.671212 -0.31041536 68 0 0 0 4.0796161
26.411331 -1.5865483 -1.3972583 7 0 0 0 49.612034
15.526286 -4.5223522 -6.0181227 18 0 0 0 53.307392
-8.3609858 0.094482951 -1.2994704 115 0 0 0 99.42067
22.957659 -11.595169 -6.936708 27 0 0 0 56.23885
-18.217459 -21.185312 -10.632687 16 0 0 0 85.302017
-9.8542795 -3.5610278 -3.0240333 77 0 0 0 96.87603
8.4562712 4.0325027 -0.51122105 105 0 0 0 44.64333
7.9558997 -5.3257456 -5.5654149 89 0 0 0 59.941887
13.830952 -31.424231 -17.62632 7 0 0 0 67.279106
16.927031 -26.537271 -13.832394 8 0 0 0 63.171585
11.066485 -2.5457461 9.3722792 31 0 0 0 51.557121
-7.0569482 -2.9258928 -3.0512667 101 0 0 0 96.19072
-10.870646 3.6792004 1.1573474 93 0 0 0 3.5978241
10.569125 -0.10960138 4.8795438 93 0 0 0 50.090752
-7.7719021 -34.550667 -5.8318934 10 0 0 0 75.893761
24.294865 -10.551442 -3.3597958 26 0 0 0 56.824062
14.736902 -4.5422835 10.866416 12 0 0 0 56.523521
-12.938708 2.0873833 0.98400182 45 0 0 0 2.4307201
23.292582 -15.393904 -5.075016 15 0 0 0 59.651329
-12.113006 4.1705728 2.2488861 56 0 0 0 6.897408
28.065403 -19.029819 -6.184236 12 0 0 0 59.845886
12.793268 2.4169669 -1.9933237 56 0 0 0 47.267071
-35.626266 0.63481814 5.3213086 8 0 0 0 97.951233
23.764641 -8.4566374 -7.7803206 19 0 0 0 52.633598
24.103889 -11.554325 -2.429693 11 0 0 0 58.966785
26.192835 -9.2750053 4.7528696 16 0 0 0 55.552258
-6.0998545 -16.231075 -9.8879948 9 0 0 0 79.624962
23.401052 -15.891423 -4.092988 24 0 0 0 61.413887
-13.287535 4.0912948 3.8432257 27 0 0 0 6.5077758
27.547176 -15.71086 -11.749868 20 0 0 0 55.454975
-9.3534212 6.4116144 4.0093427 115 0 0 0 11.47776
-32.698177 2.3508556 14.224118 11 0 0 0 1.455616
19.536106 -27.28182 -9.4026108 16 0 0 0 63.952385
-17.539368 -11.121406 -4.4395771 41 0 0 0 90.106621
24.882704 -4.7848692 -6.3057537 25 0 0 0 50.196224
10.409877 -5.4379578 -6.0279188 23 0 0 0 58.189568
-4.4802608 -26.055576 -9.5326929 12 0 0 0 79.908096
-3.9366632 -26.227007 -10.318081 10 0 0 0 76.287231
15.626648 -25.161556 -16.183924 11 0 0 0 68.454147
-10.568242 4.9060092 8.5159378 30 0 0 0 9.5278082
-13.566123 -31.766205 -5.5996804 6 0 0 0 78.834686
24.746531 -12.774824 1.1894134 19 0 0 0 54.674946
16.848076 -30.998232 -4.494422 8 0 0 0 65.906174
6.2754664 3.894655 -0.62232524 135 0 0 0 41.322239
3.8555202 -5.9778209 -5.2240934 56 0 0 0 66.492157
-12.152621 6.7934346 4.6485124 6 0 0 0 5.152256
-3.2603176 5.1491904 3.2300429 300 0 0 0 14.889472
24.291296 -10.331959 -3.6893382 36 0 0 0 58.280449
19.900299 -27.223093 -7.3229346 13 0 0 0 62.19136
24.1891 -2.1556249 1.3783954 9 0 0 0 48.441345
0.58764148 4.0077348 0.65213305 349 0 0 0 26.016512
9.7296219 -2.5449171 9.7967949 8 0 0 0 55.939583
-0.737194 -33.562206 -9.0838747 7 0 0 0 72.664322
-7.6789951 5.5811272 1.5112673 74 0 0 0 10.112768
-19.075708 -14.313845 -7.0161653 15 0 0 0 92.071678
23.301525 -10.981123 -7.2586613 7 0 0 0 57.408512
15.394342 -2.0999765 6.3563061 18 0 0 0 50.481407
-13.445032 -9.0405121 -5.3838954 15 0 0 0 91.290115
-6.4408503 -8.1408749 -5.5140033 81 0 0 0 88.052483
14.945985 -28.570063 -14.197226 5 0 0 0 64.537857
22.428312 -19.958109 -2.5469494 18 0 0 0 61.893375
10.486842 0.98575068 9.2736273 7 0 0 0 44.448002
-12.954189 -22.542566 -11.22226 7 0 0 0 80.60083
-13.112473 -22.499819 -11.237798 11 0 0 0 80.695297
14.672962 0.49715543 -3.3184531 32 0 0 0 51.360767
-2.1557498 3.9315946 5.0758018 123 0 0 0 16.161024
26.049927 -9.6270266 4.0562568 24 0 0 0 52.633598
-3.5380888 1.793046 -0.91863519 367 0 0 0 7.3894401
25.516653 -6.6171875 -2.5756893 9 0 0 0 51.164417
20.570744 -18.76366 -12.101785 5 0 0 0 58.966785
-1.0391191 -34.366417 -8.2464457 6 0 0 0 75.996674
-33.39785 2.0573847 12.183128 8 0 0 0 2.8224001
-5.9447165 5.9987311 3.4843183 128 0 0 0 9.7251844
23.38678 -18.337946 2.222029 10 0 0 0 59.26144
-8.2390385 6.7680912 2.4076478 103 0 0 0 9.5278082
21.001711 -20.817991 -9.4895992 20 0 0 0 59.651329
-2.1002216 -4.547164 -4.0283241 276 0 0 0 82.559486
25.287134 -12.368011 3.6491449 8 0 0 0 55.84819
-6.0999622 -10.303306 -6.6391454 43 0 0 0 80.695297
12.648409 -2.4598711 8.5978699 19 0 0 0 51.164417
-12.62592 -3.2769697 -2.5876584 27 0 0 0 93.536514
-16.475052 -9.6971388 -4.8700199 23 0 0 0 89.032448
0.64276785 3.8828502 -0.14625894 369 0 0 0 26.300928
-31.603502 6.2199087 10.303959 14 0 0 0 4.858624
17.281391 -28.515919 -9.7780228 14 0 0 0 66.792702
3.3804221 -1.434484 -3.1276059 81 0 0 0 53.22163
6.3442521 3.4514365 1.8205529 113 0 0 0 43.666943
16.626375 -29.895546 -6.9279971 14 0 0 0 68.941055
-3.2992063 -3.0261121 -3.1885202 99 0 0 0 88.929535
11.643368 0.53554779 3.9159737 14 0 0 0 50.872833
13.775337 0.37811533 -3.2835424 22 0 0 0 46.681854
0.7227276 -36.529888 -7.3750844 6 0 0 0 76.78054
8.9126863 1.213735 -2.3112507 82 0 0 0 48.142338
-16.010399 -3.3824277 1.0519987 32 0 0 0 99.030273
18.209589 -18.365265 -12.855717 24 0 0 0 59.745281
-15.945976 -27.084782 -9.4433908 15 0 0 0 85.69677
13.869627 -1.3843291 5.528491 33 0 0 0 51.557121
2.127434 -4.2367282 -4.296011 164 0 0 0 68.256767
28.674011 -17.701445 4.7021661 6 0 0 0 55.84819
-5.7441607 -7.1662464 -5.0545144 70 0 0 0 82.947327
1.8913853 5.210391 0.57216436 325 0 0 0 29.128448
9.1398144 2.5155711 0.59753549 161 0 0 0 44.251904
-11.225698 4.4074836 9.472867 15 0 0 0 3.211776
17.571419 -1.7252229 3.90045 18 0 0 0 53.22163
-10.893931 3.2336185 11.640701 6 0 0 0 3.8848
-36.664757 2.6679866 5.4940104 16 0 0 0 98.833664
24.441692 -7.8998289 -5.1725178 27 0 0 0 52.141567
21.927881 -22.273773 -3.0759754 10 0 0 0 64.537857
-13.418925 -2.9208157 -0.97161227 10 0 0 0 97.368065
25.739616 -5.3526697 -1.853775 36 0 0 0 53.503487
26.396841 -3.0588999 -1.1477565 24 0 0 0 48.925442
-2.206012 -30.889502 -10.743836 22 0 0 0 76.677887
22.573587 -19.430702 -0.71055365 17 0 0 0 60.04224
22.94906 -9.4487534 -9.0803061 29 0 0 0 53.414913
24.293688 -11.489466 -2.0958724 22 0 0 0 57.303295
10.459296 0.54174465 3.5282869 88 0 0 0 50.776577
22.596552 -14.232922 -5.5865979 25 0 0 0 56.134655
25.135683 -10.141475 0.25918514 20 0 0 0 57.889023
-12.931977 -25.868856 -10.319947 15 0 0 0 84.623871
-14.54856 -9.345396 -5.0580149 48 0 0 0 93.250046
-5.8916368 -24.173662 -7.5620165 26 0 0 0 80.993027
24.014788 -13.078403 -0.51243997 19 0 0 0 56.629505
0.84191763 -33.03809 -9.6821995 5 0 0 0 75.106049
25.348476 -11.533013 0.56098253 4 0 0 0 57.018623
-15.390851 -6.8930531 -3.7716773 62 0 0 0 94.033661
4.797821 2.1695957 -1.4763415 264 0 0 0 41.9072
9.071723 4.601264 -0.54946703 16 0 0 0 44.251904
-10.03325 -23.891178 -7.1349764 6 0 0 0 80.301826
-15.665733 -4.0109935 1.215794 48 0 0 0 96.780029
14.899385 1.9207348 -2.5628672 29 0 0 0 49.806335
2.1058795 6.1828656 2.3636105 49 0 0 0 28.738304
-4.8199325 -1.1487747 -2.3914249 211 0 0 0 95.409149
24.519503 -7.5967822 -5.15798 22 0 0 0 51.946495
-10.21441 -25.121416 -12.905896 14 0 0 0 83.444481
13.874597 0.189325 2.7701626 30 0 0 0 48.245247
-4.4268937 -24.914606 -7.3465357 14 0 0 0 78.341888
10.588317 -3.3599045 -4.9417772 38 0 0 0 55.358719
-32.057556 7.3613143 9.2001419 9 0 0 0 3.6899841
10.298522 1.481855 1.6242265 129 0 0 0 46.201344
22.967274 -2.4207976 -5.6649728 12 0 0 0 48.83149
4.4836311 3.6690819 1.9084033 444 0 0 0 39.08147
0.34382364 4.6434054 2.2689588 603 0 0 0 24.841728
-3.5024276 -9.2474957 -5.9701238 69 0 0 0 83.144447
21.264597 -19.58906 -7.251843 15 0 0 0 63.857407
0.03449697 4.848691 2.8257351 214 0 0 0 27.185663
-35.148819 1.3206662 7.4372826 9 0 0 0 0.58086401
27.160542 -5.4845738 5.6160417 24 0 0 0 50.090752
-13.050814 -6.7950182 -4.2823544 31 0 0 0 94.712318
-4.7311854 5.0227981 0.93983138 140 0 0 0 11.580416
12.547218 -0.39406765 4.3148079 59 0 0 0 50.481407
-7.5799651 -0.43335974 -1.6579715 153 0 0 0 99.904259
-9.5618134 3.9985037 9.0806589 30 0 0 0 3.5978241
-36.419487 -3.398391 8.2281361 10 0 0 0 99.316734
26.434916 -13.385785 4.2136116 8 0 0 0 54.479359
20.982737 -17.184347 -10.837337 21 0 0 0 61.413887
-35.465382 -3.5724909 12.442491 7 0 0 0 0.194304
23.084023 -16.235115 -1.6802876 23 0 0 0 56.913666
19.837996 -26.780952 -8.4529638 14 0 0 0 66.885635
-6.748682 0.7195335 -1.134307 185 0 0 0 1.35808
-9.4265423 -0.28555498 -1.3655618 69 0 0 0 97.172737
11.303183 1.3454776 -2.5237138 42 0 0 0 50.001408
15.005839 -35.341358 -8.8158188 6 0 0 0 67.475197
-14.487974 -9.2294226 -4.7688947 25 0 0 0 91.680771
6.117188 -6.027802 -5.6343555 22 0 0 0 62.975742
-12.651187 -0.727063 -0.037383802 103 0 0 0 0.38681599
-10.202333 5.42031 6.63411 33 0 0 0 4.957952
20.377237 -20.003614 -12.74544 11 0 0 0 61.220352
-6.5797811 3.5106657 8.177619 30 0 0 0 5.152256
-13.527185 -6.6688247 -4.1619968 15 0 0 0 93.446144
13.378448 1.164103 0.7159282 14 0 0 0 47.172607
15.673231 -30.618322 -11.999071 8 0 0 0 67.962364
17.448086 -0.61404824 1.4677341 53 0 0 0 50.678017
14.17985 -2.6427176 -4.9451013 21 0 0 0 54.970623
24.026846 -7.2519293 -7.6962996 24 0 0 0 51.850754
14.913392 -3.7453454 10.196574 12 0 0 0 52.045822
21.0506 -16.603725 -11.157832 7 0 0 0 62.780415
17.618166 0.42686629 -0.85332251 50 0 0 0 48.245247
-8.0364628 -22.749546 -8.2718973 9 0 0 0 80.993027
13.708935 -1.1223457 -4.078599 24 0 0 0 48.441345
-15.604403 -27.061768 -9.9230928 17 0 0 0 80.695297
5.1267095 4.4560461 2.6120603 61 0 0 0 38.601727
-1.5854576 -31.201187 -10.449169 24 0 0 0 74.712318
-7.7776117 -24.402767 -6.8295703 8 0 0 0 77.266685
8.9662056 -0.4845432 -3.2379885 59 0 0 0 49.612034
24.601955 -3.1552544 5.4268899 18 0 0 0 53.698559
8.0870914 -1.900282 -3.9456751 85 0 0 0 50.776577
-32.030354 7.8075743 9.6937904 9 0 0 0 2.3278079
14.9357 1.1568587 -2.9368556 22 0 0 0 47.463936
-8.5071688 4.8944464 6.5196567 72 0 0 0 10.802176
11.056539 -2.8604753 -4.7558222 51 0 0 0 51.164417
22.906441 -15.43413 -3.3006954 20 0 0 0 58.189568
-32.035133 2.8939798 15.983532 9 0 0 0 1.846272
-17.108091 -26.773443 -9.5291538 24 0 0 0 86.286339
-4.5079799 5.4160733 2.8286602 225 0 0 0 12.746496
-4.2183638 0.42815062 -1.5590191 34 0 0 0 1.161984
23.975393 -7.5563235 -7.720161 26 0 0 0 52.045822
20.126881 -28.836205 -5.3008699 16 0 0 0 67.279106
-6.6640024 -22.581625 -8.4523296 19 0 0 0 81.778435
20.991863 -25.660152 -3.7949712 17 0 0 0 61.305088
21.439047 -20.66934 -6.693409 17 0 0 0 61.022976
18.015772 -1.8783838 3.9957712 32 0 0 0 53.307392
24.05245 -15.255052 0.13771093 6 0 0 0 60.826881
19.49605 -29.713663 -7.1823549 9 0 0 0 67.767296
9.1117249 1.7856917 5.5996404 13 0 0 0 46.786049
9.3198147 -2.6295278 -4.4742527 55 0 0 0 56.523521
5.2328887 5.2988248 2.2939522 37 0 0 0 34.206207
-15.686453 -3.4159417 0.61211121 78 0 0 0 95.799294
-20.252485 -17.276209 -8.3021097 13 0 0 0 86.19059
-10.041211 -8.4801817 -5.5648637 32 0 0 0 86.19059
5.3905277 1.4410756 -1.9176437 200 0 0 0 44.54221
-34.789932 3.7744682 5.8269019 4 0 0 0 1.6512001
-36.385735 -3.6192222 8.2246075 14 0 0 0 99.225853
4.3196731 6.1746769 0.80515033 18 0 0 0 31.667456
25.916328 -6.7659907 -0.6263532 11 0 0 0 54.284546
-30.572401 4.7926354 4.9304361 6 0 0 0 3.985152
21.42893 -20.751604 -4.8551717 18 0 0 0 59.456257
-11.867619 -5.0660834 -3.5470054 43 0 0 0 94.322174
13.824451 -1.5924001 -4.3056607 39 0 0 0 50.58176
-15.210657 -29.655533 -6.5325851 4 0 0 0 84.711166
10.671368 2.0075438 -2.0643737 74 0 0 0 45.707264
-10.345381 5.6127391 6.1705122 41 0 0 0 10.112768
15.39298 -0.47086453 2.6565695 54 0 0 0 52.141567
24.342834 -6.7328777 -6.9783759 24 0 0 0 54.674946
5.889514 3.3338675 2.2627025 89 0 0 0 40.15181
-12.244196 3.6209631 2.0438218 81 0 0 0 1.455616
6.3957553 2.6613915 -1.3298005 147 0 0 0 43.960575
6.4870911 0.70933861 -2.3934658 154 0 0 0 48.637184
-34.860035 1.3141302 8.819829 11 0 0 0 2.235904
21.495359 -24.405315 -3.7043223 24 0 0 0 60.721664
17.142406 -29.29977 -7.7634926 12 0 0 0 65.423874
14.498683 -2.4282269 8.0970306 18 0 0 0 49.117695
-8.8510885 -3.1848767 -2.9547055 87 0 0 0 93.641212
-0.98004299 -29.71228 -13.767756 11 0 0 0 76.090622
14.177016 1.6759934 -2.6039858 15 0 0 0 45.229057
1.7839378 -3.0886133 -3.7166708 16 0 0 0 69.436668
-10.83113 3.9281161 10.018768 12 0 0 0 2.8224001
-18.716446 -19.392366 -9.4861898 18 0 0 0 89.516541
2.5553844 2.8818221 4.2586207 207 0 0 0 36.546558
12.779119 0.97505873 -2.8693192 25 0 0 0 50.678017
-11.479714 -5.6484461 -3.9159238 44 0 0 0 90.215683
-6.2480464 -11.008904 -7.0272593 39 0 0 0 80.407043
13.254005 -0.96348959 4.9522257 56 0 0 0 47.855618
-11.222691 -0.63466579 -1.3389208 42 0 0 0 99.904259
24.910793 -6.7227278 -4.125246 24 0 0 0 52.917759
10.68641 -2.1604059 -4.3572407 45 0 0 0 55.259903
-9.0250225 -10.537396 -6.7637544 21 0 0 0 83.536896
-2.1409886 4.717567 4.0369549 84 0 0 0 15.382528
26.435406 -7.4154177 3.7224934 21 0 0 0 52.917759
5.0616436 4.8778996 1.944003 55 0 0 0 37.821697
-1.0454087 4.9198437 0.61018974 224 0 0 0 18.797056
4.510664 3.3932321 1.9350851 484 0 0 0 38.10688
25.530077 -9.3016539 1.2706472 27 0 0 0 52.633598
-11.030886 -8.6539755 -5.4542289 23 0 0 0 90.106621
25.28797 -5.3603406 -4.0825911 27 0 0 0 52.045822
-4.718152 -36.085094 -6.033133 8 0 0 0 74.429184
24.455858 -13.167484 0.84047771 19 0 0 0 56.523521
1.8190802 -31.92783 -11.134892 22 0 0 0 74.625793
5.5736613 4.4718022 -0.20894413 138 0 0 0 39.375103
-6.2605472 -36.293301 -5.0358214 9 0 0 0 78.24691
-7.0808787 -1.9123421 -2.5033147 129 0 0 0 98.249985
-17.371408 -10.533542 -4.8635516 28 0 0 0 93.641212
-16.272844 -14.969319 -7.4139595 25 0 0 0 88.836861
-11.211843 -3.7102926 -2.9598165 50 0 0 0 92.463875
25.674212 -7.5315833 -1.3280107 5 0 0 0 51.655682
-17.42487 -17.991621 -9.2433968 21 0 0 0 84.623871
-7.6758823 4.5198832 7.3425007 16 0 0 0 11.282432
15.938613 -4.7465444 -6.1939459 21 0 0 0 53.414913
-8.761446 -7.3202286 -5.103888 38 0 0 0 89.625092
9.9719906 -0.99781358 8.3700418 35 0 0 0 49.506046
1.8800819 5.1818547 0.49224129 342 0 0 0 30.68544
14.421785 -35.339615 -10.377627 6 0 0 0 66.100739
7.5125051 -5.4376335 -5.6014838 19 0 0 0 62.288383
2.4431927 5.4549227 3.6296947 12 0 0 0 30.099968
-11.121705 2.7144489 0.66325122 84 0 0 0 0.58086401
-30.667128 5.1998773 5.3389316 6 0 0 0 2.626816
9.8121004 -10.418361 -8.729353 14 0 0 0 65.32019
6.5320034 -23.522125 -14.49355 18 0 0 0 71.289856
-0.96108174 -30.887363 -11.763206 14 0 0 0 72.758018
7.5948229 -7.85847 -6.8721094 49 0 0 0 59.845886
-11.739394 5.1579032 8.1544762 23 0 0 0 3.7895679
-13.108573 2.7095587 2.0480766 43 0 0 0 0.088575996
6.526288 3.1697202 2.1231198 44 0 0 0 39.568127
-1.7150759 -3.9859867 -3.7752044 251 0 0 0 80.212738
-8.1630583 -5.943253 -4.4977374 21 0 0 0 90.698494
-7.273469 3.9553144 8.1729107 32 0 0 0 5.249536
15.561312 -32.84869 -7.9599981 10 0 0 0 65.228287
10.411674 -0.90699416 6.8601437 61 0 0 0 51.265537
25.104481 -5.3876252 -5.6968288 23 0 0 0 53.698559
-8.6740017 6.7912531 2.632962 94 0 0 0 7.583744
-11.807107 -9.1630859 -5.6124787 26 0 0 0 88.536575
9.8791475 0.96016306 2.9423947 116 0 0 0 48.441345
21.856426 -14.305532 -9.3094997 32 0 0 0 61.305088
3.3292441 3.6523888 -0.52417153 432 0 0 0 35.375103
-17.684729 -19.64642 -9.7753553 19 0 0 0 84.032509
22.430138 -20.217152 -2.2135649 9 0 0 0 60.433922
-0.41175729 5.123611 0.67375702 204 0 0 0 25.517311
8.4907074 3.4251997 -0.72808343 201 0 0 0 42.495998
-3.5394433 -30.203814 -11.547145 15 0 0 0 74.124802
15.33181 0.81668204 -0.1592591 67 0 0 0 49.311489
-32.90395 4.6047978 12.004994 14 0 0 0 99.814911
26.691202 -5.2406383 2.7753365 13 0 0 0 50.090752
2.5151746 -4.5395565 -4.5250206 176 0 0 0 63.756802
-6.963141 -5.9169459 -4.4072776 97 0 0 0 86.089729
7.8994074 -2.0445044 -3.9809787 95 0 0 0 52.829441
9.9789753 0.97667986 6.886735 7 0 0 0 46.487553
2.2073889 2.9929414 4.2626371 196 0 0 0 33.12896
4.6266894 -22.515608 -14.126681 9 0 0 0 74.124802
24.390228 -10.971213 -2.4136176 29 0 0 0 58.577408
23.60869 -8.6369724 -8.0429592 30 0 0 0 54.384384
-11.299145 6.8513384 3.1943419 33 0 0 0 10.414336
23.172846 -10.900493 -6.24154 32 0 0 0 58.966785
25.919577 -4.4121313 -1.8201953 23 0 0 0 52.917759
15.243053 -33.205826 -9.3201075 10 0 0 0 70.222595
12.10098 -0.54607594 4.8446088 64 0 0 0 50.678017
3.9881358 5.5851064 0.453987 23 0 0 0 36.546558
0.020218045 -7.9996305 -5.4433236 158 0 0 0 77.363708
24.721455 -3.1475012 6.06247 23 0 0 0 50.481407
27.076006 -6.1525874 5.6015863 14 0 0 0 50.481407
16.259298 -29.964344 -7.4501657 12 0 0 0 64.34304
4.6968822 2.7564869 -1.1443932 226 0 0 0 38.601727
-7.2274876 -25.312887 -6.5887132 8 0 0 0 81.582336
0.59770745 -7.9735594 -5.8748226 94 0 0 0 74.429184
15.998318 -26.494558 -13.608329 4 0 0 0 63.563263
15.431157 -4.1177478 10.291047 28 0 0 0 54.089985
19.234243 -22.759634 -14.865723 9 0 0 0 61.022976
4.8942466 4.927999 3.0057917 9 0 0 0 39.08147
20.540607 -25.189234 -6.5313983 10 0 0 0 66.100739
-13.025118 0.60270131 0.8586604 57 0 0 0 0.58086401
3.4239843 1.9783852 -1.4781376 307 0 0 0 38.690815
4.5098252 3.4452138 2.6035745 125 0 0 0 37.91309
23.457642 -11.339342 -4.6434503 31 0 0 0 57.499138
-6.2560358 -22.430826 -9.3235922 21 0 0 0 79.908096
-15.614412 -30.250286 -5.8403177 8 0 0 0 81.582336
20.239292 -23.525333 -10.004562 11 0 0 0 60.91571
-35.008305 -5.4344077 13.323178 6 0 0 0 0
-7.5317268 -26.038696 -6.0948977 10 0 0 0 78.44352
-11.316765 6.8739395 4.4594326 80 0 0 0 5.731328
15.51192 1.8093421 -2.6738167 24 0 0 0 50.001408
9.9421158 1.2271154 2.4505899 97 0 0 0 48.05069
20.850342 -24.4977 -5.6430726 10 0 0 0 62.583038
7.9792032 1.9013315 2.8477519 187 0 0 0 47.855618
-3.4969356 -4.4449325 -3.8913891 232 0 0 0 82.659073
16.14151 -3.8727953 9.5577917 16 0 0 0 53.698559
-6.3455582 -2.226048 -2.7859652 135 0 0 0 92.071678
13.140997 -5.7154346 -6.4391179 20 0 0 0 57.018623
0.97004169 3.8081987 -0.20743285 465 0 0 0 29.230848
25.426174 -5.4528341 -4.8050256 37 0 0 0 55.259903
1.2239159 -30.24074 -14.039845 10 0 0 0 74.908669
19.509483 -23.038971 -13.532998 12 0 0 0 62.67955
12.0066 -8.7491894 -7.9971557 15 0 0 0 62.288383
-35.228447 -1.8833781 6.8016486 10 0 0 0 0.67660803
3.509402 3.0317421 3.3312137 307 0 0 0 38.601727
-35.754219 -0.91619873 3.5496988 7 0 0 0 97.267967
-19.399559 -18.965174 -9.1217203 18 0 0 0 88.341248
7.5993586 -5.6429224 -5.7209611 19 0 0 0 62.483967
28.770201 -17.860943 5.2015061 11 0 0 0 60.630783
-12.132373 5.9277658 6.5607715 26 0 0 0 6.0311041
-10.591838 3.4268644 11.44702 24 0 0 0 4.2749438
-14.195646 1.371121 1.440257 47 0 0 0 99.225853
14.860899 1.9774455 -2.337018 58 0 0 0 48.142338
-4.8519845 3.9547706 6.4880085 48 0 0 0 14.105344
15.855813 -29.733072 -9.8945732 8 0 0 0 67.670273
8.0524807 -4.1129084 -5.0749187 23 0 0 0 56.327679
-33.393692 3.5789106 10.266402 8 0 0 0 99.316734
4.1763039 -7.9823403 -6.8682604 12 0 0 0 69.829636
-16.994535 -25.98431 -11.027014 14 0 0 0 86.482941
1.8330184 -3.8022468 -4.0872746 104 0 0 0 64.537857
-8.5766811 6.3331513 1.9863615 42 0 0 0 7.0924802
26.806398 -3.4026039 2.4752505 7 0 0 0 50.58176
-4.1416306 4.1501741 5.0933762 75 0 0 0 13.52448
2.3434062 3.2553887 -0.65971172 444 0 0 0 35.180031
30.613256 -12.141667 7.2670774 6 0 0 0 56.134655
13.021178 -1.8361526 7.4914665 16 0 0 0 53.894657
-7.1535916 4.4041409 6.5425777 43 0 0 0 7.8725119
23.971472 -0.21378523 -2.7025063 16 0 0 0 50.388481
10.767323 -0.73476553 6.2008753 56 0 0 0 52.723457
-14.573213 -28.082415 -8.3668594 23 0 0 0 80.017151
9.9382591 -0.38811243 7.99019 50 0 0 0 52.336128
25.401646 -11.600884 2.9916852 28 0 0 0 58.577408
-0.6305154 -30.040297 -13.204466 16 0 0 0 72.561661
9.9729061 -0.74036157 10.704047 19 0 0 0 46.786049
10.918061 -5.400259 -6.0568051 25 0 0 0 56.134655
-4.9102387 0.77183062 -1.2876281 51 0 0 0 2.13504
-5.1387849 -23.323874 -10.424886 11 0 0 0 75.698433
14.372661 -2.5497267 8.4564028 13 0 0 0 52.723457
25.99337 -10.154572 5.0925016 3 0 0 0 54.479359
15.779284 -29.752903 -10.387373 8 0 0 0 69.329407
24.438438 -3.6604762 4.7199473 26 0 0 0 50.872833
-13.15494 -33.73106 -4.4419174 6 0 0 0 79.908096
-11.844161 -19.286366 -10.698789 19 0 0 0 86.089729
20.787655 -19.631853 -10.302011 8 0 0 0 64.14669
11.364826 -1.0762976 6.3489299 42 0 0 0 47.948799
22.963543 -3.5566199 -5.7457108 27 0 0 0 49.612034
-11.047284 2.6595061 1.067219 59 0 0 0 2.13504
-34.849758 1.6455348 6.5238662 11 0 0 0 0
-27.327156 11.113956 9.5081472 7 0 0 0 3.103488
16.356522 -28.289404 -10.070544 14 0 0 0 68.745987
-6.5218153 -0.025995277 -1.6012615 161 0 0 0 97.56237
1.64217 -30.108944 -14.526659 13 0 0 0 76.390144
3.8421969 -0.2347945 -2.7005994 221 0 0 0 51.557121
-7.3385925 -23.379091 -7.8569169 12 0 0 0 77.169151
-6.7892179 -33.61602 -6.8407946 5 0 0 0 80.301826
11.796521 -2.1559989 -4.4031482 49 0 0 0 51.655682
11.527491 -0.52063096 5.1632051 66 0 0 0 52.336128
-1.2665551 -3.1243339 -3.4626193 98 0 0 0 83.929604
19.450556 -30.147285 -6.7779284 12 0 0 0 66.296829
-1.6200452 4.7152443 3.0349154 406 0 0 0 18.602753
22.127111 -12.447349 -9.0041475 19 0 0 0 60.23885
24.200268 -13.991084 1.5499221 21 0 0 0 60.13747
14.722366 -1.5565114 4.859045 55 0 0 0 53.307392
-12.68925 3.0439346 2.1943169 45 0 0 0 5.3455362
-7.9292145 -23.51795 -7.5209236 18 0 0 0 82.363647
-7.1336966 -24.312363 -7.319293 12 0 0 0 80.104706
-9.4722891 -23.975994 -13.046915 16 0 0 0 79.908096
19.809046 -29.60873 -6.3049965 10 0 0 0 64.446716
14.980028 -29.064621 -14.745359 9 0 0 0 66.296829
-32.056786 4.2809873 10.968227 14 0 0 0 0.67660803
18.505201 -2.3725848 3.8554015 47 0 0 0 48.925442
22.158966 -12.287923 -8.9823179 12 0 0 0 60.13747
11.556721 -0.93183041 -3.7282171 46 0 0 0 51.655682
11.738249 -0.074002422 4.4205647 120 0 0 0 46.786049
-3.4585199 3.8958926 5.5022635 92 0 0 0 16.648705
-6.3879008 -33.738419 -6.8545861 9 0 0 0 80.104706
-3.0709121 -5.551549 -4.4707403 126 0 0 0 81.871613
-10.124891 -25.707968 -12.284632 13 0 0 0 79.908096
-8.0705137 5.731667 4.7938881 16 0 0 0 10.308352
-32.016602 5.3839455 9.3424282 6 0 0 0 1.161984
4.0381031 -5.3468199 -5.0843978 99 0 0 0 67.182083
22.239275 -13.727291 -7.1115918 29 0 0 0 57.603584
-8.0529032 6.3485579 3.6808879 88 0 0 0 12.5504
24.670454 -3.0779972 5.7263889 28 0 0 0 52.045822
-8.8229589 -33.59182 -6.0596251 5 0 0 0 78.051582
-14.077873 -26.649647 -11.992844 10 0 0 0 83.341568
0.88928938 -7.9089656 -6.0507956 95 0 0 0 75.698433
15.409651 -25.505409 -16.285408 6 0 0 0 68.649727
17.331347 -30.982958 -4.5198154 4 0 0 0 65.709564
22.345364 -11.521019 -9.2709265 21 0 0 0 54.774784
10.869775 -4.6747131 -5.722682 32 0 0 0 53.608959
-4.5228224 -24.011242 -10.927527 10 0 0 0 76.873474
23.24305 -1.8819536 -5.4039016 15 0 0 0 53.22163
-13.827406 -27.556587 -10.134604 26 0 0 0 81.386497
13.765974 -1.2511909 4.9023767 35 0 0 0 49.806335
8.3829746 3.4462895 -0.51341933 294 0 0 0 45.511936
9.795702 1.1835862 -2.4120653 63 0 0 0 46.786049
21.14348 -17.752096 -9.1057854 7 0 0 0 59.941887
2.7116952 3.0874591 -0.7955336 415 0 0 0 33.517311
15.522534 0.73280126 -0.16564116 81 0 0 0 49.417728
0.59701777 3.9171457 0.84057945 426 0 0 0 26.104321
-6.7048516 -24.239304 -6.9701118 22 0 0 0 78.24691
-1.7264982 4.9623113 2.6242352 21 0 0 0 16.845823
17.421648 -29.248453 -8.1913929 8 0 0 0 66.885635
23.427235 -13.788912 -2.5294616 20 0 0 0 60.332287
24.550095 -12.606092 0.19517796 34 0 0 0 59.354626
-34.4944 0.35171548 10.847281 8 0 0 0 0.28390399
-1.5213645 -30.746426 -11.712282 23 0 0 0 73.054466
-3.6520026 3.8951473 5.5024309 91 0 0 0 10.308352
-10.819345 5.9471784 6.052773 37 0 0 0 6.806016
-5.1005173 -36.362274 -5.4799438 9 0 0 0 79.320061
-2.0809903 -19.932507 -12.244823 12 0 0 0 79.031555
25.309256 -7.7400289 -1.6286427 28 0 0 0 53.414913
5.2784362 -0.54553312 -2.9731784 182 0 0 0 52.141567
-9.9657173 6.1767302 2.385406 118 0 0 0 8.9438725
-0.69178486 8.2162476 2.3086994 5 0 0 0 25.430271
4.0720396 -0.60091227 -2.9060442 231 0 0 0 52.917759
-3.7718413 6.0760813 1.4969287 197 0 0 0 13.235712
-0.93785357 -33.9916 -8.617548 5 0 0 0 77.558273
22.312929 -19.152504 -2.1406093 11 0 0 0 60.04224
-7.1466885 0.87451923 -1.0312353 149 0 0 0 99.61805
11.826387 -5.780725 -6.3946099 25 0 0 0 54.384384
8.5988913 2.8241801 1.6227844 61 0 0 0 41.822208
26.122 -9.1718102 3.0395088 8 0 0 0 57.109249
-1.8337433 -30.996599 -10.776693 23 0 0 0 76.482559
-6.566855 -23.296341 -8.6949549 32 0 0 0 81.582336
17.836613 -30.605202 -5.9133492 10 0 0 0 63.857407
-11.595891 5.4715405 2.6721833 97 0 0 0 5.5380478
-8.0673656 -24.63789 -6.1159987 17 0 0 0 80.60083
22.615025 -20.052788 2.2216222 17 0 0 0 60.23885
-10.624096 4.4342303 1.5044379 96 0 0 0 7.8725119
19.607477 -26.198231 -9.564455 11 0 0 0 65.228287
23.891882 0.46701664 -4.209331 15 0 0 0 51.557121
19.410908 -28.311756 -8.7196779 13 0 0 0 67.475197
4.4664173 2.798104 3.191572 256 0 0 0 37.523201
10.912993 1.1222155 1.9694872 127 0 0 0 50.001408
17.065369 -27.147099 -12.544116 9 0 0 0 64.928513
-11.035501 6.2730846 5.7093978 48 0 0 0 5.3455362
-11.059449 -1.9432957 -2.0566337 53 0 0 0 99.61805
-35.200241 -0.88042009 6.5626292 5 0 0 0 98.833664
-8.7555189 3.9364004 8.6527481 21 0 0 0 9.7251844
-16.49206 -7.9042883 -3.4084647 43 0 0 0 95.21357
9.6878853 2.7729654 -0.73003423 183 0 0 0 42.600193
4.1066308 2.3387947 4.3967299 130 0 0 0 37.718018
-35.496132 -1.9946101 6.1843748 14 0 0 0 99.904259
16.419464 -20.028927 -13.59837 8 0 0 0 64.643074
22.397739 -18.260466 -2.7871127 23 0 0 0 62.780415
-20.75239 -18.821533 -8.7543592 14 0 0 0 85.69677
-31.87739 6.0331759 11.162899 8 0 0 0 1.553152
-10.083982 6.5411282 4.079 66 0 0 0 6.225152
-36.774834 -4.5173182 8.7856388 5 0 0 0 97.267967
26.5014 -8.6317081 5.9071493 6 0 0 0 56.717823
3.0433869 -10.693243 -7.3561897 55 0 0 0 71.198463
20.012466 -27.579569 -6.4168715 14 0 0 0 65.423874
4.2649789 3.2585876 -0.81913292 248 0 0 0 36.649471
21.105959 -18.933096 -9.7541599 13 0 0 0 62.091263
22.278431 -20.403139 -0.39297557 18 0 0 0 58.966785
-11.526706 1.1100878 0.037008952 171 0 0 0 99.225853
8.0253925 1.4918386 -2.0762761 121 0 0 0 47.367168
5.0609827 4.988914 1.6961823 93 0 0 0 36.059391
13.945344 0.72595829 -3.1440299 46 0 0 0 51.068928
-14.678255 -29.951557 -6.5462193 5 0 0 0 84.42675
-5.0603623 -31.342836 -8.8593845 6 0 0 0 76.482559
4.0704198 2.9680023 -0.9824996 262 0 0 0 41.822208
-9.9525881 1.3889235 -0.45834759 57 0 0 0 99.904259
-2.8801398 -29.174297 -14.072351 12 0 0 0 78.834686
-18.175587 -12.241231 -5.6086898 22 0 0 0 88.052483
-31.798429 6.1772079 12.532974 10 0 0 0 3.2993281
25.599207 -11.261681 4.0278988 18 0 0 0 53.608959
-3.3217509 5.7959642 1.8216751 413 0 0 0 18.602753
11.208504 -6.5675206 -6.691597 21 0 0 0 58.966785
25.57863 -10.577737 2.9941759 23 0 0 0 57.994495
14.32307 -31.466976 -16.080339 10 0 0 0 68.745987
7.2906923 -3.9697382 -4.7974505 86 0 0 0 58.476032
6.3723178 2.4149041 2.8126132 280 0 0 0 45.811455
-17.244308 -26.0194 -11.083455 21 0 0 0 86.583549
-26.870007 -32.484726 -13.734345 6 0 0 0 85.01683
15.524604 -1.4038311 -4.4318433 24 0 0 0 53.414913
15.408586 -5.1188045 -6.3003187 18 0 0 0 55.552258
9.8558903 -11.549874 -9.276372 17 0 0 0 66.100739
2.46807 4.1568656 2.3107619 226 0 0 0 31.958784
-9.0623779 -26.533878 -13.924698 15 0 0 0 77.463295
25.395321 -10.679075 1.9334011 20 0 0 0 56.523521
26.485323 -5.0925641 0.093062729 13 0 0 0 50.090752
-9.3053465 1.7790561 -0.28460193 72 0 0 0 4.3735042
15.26224 -34.811771 -6.7770123 6 0 0 0 67.279106
26.273079 -5.4018078 0.73361546 20 0 0 0 53.414913
-8.8211193 -23.355244 -6.886003 12 0 0 0 79.711235
-4.0874162 -24.039076 -13.232796 9 0 0 0 80.017151
8.6096249 -4.2379279 -5.270946 33 0 0 0 54.384384
10.323824 -1.5608532 8.4532518 25 0 0 0 52.241665
23.961567 -14.039366 0.48320633 19 0 0 0 58.673409
19.310049 -25.242327 -12.39873 10 0 0 0 63.463425
-13.173498 -25.372942 -10.992694 9 0 0 0 81.582336
22.711203 -17.178051 -2.7256343 16 0 0 0 62.19136
-7.9009376 0.32966846 -1.2265824 133 0 0 0 99.904259
27.04615 -6.4897141 4.5405254 11 0 0 0 55.454975
-19.930101 -17.020267 -7.3515983 21 0 0 0 89.42746
1.8330982 5.9260402 0.86179733 21 0 0 0 29.905664
-17.326694 -8.1353207 -1.1848309 4 0 0 0 92.171776
21.368034 -13.64057 -11.184196 14 0 0 0 57.889023
-10.302237 -11.25536 -6.8728809 25 0 0 0 87.464195
21.727987 -15.619034 -7.6690187 22 0 0 0 60.332287
9.4092607 1.742594 1.6517235 139 0 0 0 43.960575
23.236502 -15.908258 -1.2717706 27 0 0 0 61.413887
-10.430085 -19.655996 -10.972923 16 0 0 0 80.017151
-12.309313 0.34606269 0.65740293 104 0 0 0 1.846272
1.3733035 -11.297533 -8.1922874 9 0 0 0 71.878914
-5.5030618 -34.510601 -6.5383215 5 0 0 0 78.051582
11.444534 1.47181 1.0662239 140 0 0 0 48.05069
14.437836 -29.626532 -15.915831 16 0 0 0 70.025475
-16.386585 -7.9191737 -2.932827 33 0 0 0 91.977982
4.4184289 3.6912079 1.5145949 448 0 0 0 40.542976
-12.482235 -26.240103 -9.2644892 17 0 0 0 79.428093
-10.050571 5.8142509 2.3395557 111 0 0 0 8.4600325
15.98231 -26.090942 -14.201151 10 0 0 0 66.792702
-33.547848 4.1540494 9.1595573 13 0 0 0 2.039808
21.680529 -21.250988 -4.9456191 14 0 0 0 59.550209
16.245214 -25.459162 -15.462858 7 0 0 0 64.837891
22.27079 -15.872318 -6.3975291 18 0 0 0 60.23885
-32.070675 3.45365 15.461069 7 0 0 0 99.225853
19.004557 -28.531271 -10.042206 8 0 0 0 66.100739
-12.791909 -26.743309 -8.1485128 16 0 0 0 81.087997
26.109114 -0.38816312 -2.9543953 17 0 0 0 50.481407
26.456255 -3.0574725 -0.82654709 32 0 0 0 53.608959
4.4122095 4.232388 0.98569566 306 0 0 0 39.471359
-4.7458377 4.7991138 0.8249492 162 0 0 0 12.746496
25.448521 -9.6226816 1.2612374 14 0 0 0 52.829441
21.575413 -24.214411 -2.4453053 11 0 0 0 62.19136
22.84819 -18.49279 -0.68272352 18 0 0 0 59.550209
0.97697908 -33.736767 -9.485837 4 0 0 0 73.445633
21.242733 -19.68247 -6.855207 20 0 0 0 62.288383
27.03183 -6.7065077 3.8054411 5 0 0 0 52.437504
-5.7267289 -3.918222 -3.5002689 178 0 0 0 91.193604
14.559501 -34.848515 -10.65223 6 0 0 0 67.571457
15.098327 -3.7395806 10.038681 7 0 0 0 53.804031
27.261463 -5.9374418 7.0942822 13 0 0 0 50.284801
24.589441 -9.8028421 -3.3341324 23 0 0 0 56.327679
25.945047 -5.2599339 -0.89916623 38 0 0 0 54.970623
25.214407 -12.284474 2.2510452 21 0 0 0 55.84819
5.7775674 -2.8731155 -4.0532556 142 0 0 0 56.134655
-9.4695282 -3.2287338 -2.8841538 64 0 0 0 97.172737
23.457676 -12.505329 -4.1436934 24 0 0 0 54.970623
-7.3160834 6.4024744 2.4737921 135 0 0 0 13.235712
20.911512 -25.880444 -3.8115396 7 0 0 0 61.413887
2.925127 -1.2394749 -3.0119238 48 0 0 0 53.110783
-12.143965 5.6843262 7.1248703 14 0 0 0 7.4818559
-12.85018 -25.060434 -11.663283 13 0 0 0 84.820992
3.9383118 5.7969546 0.56287253 18 0 0 0 34.593792
23.646671 0.48499715 -3.2399337 19 0 0 0 46.786049
-8.3408499 6.402596 3.1902235 112 0 0 0 12.260864
11.987197 -6.6712604 -6.849113 20 0 0 0 56.913666
8.0552187 3.0336111 1.5646538 65 0 0 0 41.127682
-2.1351421 -32.974648 -8.9274197 10 0 0 0 73.345284
-5.7932453 4.0868278 6.4156537 51 0 0 0 7.0924802
-5.8624558 -0.82571173 -2.0956812 195 0 0 0 95.300865
9.7468462 -0.55531961 6.4304514 34 0 0 0 50.776577
16.181089 -31.627283 -5.9455843 8 0 0 0 64.733437
-9.2208805 0.72425514 -0.87382829 79 0 0 0 98.925308
-4.3147249 3.8651006 5.9056454 61 0 0 0 8.9438725
-10.647354 11.271003 6.5655994 30 0 0 0 14.889472
21.665115 -23.417938 -2.7606833 17 0 0 0 63.463425
-14.008152 -27.498087 -10.141331 9 0 0 0 81.480446
-8.3241577 -1.6397076 -2.1957235 103 0 0 0 96.09037
-34.92627 -1.7946603 9.7028418 11 0 0 0 0
-4.824369 4.4334021 5.0025382 107 0 0 0 14.498048
4.5362172 3.4841957 2.2863145 289 0 0 0 37.91309
-7.7637348 -1.6338115 -2.2728679 132 0 0 0 99.120125
24.076906 -0.38638118 -2.4117386 9 0 0 0 48.925442
19.560835 -28.069464 -7.799583 9 0 0 0 64.14669
25.256067 -12.313422 3.3066525 13 0 0 0 57.408512
11.044421 -2.3957334 9.3397589 38 0 0 0 51.360767
12.871609 0.024818385 3.0623088 74 0 0 0 50.001408
4.4398246 4.01511 1.210856 438 0 0 0 35.180031
-35.644543 -2.5068059 10.596139 7 0 0 0 0.58086401
25.380423 -3.4297426 -5.2753758 30 0 0 0 50.872833
26.859371 -7.5826697 6.2632794 7 0 0 0 54.479359
16.077015 -4.8942847 -6.2634416 19 0 0 0 53.503487
-33.619064 3.1884868 10.322226 16 0 0 0 99.120125
21.211264 -21.705872 -8.43186 7 0 0 0 61.501438
-11.130919 -30.6777 -5.6500983 21 0 0 0 79.515907
15.698783 -30.306076 -12.432421 14 0 0 0 69.526016
19.510191 -28.088055 -8.685195 6 0 0 0 67.3769
16.724089 -26.654903 -13.261861 12 0 0 0 68.256767
22.629305 -16.444765 -3.7057076 28 0 0 0 60.332287
22.955069 -13.561472 -5.1776562 20 0 0 0 60.433922
-7.0959463 0.26667675 -1.3781582 144 0 0 0 98.249985
-1.6376883 -29.411758 -14.155963 9 0 0 0 78.145279
21.973484 -21.583321 -1.4984516 12 0 0 0 64.250626
18.32131 -28.77244 -10.504637 8 0 0 0 68.059906
-17.367439 -10.467924 -4.5715842 42 0 0 0 92.071678
-4.3773856 -4.9048142 -4.0428038 139 0 0 0 83.734268
-35.151546 5.3521428 12.114505 13 0 0 0 0.96819198
-11.355319 -4.605207 -3.3638248 33 0 0 0 94.622978
-4.7571383 -6.9615707 -5.0453849 130 0 0 0 86.976257
2.1715815 4.4475727 1.9998701 271 0 0 0 32.351746
-9.9027386 -23.097845 -9.679162 9 0 0 0 80.407043
-10.180855 -20.06341 -11.103325 17 0 0 0 79.711235
13.227924 -1.6336046 6.7284718 19 0 0 0 53.608959
-34.185562 -2.3447032 1.7012846 6 0 0 0 96.58445
-9.5115891 5.0239172 6.9244218 31 0 0 0 4.957952
12.08227 -2.0301077 8.8946581 6 0 0 0 52.529152
-15.10072 -34.293438 -3.1495774 5 0 0 0 82.168579
15.517054 -31.757566 -9.5940962 6 0 0 0 65.033981
21.813677 -22.765661 -1.549415 5 0 0 0 64.733437
10.125039 2.3680904 -0.15044805 163 0 0 0 48.05069
1.3964014 -33.910656 -9.5423107 7 0 0 0 73.250046
-8.7881432 -6.6387482 -4.7611914 48 0 0 0 88.732414
13.744667 -31.754671 -17.765429 10 0 0 0 67.3769
-33.251774 4.3650775 9.54284 9 0 0 0 0.58086401
-6.9797835 -27.925383 -13.75667 13 0 0 0 81.189629
2.5229065 3.8550785 2.1992497 727 0 0 0 32.645119
15.302477 -22.625618 -14.376988 7 0 0 0 66.100739
-1.7356867 4.9194064 0.66479951 200 0 0 0 21.428736
22.750912 -12.443845 -6.7366471 20 0 0 0 55.164673
20.854982 -22.013926 -8.8114223 12 0 0 0 63.367424
25.760176 -4.5496626 -2.4802794 26 0 0 0 49.894142
26.44906 -4.9472313 1.0850389 15 0 0 0 51.557121
-32.032261 3.2658157 15.668658 6 0 0 0 3.6899841
4.8348708 -0.87766129 -3.111382 196 0 0 0 53.414913
22.43762 -20.581997 1.545019 12 0 0 0 63.659775
8.436594 2.6559432 -1.5198026 53 0 0 0 42.212097
2.3428731 3.3805552 3.2859643 375 0 0 0 36.546558
-15.021226 -4.2474399 -2.6712534 16 0 0 0 96.38707
-15.187267 -29.962606 -6.1512237 10 0 0 0 83.052032
-13.754988 -32.382484 -5.1409965 7 0 0 0 83.536896
-34.085709 4.3771448 7.5326257 11 0 0 0 2.039808
13.230713 -2.9922502 9.0216761 16 0 0 0 51.655682
20.818073 -16.77478 -11.873942 16 0 0 0 59.651329
-5.9371915 -1.3086489 -2.3092949 147 0 0 0 97.368065
16.431316 -30.721746 -5.8250995 16 0 0 0 64.446716
10.140912 -2.5914559 10.633018 19 0 0 0 51.752193
21.011078 -19.080904 -9.7673626 6 0 0 0 62.19136
-0.57289732 3.9328606 -0.00021208767 379 0 0 0 22.989056
3.6460509 3.9360402 1.6821254 4 0 0 0 33.711105
4.9521351 5.4415646 0.55191076 90 0 0 0 36.84531
-12.626711 -1.8776349 -1.5293685 86 0 0 0 98.445564
-7.8052521 -24.855759 -6.1506987 25 0 0 0 80.407043
-33.401447 1.6205668 11.531302 10 0 0 0 0
25.98344 -9.1185579 1.9835347 4 0 0 0 55.552258
15.993 -1.7740343 5.0520277 31 0 0 0 48.532738
25.448839 -4.4312563 -4.0414553 42 0 0 0 51.460094
5.585278 -7.0976219 -6.1610241 36 0 0 0 66.792702
19.112638 -30.850061 -5.4879217 12 0 0 0 68.1577
-2.8329484 6.1603723 1.5123773 125 0 0 0 19.964928
-34.77721 -0.14945106 10.520322 17 0 0 0 1.6512001
7.5663371 -23.309164 -14.551597 8 0 0 0 70.611458
22.686777 -12.137766 -7.6830411 15 0 0 0 59.845886
-15.869735 -3.4537122 1.0438881 39 0 0 0 98.925308
-9.6210213 -19.636189 -11.025286 9 0 0 0 81.189629
-16.085863 -32.229183 -4.3705797 13 0 0 0 81.386497
6.1720667 2.1051927 3.5731831 201 0 0 0 44.64333
20.001066 -25.350899 -8.6900043 13 0 0 0 61.608704
24.437788 -2.8128123 4.128541 27 0 0 0 53.503487
-0.40821499 6.8036656 1.5619804 33 0 0 0 25.820929
-1.1070502 7.7497368 2.1166577 19 0 0 0 19.771135
-3.2094917 -4.9159613 -4.1230159 175 0 0 0 83.052032
22.512087 -16.73995 -4.0863018 23 0 0 0 62.091263
-36.221817 -4.215353 10.566215 10 0 0 0 97.368065
-6.0765438 3.2807341 0.1381232 173 0 0 0 6.3134718
