# .PCD v0.7 - Point Cloud Data file format
VERSION 0.7
FIELDS x y z intensity normal_x normal_y normal_z curvature
SIZE 4 4 4 4 4 4 4 4
TYPE F F F F F F F F
COUNT 1 1 1 1 1 1 1 1
WIDTH 955
HEIGHT 1
VIEWPOINT 0 0 0 1 0 0 0
POINTS 955
DATA ascii
-34.620789 -3.3706839 6.0509124 12 0 0 0 98.90432
-10.086 7.5592685 9.4091396 40 0 0 0 10.134016
-7.2769365 6.3111277 4.3438606 98 0 0 0 14.035968
24.313318 -25.556194 11.482286 8 0 0 0 64.583939
-7.4642649 7.8900914 9.6563816 19 0 0 0 11.014656
27.384375 -4.563983 9.5357008 14 0 0 0 49.10976
1.9736918 5.7899318 0.72256643 662 0 0 0 28.856577
11.623041 5.6155963 0.89816886 80 0 0 0 42.888702
9.4128914 4.425324 -3.9894223 78 0 0 0 42.110977
26.654411 -16.463144 2.3367682 7 0 0 0 60.482559
27.275475 -1.0044838 3.5648093 22 0 0 0 49.018112
2.5479202 -24.898939 5.5772123 10 0 0 0 75.278084
-7.7967072 -2.0884459 -0.65799153 124 0 0 0 97.844482
27.27083 -15.494236 4.6006727 6 0 0 0 56.690434
12.665946 -2.4163983 -2.9273601 36 0 0 0 51.834625
-7.9581184 -11.725004 1.6408647 29 0 0 0 83.360512
13.982704 -28.088875 3.5981016 13 0 0 0 69.445633
1.568719 5.8685336 0.96057624 612 0 0 0 29.346815
27.826363 -0.2240835 6.9477763 20 0 0 0 46.784
27.311415 0.89768577 1.0404691 8 0 0 0 48.041729
9.4895525 7.535368 4.0216246 87 0 0 0 35.873024
10.787107 1.1305417 -3.4836562 49 0 0 0 48.917759
23.898043 -24.395487 6.3653641 12 0 0 0 61.172993
-32.578171 3.4570072 6.3027735 17 0 0 0 3.8924799
-6.6722178 6.8470016 6.4323258 55 0 0 0 14.035968
-7.7937279 3.1125829 -1.838503 93 0 0 0 2.7251201
2.6375306 8.285265 4.5639033 6 0 0 0 31.484159
9.5015745 7.0577216 4.3355312 62 0 0 0 37.926144
-12.237162 5.7870669 1.4670894 186 0 0 0 7.4946561
-7.1829557 7.4468923 8.5874968 20 0 0 0 14.327808
27.720993 -0.2557871 7.9755006 14 0 0 0 48.334591
27.712885 0.78766072 7.4065905 15 0 0 0 50.960129
13.645056 6.082355 2.9014935 44 0 0 0 40.060928
26.172415 -9.0160179 0.5827899 20 0 0 0 52.319744
26.625229 -19.313904 3.0243161 6 0 0 0 58.540543
4.9206214 -24.258034 3.3812244 20 0 0 0 70.515198
2.4977162 -24.249937 7.1487584 15 0 0 0 72.068863
27.006268 -5.9697976 5.6685166 10 0 0 0 53.395454
1.8301095 3.0178142 -2.767695 22 0 0 0 31.002625
14.892916 7.8063383 9.3608618 20 0 0 0 43.470337
-9.5905495 -1.5862349 -0.55624503 72 0 0 0 96.289284
4.0688601 -21.776821 2.6371901 12 0 0 0 73.917442
1.1808981 -23.661787 7.2892671 11 0 0 0 71.290878
-34.179344 -2.2962489 7.3502192 14 0 0 0 1.261312
10.186872 -12.143225 -0.16358577 20 0 0 0 62.532097
27.266037 -17.02589 8.3604918 14 0 0 0 55.627007
-33.522797 0.67400557 9.7389975 20 0 0 0 99.203842
9.2328243 2.6056526 -3.6197047 46 0 0 0 47.945728
12.565397 7.3092394 9.0337648 23 0 0 0 37.537792
11.776187 -1.8205848 -2.9865935 38 0 0 0 54.456062
27.243347 -0.63137317 3.2593422 29 0 0 0 50.377216
23.821629 -25.867094 5.8628435 11 0 0 0 64.869118
13.337097 5.177309 -0.88081402 41 0 0 0 41.236225
24.602818 -25.255335 13.471797 7 0 0 0 64.389633
0.88894343 5.4837537 -2.1040118 72 0 0 0 29.832705
8.7966423 5.468431 -0.84407312 176 0 0 0 42.995457
-34.013153 -4.5801673 14.362556 6 0 0 0 95.122429
-3.8586001 -29.661205 14.612219 4 0 0 0 74.112259
-2.3830419 2.573051 -2.3205736 132 0 0 0 11.10656
27.448376 -4.5334592 6.9775257 6 0 0 0 54.068226
26.551956 -20.466261 2.6956384 19 0 0 0 60.590847
-4.0693069 6.1849632 3.4855912 157 0 0 0 13.44896
26.213228 -10.726191 1.2499669 10 0 0 0 56.301567
-10.713652 1.5423181 -0.72719604 128 0 0 0 0.87116802
-14.024812 -9.7559662 5.9854784 23 0 0 0 87.639297
-32.331249 2.8318386 6.5104947 12 0 0 0 98.710526
-13.595169 -20.508036 5.5818663 22 0 0 0 81.611778
13.058947 5.3027511 -0.32419154 59 0 0 0 42.501377
26.491716 -21.417828 1.7695725 6 0 0 0 57.85677
-5.12111 4.8577619 -1.9235194 367 0 0 0 13.741568
-9.3607912 -8.6058493 1.101432 30 0 0 0 85.497086
-33.142487 4.1045847 5.0004053 14 0 0 0 99.293694
-6.5506077 7.2005773 7.9468513 33 0 0 0 16.470528
-4.4000697 7.4279981 -0.91565508 74 0 0 0 13.548288
2.4093478 5.1575632 -3.2600799 137 0 0 0 32.854271
27.208282 -9.3051147 9.9864492 10 0 0 0 56.690434
-9.2574883 6.5614452 4.470192 128 0 0 0 10.819072
22.446543 -21.259644 1.1976503 10 0 0 0 60.677631
0.75499916 -24.508455 11.165864 11 0 0 0 74.887939
-33.853176 -2.732734 13.158548 4 0 0 0 99.203842
27.577652 6.1073112 4.3757 14 0 0 0 44.931328
-4.7574897 -23.431532 4.3298864 16 0 0 0 80.150787
-5.0718989 6.201725 3.5405574 140 0 0 0 13.44896
1.6815641 7.2409768 -1.4659427 66 0 0 0 29.051136
-7.2692165 7.3848367 8.4011831 16 0 0 0 15.88352
0.78556305 -23.627373 9.9621639 7 0 0 0 71.484673
-12.51364 5.2390013 -0.13759984 104 0 0 0 8.0798721
27.721191 5.139039 7.1658874 15 0 0 0 45.319935
3.8380735 7.3043976 -0.94014728 44 0 0 0 33.05088
-6.8210773 -29.430151 14.41832 8 0 0 0 77.424637
9.4037771 8.4337149 3.6836779 9 0 0 0 39.774208
27.694241 -16.327255 12.596869 4 0 0 0 60.003586
-9.4065161 4.9313688 -1.6603998 143 0 0 0 4.4753919
21.338997 -8.3274908 -2.599875 16 0 0 0 57.766655
10.988164 -30.232918 8.6830263 9 0 0 0 71.290878
-11.4446 -2.6179774 0.76406932 100 0 0 0 98.427391
-13.106665 6.0431132 3.1920698 61 0 0 0 6.0395522
-9.0602913 8.8310814 0.92338336 17 0 0 0 9.5511036
26.38308 -21.652126 12.413669 7 0 0 0 57.572865
-13.791435 -23.272306 5.7497888 7 0 0 0 82.389503
-1.1099494 5.6135159 -2.0821712 224 0 0 0 23.989759
-33.758751 0.091949679 8.5309172 11 0 0 0 97.362434
17.143959 5.8227859 1.4811732 40 0 0 0 41.720833
-0.4701395 -13.181748 1.3893707 45 0 0 0 72.753662
-7.0389047 3.2492914 -1.973887 124 0 0 0 8.3816957
15.120703 -2.2317224 -3.2677038 20 0 0 0 49.603073
26.469034 4.0284328 -4.7214656 30 0 0 0 49.603073
-5.0942097 1.1675363 -1.7275828 14 0 0 0 5.0626559
12.406713 4.397716 -4.2964392 70 0 0 0 42.018303
26.80184 -6.3429422 3.5070422 11 0 0 0 50.569729
10.148778 -30.487957 7.2525845 13 0 0 0 70.126846
9.4078779 6.5668941 3.8329999 87 0 0 0 41.627392
26.859039 -21.986998 12.111299 5 0 0 0 59.224831
27.420536 -1.5573868 2.1766405 12 0 0 0 49.408512
24.132553 -26.573345 8.5041666 12 0 0 0 61.752064
26.621456 4.5757594 -3.3385556 29 0 0 0 49.213951
-10.726003 -25.212322 5.6715884 14 0 0 0 80.244476
27.681749 3.7561235 6.2633553 24 0 0 0 49.302784
27.30702 -21.447449 9.8470383 15 0 0 0 60.590847
26.450583 -23.166983 4.4897089 8 0 0 0 61.559551
27.347757 -9.4095058 9.0851078 11 0 0 0 53.485313
-33.95116 -3.3663287 12.322845 9 0 0 0 95.704323
-6.2725124 -25.206125 4.9581037 5 0 0 0 79.271172
-7.2808213 -29.884426 8.8238268 13 0 0 0 80.83123
-3.9309137 -1.1581734 -1.3784106 304 0 0 0 97.557762
-1.4449711 -5.0500851 -0.49761611 481 0 0 0 79.761665
-9.7136822 -12.27126 2.0282009 11 0 0 0 82.971901
11.930025 -30.125931 9.3228035 12 0 0 0 67.599869
5.5450845 5.1332197 -3.6585438 64 0 0 0 38.999809
10.272019 5.8854179 2.1080647 104 0 0 0 41.627392
27.185291 -21.072475 8.7790937 12 0 0 0 57.272575
-13.479787 -19.82852 5.4527607 10 0 0 0 81.806084
5.4033232 5.8816581 1.020299 281 0 0 0 35.283455
27.614159 -17.827482 10.951303 6 0 0 0 60.677631
-2.9556856 6.4705091 2.4513581 81 0 0 0 17.25312
9.8911028 7.3495278 7.5850091 28 0 0 0 37.537792
-13.20322 -16.466393 4.8740034 26 0 0 0 83.063293
27.621357 -18.543457 11.74893 8 0 0 0 57.662975
-3.7904992 6.8740416 -3.0483773 8 0 0 0 15.301888
24.926001 7.7545042 6.614255 12 0 0 0 45.030144
27.090662 2.5559042 0.84883201 47 0 0 0 48.627201
27.30739 4.1153741 2.7120872 25 0 0 0 46.094082
9.9088697 8.0497723 8.8645525 26 0 0 0 36.756737
3.8726087 5.4901161 -1.4293687 421 0 0 0 33.635841
5.6450534 -26.76408 4.8365688 13 0 0 0 71.981316
3.6579363 5.8780866 1.0229083 428 0 0 0 32.372738
27.305817 -7.961225 9.0381498 9 0 0 0 52.706047
-2.2321098 -8.2291803 0.39704618 235 0 0 0 79.566338
-2.955344 -2.5222914 -1.22413 378 0 0 0 87.539459
9.6192741 8.336381 5.7630229 51 0 0 0 35.001087
27.680191 6.7551408 5.5444827 22 0 0 0 46.094082
-1.9223187 -25.099117 7.0741239 10 0 0 0 78.206718
-4.3172364 4.9820933 -2.5375326 209 0 0 0 10.134016
24.508493 -22.58662 7.971745 15 0 0 0 60.288258
23.632252 -30.429159 6.3727274 5 0 0 0 66.233856
14.015574 7.4750967 7.6674576 23 0 0 0 38.416897
-32.75703 5.0841436 7.9772811 6 0 0 0 0.090368003
26.706291 -0.50204468 -2.0510588 19 0 0 0 50.569729
27.507406 -21.180786 11.750129 11 0 0 0 60.395264
13.300213 6.1014366 2.4398091 28 0 0 0 43.082241
26.817461 -12.312782 5.9627972 19 0 0 0 55.236862
-9.9965467 6.513515 5.1626902 51 0 0 0 11.886848
8.9346647 -29.820133 10.362031 11 0 0 0 70.617348
9.0449591 3.7205336 -3.8038933 46 0 0 0 42.888702
23.793743 -28.909233 3.5848098 4 0 0 0 61.066753
27.462593 -20.191399 12.478951 7 0 0 0 56.690434
-4.076242 6.9175892 3.1643345 212 0 0 0 15.689984
-3.1608148 5.7737331 0.65372717 493 0 0 0 14.427648
-13.970734 -11.004751 3.6766467 12 0 0 0 91.433983
-4.0141659 6.0679512 1.9480513 357 0 0 0 16.380928
27.590176 -12.540914 9.3195562 7 0 0 0 55.042561
12.859929 6.8762336 5.4598603 29 0 0 0 43.470337
6.3967881 -23.740162 2.884074 8 0 0 0 72.654594
-3.4640493 -27.519846 9.8646421 8 0 0 0 75.773438
9.3370495 8.3289995 2.6842225 10 0 0 0 36.756737
7.4004679 -0.70564771 -2.7335551 101 0 0 0 48.822018
0.67314672 8.0206079 3.9774652 10 0 0 0 26.518528
1.9877151 -5.5604315 -0.43292218 131 0 0 0 71.290878
4.1136355 6.4856586 -2.3380969 70 0 0 0 31.2896
-11.405658 -10.871565 3.7319746 75 0 0 0 85.210625
26.740885 4.0257006 -2.6733897 15 0 0 0 46.395649
-4.2599306 -28.059074 9.8214073 16 0 0 0 77.815292
-14.021551 -5.7757182 2.6133618 30 0 0 0 94.24691
9.842804 6.8718324 5.5615849 55 0 0 0 39.864834
12.313952 5.7325845 1.2921778 55 0 0 0 39.970047
-33.900753 5.9868135 9.2339563 6 0 0 0 3.605504
26.316914 -13.12412 1.8303181 10 0 0 0 54.364674
27.049213 -6.3541193 6.3808827 34 0 0 0 50.377216
27.67293 -1.0678622 8.3138523 10 0 0 0 47.169025
-34.172157 -2.5100813 9.5048933 12 0 0 0 99.293694
-9.7104664 5.8266482 0.97925156 117 0 0 0 7.4946561
27.27072 -3.3791997 9.5482664 18 0 0 0 48.431618
-33.990166 -4.1975498 12.609926 4 0 0 0 0.87116802
-7.224896 -30.087521 8.167244 13 0 0 0 75.968254
9.874176 7.7613049 9.0359974 11 0 0 0 35.198208
26.636209 -9.7962914 3.3693626 16 0 0 0 52.512257
3.949362 -0.43492451 -2.4530036 282 0 0 0 49.018112
27.289341 2.7651849 2.5658393 22 0 0 0 46.871807
-6.1128278 3.2433531 -2.0780716 136 0 0 0 9.2544003
26.514788 -23.147606 6.6368666 11 0 0 0 59.90144
9.7851076 -4.6839089 -1.9632988 74 0 0 0 54.262016
-11.580152 7.10078 7.3598466 42 0 0 0 6.8175359
-30.137688 3.6952262 1.7186377 10 0 0 0 2.2402561
-12.949918 -10.857068 3.4804921 43 0 0 0 90.94912
10.000291 5.0573039 -1.4177653 113 0 0 0 42.888702
-4.9967241 6.1909742 3.7385066 182 0 0 0 16.768768
-13.713783 -21.817589 5.8177485 14 0 0 0 81.223167
26.19128 -9.6230335 1.2917905 27 0 0 0 55.717632
-2.9871008 -9.0396366 0.64414304 131 0 0 0 77.325821
-9.3709593 6.4242058 3.5648062 144 0 0 0 7.3008642
27.075371 2.9215968 0.54575479 26 0 0 0 49.991425
-1.6155703 -25.018953 11.506583 12 0 0 0 76.452606
-13.074943 -11.327703 2.8365948 29 0 0 0 89.091331
-10.286822 2.7371099 -1.4578469 35 0 0 0 0.97587198
-8.5619898 5.8451347 1.1992809 82 0 0 0 11.600384
24.112358 -15.966948 -0.72285587 14 0 0 0 61.066753
26.127304 -11.641267 -0.96159601 20 0 0 0 53.78355
-4.4091535 5.6914349 0.54673088 420 0 0 0 13.44896
24.8442 7.287324 5.5222173 29 0 0 0 43.770882
-4.6010184 -1.235541 -1.2746073 314 0 0 0 96.289284
24.579266 -23.32741 3.9875736 8 0 0 0 63.80595
-7.0371981 -3.6665831 -0.40023926 126 0 0 0 89.677055
26.40151 -21.828093 1.043433 19 0 0 0 61.172993
2.6613705 -30.811573 5.8507571 21 0 0 0 72.366333
14.700497 -1.8710055 -3.3041747 25 0 0 0 50.858753
4.1258426 -30.719849 16.29962 4 0 0 0 71.484673
-2.2039313 -6.0210762 -0.16720262 389 0 0 0 77.815292
-13.791309 -10.543302 5.4340281 21 0 0 0 91.724541
6.5963631 5.3551021 -1.1783142 287 0 0 0 37.926144
-2.5520549 -8.5821714 0.50642508 158 0 0 0 78.401283
27.069853 -6.3313603 6.8340359 22 0 0 0 55.139584
24.027794 -16.793852 -0.45420685 16 0 0 0 59.90144
2.8670039 6.0982909 1.8822049 85 0 0 0 28.856577
-32.681828 4.602818 10.906081 6 0 0 0 1.65248
26.14497 -10.418512 -0.12475464 29 0 0 0 56.210945
-6.3423376 6.3337479 3.5884712 279 0 0 0 15.012608
-13.618444 -20.815952 5.6360292 17 0 0 0 81.507072
4.408628 5.1487622 -2.1126463 352 0 0 0 38.50547
4.9810247 -1.0098845 -2.4167182 229 0 0 0 55.431423
-10.527071 4.9726467 -1.4468772 106 0 0 0 5.4548478
2.3398831 5.2770023 -1.4235035 732 0 0 0 30.508032
-4.9143295 -29.098606 12.231793 16 0 0 0 76.452606
-9.451601 -31.321236 8.3099184 13 0 0 0 78.487038
0.15778057 -6.6546903 -0.0018456213 255 0 0 0 73.334274
9.5421276 0.62578809 -3.2574177 68 0 0 0 51.153919
24.389074 6.4224005 1.5109992 29 0 0 0 44.447487
26.502031 -3.3377016 -3.288976 18 0 0 0 50.764801
-11.565907 -11.027716 2.1565566 33 0 0 0 85.210625
26.611166 -4.0674152 -0.71361202 16 0 0 0 51.053825
27.581806 -18.754606 11.769578 10 0 0 0 57.766655
27.30381 -5.050179 8.6954594 14 0 0 0 52.706047
-34.642052 -3.682054 5.4278579 5 0 0 0 0.481536
1.3775525 -23.928066 7.9407554 14 0 0 0 76.062973
26.85181 -3.934062 4.0356984 33 0 0 0 53.87392
16.942669 5.4476738 -0.16065027 54 0 0 0 46.784
-13.627803 -5.5194106 4.23036 75 0 0 0 92.797951
-7.3704925 -15.988139 2.6123953 16 0 0 0 82.285309
-2.0563793 -10.291303 0.87037832 107 0 0 0 80.05043
-9.3218775 -1.3102059 -0.64876503 91 0 0 0 98.232834
12.643115 -1.4738936 -3.1592507 31 0 0 0 53.87392
26.366043 0.22824867 -4.6089358 13 0 0 0 50.273537
-7.6457725 -29.046543 12.235413 18 0 0 0 79.566338
3.9769416 8.1530867 2.8142154 9 0 0 0 30.61248
-1.6326801 5.8071761 -0.58037674 260 0 0 0 17.837568
-9.3308439 3.4131734 -1.7253822 65 0 0 0 2.336
27.238092 -18.392319 8.4880133 19 0 0 0 56.210945
27.080004 -13.250809 5.4153872 14 0 0 0 58.834946
-8.4137449 -30.190849 8.3191319 9 0 0 0 76.5504
-2.3386292 5.2527394 -1.4378959 616 0 0 0 20.276224
-5.8298755 -15.27686 2.2441809 18 0 0 0 82.776321
-13.165734 -13.357306 3.224416 24 0 0 0 86.27507
-1.3991669 -28.972443 6.5903306 20 0 0 0 77.712387
-32.470551 1.750504 7.6738839 11 0 0 0 3.2161281
-8.8868828 4.2955513 -1.9988617 44 0 0 0 8.6694403
-7.8450933 -5.7530379 0.20002949 85 0 0 0 90.364418
13.693394 0.70832485 -3.737962 50 0 0 0 49.688065
3.7536981 -21.526276 2.6076131 6 0 0 0 74.112259
-4.2434683 -5.7630234 -0.18448095 303 0 0 0 83.942146
-12.449822 7.1856656 7.4172907 28 0 0 0 7.9925761
-13.777442 -4.1513104 1.7856359 31 0 0 0 95.810303
2.5293684 7.5635953 2.0184605 16 0 0 0 30.222849
-9.3143187 -31.230165 8.6740332 16 0 0 0 76.840195
3.9737823 3.757062 -2.9957209 28 0 0 0 38.894592
10.252156 5.5796785 0.8790825 96 0 0 0 42.110977
23.870598 -12.590224 -1.588993 10 0 0 0 57.96096
26.492144 -17.454777 1.4206642 13 0 0 0 57.85677
27.084194 -21.743877 5.9189744 13 0 0 0 62.435841
-5.0563955 6.6736965 5.7551308 52 0 0 0 15.88352
26.963995 -5.9223638 2.8809667 15 0 0 0 53.485313
-13.987155 -4.242764 3.1333566 5 0 0 0 97.362434
7.0621438 4.0776048 -3.6601629 63 0 0 0 42.501377
-29.137405 9.0831499 1.4670367 6 0 0 0 3.505408
16.071424 5.3628311 0.094959937 26 0 0 0 45.030144
-10.639692 -12.498988 2.7818565 41 0 0 0 85.108223
9.8752098 1.4171051 -3.4585025 47 0 0 0 45.125633
24.217918 -22.856977 9.0687466 11 0 0 0 63.697407
-11.615793 5.9943895 2.7951202 66 0 0 0 8.2754564
22.172581 1.4980874 -4.9004169 20 0 0 0 49.408512
10.698031 -3.406322 -2.5175104 44 0 0 0 52.125694
2.9027894 -3.1742151 -1.3966649 453 0 0 0 65.065475
26.684057 -21.887218 4.12573 10 0 0 0 62.630657
-6.0383039 7.3501234 7.0433712 46 0 0 0 17.058559
-1.036052 5.9771414 -0.27977681 218 0 0 0 19.49568
26.686237 -22.257286 8.8194218 10 0 0 0 57.85677
27.512566 -13.103452 9.3363028 12 0 0 0 55.333118
-3.9808898 5.3430991 -1.0235906 512 0 0 0 16.66688
27.090736 -21.12892 13.268935 10 0 0 0 62.140926
-6.004889 -4.018743 -0.45642227 190 0 0 0 89.481216
27.397223 -2.3060308 4.8620582 20 0 0 0 49.688065
-4.4217639 5.8208609 2.0418732 254 0 0 0 13.84064
7.6536112 -0.83498812 -2.7239552 115 0 0 0 53.87392
3.1823254 -23.637602 3.2951047 17 0 0 0 71.591682
8.0166321 -7.2959213 -1.0133944 95 0 0 0 58.834946
6.2010412 -5.1646099 -1.2928027 179 0 0 0 61.263615
-4.5795913 7.3425064 8.8740606 39 0 0 0 19.4048
-33.304512 1.1591477 10.20148 7 0 0 0 97.844482
-1.1922146 5.9804292 1.6108264 546 0 0 0 23.880192
-1.2360082 -19.366707 2.6116023 19 0 0 0 76.356354
24.087601 -23.674429 7.6947374 10 0 0 0 62.435841
23.851398 -25.975954 3.4189656 7 0 0 0 60.200447
23.538965 -27.461481 3.0848107 5 0 0 0 62.33728
27.586647 -17.186926 12.031644 9 0 0 0 55.431423
26.809835 -4.766891 3.2402563 15 0 0 0 51.24992
-11.574086 -6.6836929 0.95103002 31 0 0 0 92.109825
23.509598 -27.730215 4.2005997 9 0 0 0 65.554436
-9.4054623 3.1142292 -1.6662172 79 0 0 0 6.6229758
-37.081432 -5.6662421 10.873987 8 0 0 0 96.484093
-5.7864323 -12.313721 1.4920346 25 0 0 0 80.83123
-10.789146 6.1275377 3.5498166 62 0 0 0 7.4946561
13.186888 4.9865203 -2.8972816 67 0 0 0 46.287872
12.959593 -4.947113 -2.4625356 26 0 0 0 53.006847
5.9837656 -30.848732 6.2226214 11 0 0 0 69.052925
14.503988 5.096693 -2.4063549 146 0 0 0 46.590206
24.173731 6.3449888 -0.059211776 43 0 0 0 46.094082
-3.6024487 7.7791786 3.5695522 5 0 0 0 15.602688
26.86445 -3.8360512 3.6547542 21 0 0 0 49.10976
5.9336243 7.7953677 2.5450304 7 0 0 0 36.852737
-7.0707307 -28.99291 12.462953 16 0 0 0 77.619453
-33.056953 4.446434 5.7040286 10 0 0 0 1.170176
5.337615 7.8616219 2.6596391 4 0 0 0 34.413055
27.174267 -5.6981225 6.4310617 20 0 0 0 49.991425
-13.817991 -6.2004423 2.4448564 95 0 0 0 95.315971
26.787436 -5.6463337 1.8401594 11 0 0 0 51.834625
27.435356 -15.557966 9.5291758 8 0 0 0 56.496895
6.5371675 5.8486543 0.89524883 185 0 0 0 38.416897
-13.720529 0.33937982 1.393316 5 0 0 0 97.748993
-30.768906 -1.6747282 2.3682296 7 0 0 0 0
-2.4275675 -7.8231168 0.31996456 204 0 0 0 81.700867
-0.65978318 5.2769704 -2.8217556 241 0 0 0 23.491072
25.328468 -23.360132 4.7377825 9 0 0 0 60.395264
1.4276311 5.8376212 -0.4620702 83 0 0 0 27.597824
13.059155 7.1204977 6.6548448 36 0 0 0 41.627392
8.043005 5.6421165 -1.5867339 60 0 0 0 40.646145
26.681131 0.80024719 -1.9384673 37 0 0 0 49.797119
-8.7745724 -0.3679494 -0.92595321 90 0 0 0 98.232834
-2.9373996 9.3747768 9.1090765 31 0 0 0 17.448193
-10.569581 1.3045377 -1.0104262 118 0 0 0 99.293694
-7.8620234 3.6904905 -1.9425995 82 0 0 0 5.2590079
9.8320265 9.9854412 8.4078226 24 0 0 0 38.610943
23.849205 5.8744545 -2.5234971 30 0 0 0 46.481407
9.6041393 0.22495109 -3.1511626 75 0 0 0 50.185471
27.4688 -8.0575008 11.152823 13 0 0 0 50.960129
12.743769 6.3761392 3.9092391 46 0 0 0 42.407936
26.786449 -6.5427127 2.1215127 28 0 0 0 50.764801
26.064375 -13.61715 -0.60870993 19 0 0 0 59.41888
-8.4392614 1.4723184 -1.3651088 107 0 0 0 1.170176
0.7730813 -19.384333 2.3860285 10 0 0 0 76.258301
-2.3440816 -24.457296 9.8468704 13 0 0 0 76.938499
26.465401 -12.878889 2.9544706 27 0 0 0 55.717632
23.872339 -26.671005 6.271831 8 0 0 0 63.504639
23.365866 -27.850224 2.3962193 9 0 0 0 65.648125
-4.5644894 -11.273696 1.1937674 60 0 0 0 81.507072
14.593748 7.6258893 8.9787064 17 0 0 0 38.416897
25.565895 -22.453264 8.1633272 12 0 0 0 59.90144
-1.4671838 -5.7947445 -0.29077539 402 0 0 0 79.271172
-34.273006 -2.3936932 5.5735946 22 0 0 0 1.067008
26.661798 -1.0242671 -1.4660879 18 0 0 0 47.750656
5.4848652 -0.28086191 -2.6413624 213 0 0 0 48.139519
25.829155 -11.103598 -1.5434532 25 0 0 0 56.690434
-11.177465 5.0447407 -1.1111516 115 0 0 0 6.8175359
27.50115 -4.4256654 7.6290002 12 0 0 0 50.764801
3.9190168 -21.698988 2.6280808 5 0 0 0 74.017281
26.465254 -6.8762579 1.1424073 26 0 0 0 55.717632
0.91160297 5.6028681 -0.037436813 689 0 0 0 24.765696
3.536052 -8.8875179 0.83882552 176 0 0 0 67.599869
25.685101 -21.287298 12.850367 10 0 0 0 62.630657
9.5880785 7.3096232 5.3685842 63 0 0 0 35.97747
23.942453 -26.428766 6.253037 9 0 0 0 63.413506
27.340963 -14.832065 5.5206366 6 0 0 0 59.512066
-6.5335383 0.13141574 -1.590044 168 0 0 0 0
26.877729 5.2764287 -1.2364066 35 0 0 0 45.613823
9.3223953 -29.697989 11.868727 7 0 0 0 72.068863
3.4662907 -21.400715 2.5934341 11 0 0 0 74.306557
3.7825499 4.1413708 -2.5497983 8 0 0 0 35.873024
-2.570473 -4.4147096 -0.6353665 480 0 0 0 82.195457
9.8141546 4.560401 -3.5380015 101 0 0 0 42.110977
-7.1076555 -5.6962929 0.082997397 114 0 0 0 91.239677
-12.677604 3.9665589 -0.11537442 32 0 0 0 5.0626559
32.41703 -2.4035203 12.745321 5 0 0 0 49.213951
-12.04051 -14.298729 3.3765204 25 0 0 0 83.453186
-10.369296 3.2391045 -1.551581 43 0 0 0 3.2161281
25.17523 -23.938288 3.0386117 7 0 0 0 60.677631
25.800087 -22.3148 8.6359854 12 0 0 0 58.154495
27.225683 -20.876844 7.6431513 4 0 0 0 62.045441
3.0911083 -23.460299 8.5364256 6 0 0 0 69.931519
26.637526 -19.45892 1.4105177 8 0 0 0 58.64064
26.75848 -17.277939 3.0022175 7 0 0 0 57.662975
-2.4252346 -18.530693 2.5583947 12 0 0 0 77.424637
-12.340949 2.3013935 -0.49587676 62 0 0 0 4.6699519
15.039546 4.3797517 -4.3610978 33 0 0 0 42.888702
-7.9753232 7.5803576 7.8601646 6 0 0 0 10.134016
10.665473 -30.240099 8.9101429 15 0 0 0 69.83757
16.027246 -1.4338949 -3.5443838 15 0 0 0 50.273537
13.201981 1.0593345 -3.7837656 43 0 0 0 50.858753
27.231226 1.0973561 2.3952374 18 0 0 0 47.847424
26.561882 -12.113014 0.11250936 7 0 0 0 55.431423
-0.38006133 5.0142841 -2.572088 564 0 0 0 22.519297
9.1527929 -2.7973104 -2.4786975 63 0 0 0 56.690434
-33.590504 -5.6477833 9.0787411 9 0 0 0 99.400192
-14.044273 -5.2912221 4.3249283 47 0 0 0 93.183235
6.9592519 7.5613098 2.3312659 4 0 0 0 35.198208
3.9845407 6.0113406 -3.5115731 19 0 0 0 31.679487
0.79751825 -30.631865 5.8501091 6 0 0 0 73.334274
-6.1565104 7.3285241 9.8580513 24 0 0 0 15.602688
3.8229001 -30.444477 15.55711 5 0 0 0 75.083267
23.516663 5.9542203 -5.3070765 31 0 0 0 48.139519
-3.648628 9.4625883 6.1329865 5 0 0 0 16.575487
27.430155 -5.0396209 6.9558177 8 0 0 0 54.364674
-4.2043028 5.9285021 1.4518775 329 0 0 0 17.353985
-4.1403971 8.0583811 -2.8203058 70 0 0 0 19.210497
10.480241 2.6286712 -3.7591848 53 0 0 0 45.125633
0.31339234 -23.059605 6.4137249 16 0 0 0 76.743935
9.9459839 6.9298353 5.822576 50 0 0 0 38.222591
16.411839 1.5294433 -4.2241707 25 0 0 0 47.458305
-1.1180986 5.6856155 0.34708819 739 0 0 0 23.880192
-12.550529 -6.9497089 1.1789573 17 0 0 0 90.850563
-7.3722277 4.8036399 -2.1024389 209 0 0 0 10.716416
27.364933 -15.949039 10.007698 10 0 0 0 55.042561
9.6252909 -5.764688 -1.6337149 102 0 0 0 57.272575
-8.0078945 2.6808794 -1.6982158 78 0 0 0 5.0626559
-8.6174278 -23.410326 4.8691072 7 0 0 0 81.027069
12.661669 0.18089949 -3.4897077 34 0 0 0 50.273537
-33.347996 -5.3758445 11.183192 11 0 0 0 97.942017
23.830006 0.073863707 -4.8235869 10 0 0 0 47.261696
-7.1513896 1.6324445 -1.5643134 128 0 0 0 3.505408
1.8001336 11.861997 -1.9329363 22 0 0 0 29.346815
-8.1804485 -5.1980481 0.11145221 113 0 0 0 92.989952
3.5687344 -3.7054479 -1.3381451 453 0 0 0 63.021568
27.019802 -16.085978 4.961617 16 0 0 0 55.431423
26.122234 -7.9166226 0.02205045 27 0 0 0 54.845695
-1.6405817 -27.907473 17.280655 7 0 0 0 72.850433
26.337029 -11.926144 -0.98308551 20 0 0 0 53.87392
13.45521 3.3949332 -4.2768254 19 0 0 0 46.675713
5.2527432 5.7961106 -0.79920936 110 0 0 0 38.610943
-4.7795043 6.3669577 4.3837318 136 0 0 0 15.798528
-12.683789 6.1592174 3.6912389 52 0 0 0 7.9925761
-35.802052 -3.5807126 5.6419978 19 0 0 0 0.58495998
1.9582965 3.3995955 -1.6227881 20 0 0 0 30.61248
15.914356 -0.80687958 -3.6589944 23 0 0 0 51.24992
24.247372 6.4776001 0.59785056 26 0 0 0 42.888702
-10.46416 5.7707114 2.1660469 82 0 0 0 7.1070719
-12.601104 -1.1426121 0.34901866 77 0 0 0 99.010307
24.176409 -23.47958 7.6833367 7 0 0 0 62.33728
27.460033 6.7853599 4.4523916 11 0 0 0 44.543999
-2.5582418 -12.728428 1.441774 49 0 0 0 75.385597
5.5723224 -4.922061 -1.2769265 232 0 0 0 63.309826
-5.5456595 -7.6431079 0.29358622 92 0 0 0 82.285309
12.804633 1.3445644 -3.8161261 24 0 0 0 45.70752
-10.344527 -7.8942165 1.0198452 33 0 0 0 88.509438
23.565716 -22.266579 0.936683 21 0 0 0 62.24128
26.138769 -7.8459587 -0.69098735 13 0 0 0 51.739136
-12.558686 5.1476164 -0.63221639 69 0 0 0 6.3324161
-33.061497 3.4804182 4.9807119 11 0 0 0 99.010307
1.194461 8.8222857 7.8361287 4 0 0 0 25.445889
5.8688645 -30.891802 5.8697495 10 0 0 0 70.709503
-5.457077 1.7904816 -1.8342953 52 0 0 0 6.5269761
-6.5855341 -29.660461 10.36191 12 0 0 0 80.537346
24.529999 -22.615715 11.19746 9 0 0 0 61.849342
26.440205 -6.5079379 0.74513811 44 0 0 0 50.858753
5.9487948 5.4806199 -1.9093484 314 0 0 0 37.04755
-6.1656513 -7.314168 0.32387778 80 0 0 0 83.453186
-12.400138 1.2592891 -0.32892379 113 0 0 0 0.28544
-1.4472696 5.9017148 -0.89890021 264 0 0 0 18.327553
23.488905 -26.057526 2.6589725 6 0 0 0 63.504639
1.6118908 -5.3979406 -0.68338478 457 0 0 0 72.17408
-8.5669718 -2.6297441 -0.42337629 81 0 0 0 92.603905
24.37838 -28.848215 12.55765 5 0 0 0 63.891968
1.4926307 5.7864189 1.6660504 4 0 0 0 27.597824
9.5685339 9.0259285 4.2543206 7 0 0 0 36.172287
-6.9774461 -10.417133 1.211247 40 0 0 0 86.380287
1.5900501 5.0344958 -2.5936427 328 0 0 0 30.61248
-6.1604514 -6.5374446 0.13838512 91 0 0 0 87.444733
27.608797 -1.4852246 4.9625182 11 0 0 0 49.213951
26.43927 -9.6231127 0.24202827 14 0 0 0 54.169601
27.238752 -1.5737343 2.8755343 23 0 0 0 52.512257
-3.987633 7.5527129 9.2886305 37 0 0 0 16.768768
25.882669 -10.923429 -1.8503475 18 0 0 0 58.154495
7.9660683 6.1943421 1.2328281 26 0 0 0 36.367359
26.825491 -10.094046 -0.41304433 21 0 0 0 57.467903
9.0433121 5.6015229 0.72471768 181 0 0 0 42.798847
-4.8778563 -27.958799 5.6141758 6 0 0 0 76.5504
27.029221 -13.764333 4.896441 17 0 0 0 54.364674
-12.812664 -1.7234992 1.1416929 63 0 0 0 96.781311
-11.458744 5.7935014 2.2598779 79 0 0 0 6.5269761
23.767904 -23.672539 3.930002 13 0 0 0 64.195839
-34.550789 -4.0049267 6.0491691 5 0 0 0 98.621948
10.506285 -29.774065 12.021181 5 0 0 0 71.484673
24.48564 -28.363173 14.576453 6 0 0 0 63.697407
27.365927 3.0649974 3.2999055 38 0 0 0 49.797119
-13.634832 2.8506682 0.35459083 7 0 0 0 3.605504
-33.316654 -4.9518561 11.15368 14 0 0 0 98.134781
10.80664 -30.751953 6.0008154 7 0 0 0 68.274178
26.360348 -20.431057 0.72990882 8 0 0 0 62.24128
4.6450715 -2.2981303 -1.8486525 390 0 0 0 57.662975
26.932058 -8.5963402 4.864347 10 0 0 0 51.739136
13.286292 4.5990252 -3.4441202 44 0 0 0 45.224705
-32.446743 1.9895171 6.3984675 12 0 0 0 1.65248
-1.5846266 -20.662315 2.9957495 13 0 0 0 74.996994
4.4827342 7.9254451 2.6236134 10 0 0 0 33.147903
-2.5911367 -28.537485 15.796909 5 0 0 0 73.433853
7.4805098 -8.6062746 -0.32612938 36 0 0 0 65.3591
-2.7507968 4.8879867 -2.7498565 181 0 0 0 18.715136
26.829805 5.8419976 -0.18528298 15 0 0 0 46.784
-6.951282 4.8110003 -2.1624341 222 0 0 0 7.885056
9.6701775 9.1473722 5.5974841 13 0 0 0 37.634304
-5.8432441 -2.1762831 -0.90491217 228 0 0 0 91.628548
-4.6713719 6.8085599 -2.7695162 72 0 0 0 13.741568
-12.956351 -6.6132531 3.0807652 5 0 0 0 94.540543
26.838976 4.1092453 -1.6747504 40 0 0 0 47.847424
26.595842 -14.696433 1.8196858 12 0 0 0 55.042561
-4.5874176 4.5407872 -2.4772749 125 0 0 0 14.035968
-35.123463 -7.8197374 6.674911 4 0 0 0 95.420158
31.173294 8.661005 9.4075966 7 0 0 0 47.066624
23.552887 -30.610636 5.5997014 8 0 0 0 61.559551
-5.1540537 -3.4896781 -0.69239932 203 0 0 0 89.395454
6.1143627 -1.1499112 -2.4806786 162 0 0 0 53.485313
-33.655323 -18.098013 7.3713717 5 0 0 0 89.481216
4.4671969 5.3775883 -1.0841072 439 0 0 0 33.246464
9.2710466 8.6359673 2.2908864 12 0 0 0 34.894081
10.104203 -8.005043 -1.1885254 34 0 0 0 57.766655
23.905569 -29.982948 9.5112391 5 0 0 0 61.172993
-13.880262 -25.354305 7.0617709 16 0 0 0 85.016319
14.194684 -6.5651026 -2.2210214 25 0 0 0 55.627007
26.615564 -3.867609 -1.0133853 26 0 0 0 52.512257
-1.5384388 -23.317728 9.5935783 19 0 0 0 74.800896
-34.235855 -2.8502724 8.6686029 11 0 0 0 96.006401
26.71158 -2.867095 -3.2686462 48 0 0 0 50.469631
-6.8710222 -0.78969884 -1.0667078 147 0 0 0 97.06752
6.5731969 -23.993292 3.1263978 9 0 0 0 71.006973
-5.3428698 -9.9125786 0.83330601 33 0 0 0 80.150787
6.0110559 -30.246969 8.6490459 12 0 0 0 72.17408
-15.702972 -10.54844 2.4308164 11 0 0 0 89.481216
-11.400208 5.5523634 0.77316284 62 0 0 0 7.6019201
9.2896051 6.7580366 2.6205895 117 0 0 0 41.431297
27.762951 2.4047048 6.805491 14 0 0 0 46.871807
7.4743738 -2.3672204 -2.231384 178 0 0 0 53.679359
27.137796 -10.961773 10.707709 14 0 0 0 54.262016
12.782463 -0.32431954 -3.402015 28 0 0 0 49.302784
11.52091 6.1555333 2.2724636 161 0 0 0 42.110977
-3.967535 9.2309437 3.8087041 14 0 0 0 19.105791
17.398891 -11.180868 -1.5073735 15 0 0 0 60.872192
-5.9657521 6.7872095 6.3314242 63 0 0 0 13.159424
-3.7195876 2.7484062 -2.19608 247 0 0 0 8.1879044
-5.1494274 -29.871023 9.5604153 13 0 0 0 74.887939
27.731791 -19.330128 11.509039 10 0 0 0 59.613441
-4.5850706 5.3506036 -0.88972449 395 0 0 0 12.381952
-8.3226948 7.9031863 10.106873 38 0 0 0 10.232576
-13.67861 1.3456552 1.3930413 132 0 0 0 98.90432
-14.119346 -5.527904 3.3911905 38 0 0 0 94.540543
3.8487418 -3.1103277 -1.5319997 407 0 0 0 61.066753
-11.249424 -11.162388 2.4171004 85 0 0 0 89.587967
1.149676 5.6816692 0.24024892 527 0 0 0 25.348097
-2.4466262 6.2802749 2.4610622 76 0 0 0 16.575487
-9.9451866 -5.9109426 0.51387882 39 0 0 0 88.807167
-10.513042 -22.22665 4.6767645 4 0 0 0 84.040192
-7.5374389 -30.167192 7.838624 24 0 0 0 77.712387
5.9908013 1.1132463 -2.9604061 173 0 0 0 47.847424
2.3957145 -30.607367 6.8537655 7 0 0 0 75.670784
-2.2511559 7.8264956 -3.5048795 10 0 0 0 17.25312
8.8248167 2.5346961 -3.5708654 62 0 0 0 42.995457
-6.6582532 -7.0761452 0.34827009 67 0 0 0 84.327423
26.812023 -5.1022534 3.2218535 21 0 0 0 51.44397
24.279222 -25.665445 10.250629 6 0 0 0 61.365505
-9.1731672 -15.696555 2.7653482 13 0 0 0 83.844093
7.7337375 -3.5279877 -1.9530798 178 0 0 0 53.975807
-2.7319772 -24.001633 8.5832138 7 0 0 0 75.580673
9.3426046 4.2530398 -3.9511931 32 0 0 0 42.307327
27.628571 -14.529684 10.540391 14 0 0 0 59.224831
27.42598 -11.629989 10.488042 10 0 0 0 56.210945
14.85677 0.73414743 -3.8670454 19 0 0 0 48.139519
11.139509 -2.0787997 -2.8623507 46 0 0 0 54.947071
-34.400093 -6.4764323 10.664122 12 0 0 0 94.346237
-10.755221 -1.5814325 0.034247763 144 0 0 0 95.028481
15.227906 -4.1245389 -2.8732374 18 0 0 0 53.006847
24.084364 -23.416475 3.9440663 10 0 0 0 64.000259
26.550852 -3.7254937 -2.653548 39 0 0 0 54.068226
-1.4299095 -23.475288 8.0631361 25 0 0 0 76.356354
-1.1160794 6.4518919 2.1720276 8 0 0 0 22.714624
-3.2412474 8.2290754 3.5245199 5 0 0 0 18.03392
27.453659 -21.400429 11.772675 6 0 0 0 60.482559
-1.1346928 -10.600087 0.85083079 121 0 0 0 78.594307
16.91025 5.3578191 -0.35225281 39 0 0 0 42.213886
-10.708969 4.3615661 -1.3796294 122 0 0 0 3.0210559
23.9814 -21.848486 0.95218527 14 0 0 0 61.946625
-13.939257 -10.147212 4.841105 28 0 0 0 88.898308
-4.6614599 6.8817992 -2.7857363 53 0 0 0 13.84064
-5.7652068 5.1992483 -0.40086499 295 0 0 0 11.991552
24.107231 -29.507433 9.459548 10 0 0 0 60.978176
26.06296 -12.770638 -1.037233 16 0 0 0 54.364674
1.7714654 -20.045883 2.4465547 12 0 0 0 75.473412
27.110388 -21.869146 8.4064417 13 0 0 0 59.224831
17.524195 -8.1197672 -2.244355 19 0 0 0 58.733826
27.706097 1.0543944 6.6387897 21 0 0 0 47.654144
-34.082951 -5.8370352 6.8983879 6 0 0 0 94.637314
-29.069008 9.2552967 1.4935277 11 0 0 0 3.605504
-34.335758 -5.2947927 12.584187 14 0 0 0 0.39039999
26.628199 -13.020842 4.1158285 17 0 0 0 57.272575
6.9377346 -30.698105 6.9131346 21 0 0 0 73.334274
27.242298 -8.7758999 9.9757986 23 0 0 0 56.406017
-10.612072 -1.0971597 -0.4879427 96 0 0 0 95.704323
27.332605 -9.2682133 11.143817 10 0 0 0 51.639297
14.800098 -5.966733 -2.4069729 24 0 0 0 56.406017
-7.9382405 -29.71279 7.4665914 10 0 0 0 79.566338
-8.7359543 -11.615847 1.7092526 19 0 0 0 84.134659
27.586779 2.3190422 4.6444516 11 0 0 0 50.185471
-9.2485533 -6.9651546 0.67584658 49 0 0 0 91.724541
27.553799 -7.9287043 4.2871151 6 0 0 0 54.456062
0.4402791 -6.2372179 -0.24956802 335 0 0 0 71.006973
9.3923311 8.8767853 3.0154409 10 0 0 0 34.700542
7.381948 5.6983404 -2.1010501 34 0 0 0 41.627392
-33.088814 2.4492965 10.109918 4 0 0 0 2.142976
27.566038 -18.532747 12.91969 8 0 0 0 60.978176
3.3806639 0.24215537 -2.5451701 244 0 0 0 46.200832
27.308525 -4.3776088 8.7169399 21 0 0 0 52.319744
-33.968498 -5.6227636 6.4067688 6 0 0 0 96.289284
-7.293786 7.1003485 7.0236554 32 0 0 0 11.991552
9.9937124 -30.982176 5.4210286 8 0 0 0 71.874306
11.682391 -2.2873557 -2.848284 40 0 0 0 53.485313
25.459843 -22.040785 9.4957991 7 0 0 0 61.365505
-10.607403 6.5081682 6.0928407 54 0 0 0 11.600384
6.3783259 6.0096154 1.4867822 74 0 0 0 36.367359
11.725597 6.9298577 5.1745925 22 0 0 0 42.798847
23.747824 -29.729845 7.0151525 6 0 0 0 62.825729
13.4796 -12.245684 -0.84655344 16 0 0 0 58.834946
13.779128 5.2445436 -0.77685565 68 0 0 0 46.004223
-0.49220446 6.0270433 -0.46798262 317 0 0 0 24.075264
-14.188705 -9.6341019 6.513381 5 0 0 0 91.046143
10.455496 -10.243094 -0.68338472 21 0 0 0 59.41888
11.90794 5.8455787 1.7725821 77 0 0 0 41.135872
-6.9942269 -1.0130849 -1.0115056 168 0 0 0 95.028481
-33.891788 -3.9095705 9.9010468 18 0 0 0 97.06752
-13.348967 -18.31448 4.473659 15 0 0 0 87.055359
5.2915397 5.6060247 -2.3018434 86 0 0 0 37.634304
8.2932959 2.4315243 -3.4583242 68 0 0 0 44.543999
8.6957779 3.0847473 -3.6377716 56 0 0 0 43.666176
-0.78868079 -23.823114 10.729858 7 0 0 0 77.619453
6.5675654 -30.873186 6.2389007 13 0 0 0 68.766464
26.959465 -3.7534106 4.688633 21 0 0 0 50.569729
11.327311 -7.0708032 -1.6053362 37 0 0 0 60.677631
9.528759 2.2499924 -3.5636666 51 0 0 0 46.975231
11.645235 7.0113926 6.1652308 16 0 0 0 40.941566
-11.818797 6.8290796 4.6435256 21 0 0 0 7.6889601
27.557272 -4.8198709 7.2839193 4 0 0 0 52.617214
0.57108927 -23.88307 9.2903299 13 0 0 0 76.646652
26.830376 0.50083095 -2.3256962 43 0 0 0 51.545345
-33.595829 -5.0929818 8.5545883 9 0 0 0 94.928894
-31.18243 6.1553817 2.1612616 8 0 0 0 3.4122241
-7.7091699 3.4468246 -1.906216 93 0 0 0 4.9722881
-7.3195934 -8.0685577 0.68433273 44 0 0 0 87.154175
10.048312 2.1911194 -3.6093922 46 0 0 0 45.613823
27.385527 -5.4404526 11.103427 10 0 0 0 49.496319
12.777664 -7.1122894 -1.9797162 20 0 0 0 55.236862
8.3953495 6.0954733 -3.3259933 26 0 0 0 40.646145
26.343214 -21.194275 0.72049773 6 0 0 0 62.532097
-1.1084907 -30.703112 6.277854 10 0 0 0 72.753662
-6.4956179 -8.9582129 0.76071042 58 0 0 0 83.844093
6.850945 -7.0602846 -0.6437608 51 0 0 0 62.922241
5.6051731 1.2064186 -2.9675746 179 0 0 0 44.05632
24.609348 -23.693413 13.764745 5 0 0 0 60.482559
32.267376 -51.860466 8.0946732 21 0 0 0 64.776703
-33.774441 -4.201149 10.602356 5 0 0 0 0.67660803
-2.0522289 8.0046682 -3.5574541 17 0 0 0 17.742592
-5.5447969 -29.048025 13.494117 7 0 0 0 80.150787
17.342619 6.918118 4.9162583 14 0 0 0 43.770882
-9.0966005 2.0548987 -1.4262536 58 0 0 0 1.9496959
23.825605 -28.624151 6.5006752 8 0 0 0 64.086014
13.344242 0.52371222 -3.6540003 24 0 0 0 49.882626
-13.578472 1.3471819 2.0638797 8 0 0 0 98.90432
9.0795288 -29.580706 11.045215 21 0 0 0 67.211266
26.74774 -18.429653 3.9708202 9 0 0 0 61.263615
4.951746 -30.257318 6.7769041 15 0 0 0 74.306557
27.235567 -16.260275 7.5002069 19 0 0 0 58.540543
23.547516 -24.735765 3.3270252 11 0 0 0 59.90144
11.034721 -6.0570283 -1.819042 43 0 0 0 56.690434
-4.4007773 -29.247736 11.913234 12 0 0 0 77.815292
-0.97650182 -9.5366516 0.57163453 127 0 0 0 73.823997
14.314227 4.6831985 -3.3316045 31 0 0 0 42.307327
14.193804 4.3351898 -4.5020633 43 0 0 0 45.900799
11.312554 5.3178086 -0.2064674 82 0 0 0 41.627392
-9.3247709 4.3933125 -1.9359447 35 0 0 0 6.91328
27.102171 -21.654549 12.120651 6 0 0 0 59.030018
24.145506 -4.0701942 -3.3834815 26 0 0 0 53.006847
27.349424 -14.725419 7.767096 21 0 0 0 56.210945
-3.0667329 -27.883644 8.1307716 7 0 0 0 77.132545
26.919962 -8.2531166 4.8655968 12 0 0 0 51.545345
11.673729 6.1163673 2.7836225 83 0 0 0 43.770882
-9.8846817 4.602282 -1.9087259 29 0 0 0 5.2590079
16.623482 7.1500506 8.7210083 13 0 0 0 44.735744
17.022793 4.868516 -2.1728442 31 0 0 0 42.798847
-29.765451 5.3933806 2.3817272 9 0 0 0 1.65248
-33.668789 -5.7827797 8.103961 11 0 0 0 96.200195
-37.078728 -6.1320477 10.890534 8 0 0 0 96.289284
-4.8291574 7.545105 10.387711 16 0 0 0 17.549313
18.603863 6.9533691 7.0936055 20 0 0 0 45.613823
-33.091171 2.8566871 10.192868 13 0 0 0 2.336
-0.7778011 5.8566689 1.036062 702 0 0 0 23.296768
26.886541 -4.4985981 4.3065734 22 0 0 0 52.617214
-3.5718904 8.4267969 5.7569461 12 0 0 0 19.4048
-6.9836621 7.2763281 7.7833643 28 0 0 0 12.576
9.7638388 1.8764101 -3.5134904 48 0 0 0 46.004223
26.514814 -21.256519 3.0622113 13 0 0 0 59.317249
-3.5766497 8.4314528 4.3591104 5 0 0 0 16.079359
27.389795 -4.9951906 9.9855795 8 0 0 0 54.262016
-32.87991 3.0555153 4.9491887 10 0 0 0 98.815231
10.609138 6.3948145 4.0334387 57 0 0 0 42.694912
26.411623 -20.016195 1.0566897 10 0 0 0 60.482559
27.04912 -19.016863 4.701745 16 0 0 0 58.248959
-8.7510166 6.2828636 3.0734215 119 0 0 0 10.716416
26.098341 -5.8240352 -2.4647863 17 0 0 0 53.78355
-1.9912149 6.8111734 -2.7202818 7 0 0 0 19.015936
26.873268 -5.6101036 3.9600446 27 0 0 0 54.845695
-3.7031682 5.8397698 -0.33671701 100 0 0 0 17.938433
-8.280365 -4.5145311 -0.024502097 80 0 0 0 89.395454
-6.4955788 -30.324133 7.2238297 13 0 0 0 80.344833
-14.06549 -5.5026488 2.449332 4 0 0 0 96.093697
-29.90345 5.0314455 1.5474591 9 0 0 0 4.4753919
8.1113834 -4.0535192 -1.8352386 163 0 0 0 57.662975
-1.763558 -5.5509844 -0.32768622 326 0 0 0 81.806084
-1.419506 -28.080482 16.858122 8 0 0 0 74.500351
24.4079 -22.846033 12.076669 5 0 0 0 58.64064
16.635853 7.0521579 7.065465 21 0 0 0 41.627392
13.315521 5.103301 -1.9734286 63 0 0 0 44.543999
-3.6563039 6.0062981 -0.12026221 72 0 0 0 15.106304
2.0173702 11.322158 -3.9512219 14 0 0 0 26.618879
-34.277966 -2.1859207 5.6086087 11 0 0 0 1.170176
8.21101 5.6559858 0.023927066 147 0 0 0 38.999809
9.7672443 -7.838913 -1.1556833 58 0 0 0 57.85677
26.953068 -9.6161966 -0.066570893 11 0 0 0 55.627007
24.618946 -23.294092 14.193518 6 0 0 0 58.64064
7.7477336 -30.408623 7.8055444 8 0 0 0 68.077827
26.828671 -0.4560107 -0.74043024 33 0 0 0 50.469631
-10.833863 5.1073112 -0.893125 93 0 0 0 5.552896
17.192001 6.012104 2.1640882 53 0 0 0 43.082241
27.289749 -13.743158 7.3393092 13 0 0 0 57.378559
-8.4443188 2.1151121 -1.5413415 96 0 0 0 5.4548478
9.2150555 4.9617367 -1.9926635 129 0 0 0 44.155136
-33.890324 6.5403538 11.214862 5 0 0 0 3.997952
11.143074 -30.933765 5.7310605 16 0 0 0 69.737724
-1.944888 5.1222577 -2.0143487 637 0 0 0 16.079359
0.69389719 5.2365866 -3.0188537 24 0 0 0 29.636353
27.270203 -18.890381 8.548171 6 0 0 0 56.406017
-34.655178 -6.828896 10.22689 8 0 0 0 95.810303
27.400194 6.0255055 2.9397581 19 0 0 0 45.030144
5.7944646 -30.862103 6.2225237 21 0 0 0 69.155586
24.273836 -27.621531 10.244212 6 0 0 0 63.609089
-3.8758264 -5.9873567 -0.12896274 254 0 0 0 81.417473
-6.9932804 0.68145341 -1.3779002 187 0 0 0 3.1160319
-17.947519 -19.876781 8.7459288 1578 0 0 0 85.60154
26.921053 4.4381361 -1.3118718 22 0 0 0 46.094082
9.4672899 9.1516676 3.8878736 12 0 0 0 39.194366
8.201869 -1.4647644 -2.6612906 81 0 0 0 50.079742
-0.23862231 -10.299871 0.98302704 69 0 0 0 74.112259
-8.7486525 -12.384545 1.932647 30 0 0 0 82.091263
23.936785 -23.542231 4.9746623 10 0 0 0 59.317249
5.7320189 -5.6245742 -1.1393666 241 0 0 0 59.41888
27.383492 -7.8677001 8.4178381 12 0 0 0 55.91296
-32.713741 4.7413044 8.6998539 14 0 0 0 3.1160319
11.747571 1.26355 -3.6302218 31 0 0 0 47.261696
13.582987 -10.469785 -1.2868439 22 0 0 0 62.24128
26.862955 -17.020424 4.590529 14 0 0 0 57.467903
-33.883991 -3.3845265 10.764227 15 0 0 0 1.067008
16.599081 7.3960471 8.2188005 18 0 0 0 41.236225
-33.991207 -3.2073643 10.434709 6 0 0 0 95.810303
27.599167 -14.379498 11.66712 9 0 0 0 54.169601
27.443359 -0.25360599 4.6901565 24 0 0 0 50.079742
-10.731405 -22.525311 5.2116213 14 0 0 0 80.924927
15.200439 7.375576 7.2175918 50 0 0 0 44.05632
24.298992 -22.945913 6.6753554 16 0 0 0 58.928898
-11.829043 -10.109881 1.7856628 10 0 0 0 89.199615
27.440285 -18.967081 10.400419 10 0 0 0 56.301567
-4.2272372 -2.9527245 -0.94872606 314 0 0 0 92.302849
-10.088426 6.339848 4.4459262 80 0 0 0 11.496704
-3.6211555 7.6704731 7.1540422 60 0 0 0 20.770817
-5.9395456 -9.2089767 0.7308346 49 0 0 0 82.971901
27.260107 -8.4243965 9.9691877 19 0 0 0 56.210945
0.89613456 -6.1456156 -0.13451511 47 0 0 0 74.500351
8.6729116 5.0868354 -2.4052007 245 0 0 0 43.666176
2.3900814 7.8637452 2.9846463 8 0 0 0 29.733631
8.303937 -5.6278238 -1.4776613 101 0 0 0 58.154495
-12.5023 6.6953835 5.9555607 34 0 0 0 10.523392
27.009567 -19.259756 6.0213571 12 0 0 0 59.90144
24.189026 -25.941097 8.8602266 12 0 0 0 59.90144
-4.5375123 5.2581306 -0.28198281 458 0 0 0 14.035968
-6.3383317 -8.5192509 0.63197625 63 0 0 0 85.60154
24.726004 -22.245821 9.0789652 11 0 0 0 63.309826
10.054885 3.6622269 -3.9601433 26 0 0 0 46.784
-33.129932 4.4332719 4.8693581 7 0 0 0 4.1935358
9.4699459 -5.4285951 -1.7010565 99 0 0 0 58.540543
27.058445 -2.3571818 9.0946007 8 0 0 0 49.496319
27.385155 -10.273188 7.2161379 18 0 0 0 55.627007
-2.6303623 -11.054966 1.0537218 87 0 0 0 79.075073
0.066129461 6.1595049 2.2411158 318 0 0 0 22.324736
-2.5233891 -8.1252518 0.40755981 219 0 0 0 80.150787
12.588 6.5798507 4.5121078 37 0 0 0 43.666176
26.780792 1.4393042 -1.5638266 46 0 0 0 47.847424
-4.3994198 -29.008085 12.57064 6 0 0 0 74.500351
-21.710707 -13.097758 4.5513144 20 0 0 0 90.265602
13.803517 6.0300999 1.3840938 33 0 0 0 40.359425
4.1051645 6.3115425 -2.5291214 62 0 0 0 34.804993
27.753714 0.91532475 8.1045523 13 0 0 0 47.654144
10.639642 5.0333519 -2.7382257 44 0 0 0 43.470337
12.590077 4.8818831 -2.8992436 55 0 0 0 41.431297
27.43544 -9.8749247 8.483736 7 0 0 0 56.98893
15.907992 -0.26211131 -3.8393149 16 0 0 0 52.319744
-34.218391 -1.6185119 6.8675799 10 0 0 0 96.586754
-29.352156 8.7307816 0.28383383 16 0 0 0 1.65248
-34.267105 -2.475173 8.1698933 5 0 0 0 97.748993
26.828173 -11.187066 5.3175678 13 0 0 0 57.85677
27.127115 -16.75839 6.6359153 5 0 0 0 55.627007
1.9581228 11.551697 -3.1449492 20 0 0 0 29.733631
11.3253 -30.052889 9.6624384 9 0 0 0 66.233856
-6.7710104 -29.404861 11.273788 12 0 0 0 75.773438
9.4123764 8.1685352 4.1970601 7 0 0 0 35.198208
-7.5589843 7.9102426 9.3549948 9 0 0 0 12.665088
-7.1523862 -12.048791 1.5894736 20 0 0 0 82.389503
-32.387383 2.8385811 6.1569362 8 0 0 0 3.605504
-12.385632 6.7370467 6.1256514 50 0 0 0 9.0590715
-4.0100904 5.3660312 -2.3615355 177 0 0 0 14.817024
26.755966 3.289933 -2.095185 24 0 0 0 49.882626
-32.613506 2.3783309 5.2573876 19 0 0 0 0.19584
16.459585 -1.2665772 -3.6207926 17 0 0 0 50.079742
24.294365 7.5324807 1.3009111 23 0 0 0 45.319935
11.571746 4.576272 -3.4747415 73 0 0 0 42.995457
14.207784 -0.85444516 -3.478271 22 0 0 0 53.006847
27.136497 6.9663978 3.7247651 20 0 0 0 47.556351
26.635859 -4.7926288 1.8785493 31 0 0 0 51.349503
-9.4094534 7.6893373 9.8610106 27 0 0 0 12.576
25.316277 -23.161852 5.119905 8 0 0 0 58.733826
27.044268 -11.730881 7.9325571 19 0 0 0 53.201664
-2.7127542 3.3120778 -2.4445009 158 0 0 0 10.329856
-8.2131348 6.6091986 5.5017643 76 0 0 0 11.991552
-5.5235858 7.561439 11.12669 7 0 0 0 14.817024
26.464024 -20.105701 1.7656763 8 0 0 0 57.378559
-10.694553 6.2233162 3.7563858 90 0 0 0 6.1363201
26.818821 -8.0889931 5.3019543 31 0 0 0 56.210945
-13.133194 -14.668385 3.5784783 20 0 0 0 83.942146
6.3832946 -6.0870824 -1.092235 165 0 0 0 63.891968
-6.9956875 -29.45896 10.900612 10 0 0 0 77.518333
0.35360545 8.0392418 3.0431728 7 0 0 0 25.93536
1.9814694 19.453581 -4.1631765 21 0 0 0 28.570112
-2.0887589 6.501905 -3.1618295 15 0 0 0 20.276224
-12.717196 5.5849805 1.264985 71 0 0 0 8.5762558
0.94167781 8.146349 3.0712426 8 0 0 0 27.012352
-1.8658708 6.585701 -3.1692128 66 0 0 0 20.859903
26.719759 -1.921818 -0.85992438 24 0 0 0 51.349503
27.121319 -2.8895812 2.7704499 21 0 0 0 53.290497
3.8881204 -26.000807 8.8361511 9 0 0 0 72.946686
17.162315 6.9199967 7.1902032 23 0 0 0 41.916416
26.957031 -6.2631345 2.8640065 6 0 0 0 53.679359
-10.682326 -22.776447 5.2482133 20 0 0 0 80.83123
-0.30544829 -30.325691 5.8242822 8 0 0 0 73.917442
10.083427 5.8868551 1.9332442 101 0 0 0 43.082241
-35.049683 -8.0089245 7.1455359 10 0 0 0 93.763329
27.329973 3.7447395 3.0406361 18 0 0 0 44.735744
24.144604 -23.036968 7.331502 14 0 0 0 63.80595
26.97978 -22.197449 5.9407907 9 0 0 0 62.630657
-11.019142 6.7154803 5.5254884 43 0 0 0 11.405568
-2.8733871 2.8059483 -2.3252466 239 0 0 0 8.4733438
26.697313 -18.467827 3.391593 19 0 0 0 56.600574
-1.1202803 3.2702346 -2.6108406 146 0 0 0 20.186111
11.099079 7.0276785 7.9337878 23 0 0 0 38.700542
15.850149 6.1683731 3.1980567 22 0 0 0 40.842751
-29.984203 4.1292219 2.1755211 7 0 0 0 0.97587198
-4.1225982 -28.346704 5.9655652 10 0 0 0 74.500351
4.3311825 5.5215564 -0.54847038 496 0 0 0 35.873024
13.193316 2.3399477 -4.0333576 29 0 0 0 46.200832
-7.0511189 3.6941521 -2.049567 100 0 0 0 4.2808318
-9.7566338 -2.9306209 -0.22046962 58 0 0 0 95.810303
22.603617 -18.635883 0.079364538 25 0 0 0 58.052353
1.5469841 -23.550472 9.3235798 9 0 0 0 74.306557
27.521402 3.6644545 4.7819958 20 0 0 0 49.408512
14.741492 1.3151242 -3.9888387 28 0 0 0 49.10976
25.487558 -21.02578 13.407128 5 0 0 0 59.224831
27.137526 -13.053802 6.0519991 15 0 0 0 55.526142
27.694891 -0.64713222 7.5715847 11 0 0 0 50.185471
24.174282 2.0451112 -5.0031538 24 0 0 0 47.556351
-0.61424708 -30.530994 7.1451402 9 0 0 0 75.670784
15.765418 4.3809991 -4.3908091 32 0 0 0 47.847424
-33.822384 -1.3148259 10.356118 10 0 0 0 96.67942
27.685133 -1.2565558 7.8768668 13 0 0 0 48.917759
9.9729795 4.2508817 -4.0693135 41 0 0 0 41.038849
-13.023625 -20.859299 5.0013762 22 0 0 0 84.327423
26.664396 -21.052395 13.114371 6 0 0 0 62.24128
26.525116 -19.900669 1.7693435 9 0 0 0 57.272575
-14.238724 -10.063993 4.2189636 8 0 0 0 87.539459
7.0639811 2.1287899 -3.2918775 98 0 0 0 42.798847
-9.6352882 5.6790147 1.7691878 141 0 0 0 10.625024
-3.1328268 -24.790668 9.8532944 15 0 0 0 79.075073
26.690262 2.7870765 -2.1289425 13 0 0 0 50.185471
8.5398016 -0.5472849 -2.8658059 95 0 0 0 51.545345
-1.3721751 -4.092802 -0.77585894 617 0 0 0 78.877693
-9.1049109 6.8773804 5.0380936 15 0 0 0 12.964864
5.3361282 -4.9525409 -1.2534258 289 0 0 0 63.697407
-7.537199 6.1968174 3.7205043 138 0 0 0 8.7708158
9.6612778 -29.544342 11.846141 5 0 0 0 71.874306
5.5005918 5.8479648 0.89732879 319 0 0 0 37.04755
27.232197 -19.593166 8.6160898 10 0 0 0 56.690434
23.918024 -21.761225 0.63875097 8 0 0 0 63.504639
-8.236639 -2.5284691 -0.50038189 83 0 0 0 94.152962
12.204823 -30.16188 8.7686806 11 0 0 0 70.709503
-13.536727 -19.463573 5.1138563 12 0 0 0 83.554817
29.004789 5.8099303 8.0163145 9 0 0 0 43.470337
26.760944 -14.615062 2.6536031 17 0 0 0 58.052353
25.869413 -11.138804 -1.2335254 27 0 0 0 55.139584
-34.005375 -1.6122285 9.8885355 11 0 0 0 98.134781
-33.708122 -5.7875957 9.9116716 7 0 0 0 96.200195
-1.1359622 3.4226475 -2.6267233 197 0 0 0 18.327553
-12.820635 11.299783 -0.78661567 16 0 0 0 10.036992
9.2937984 5.3292141 -0.37579948 121 0 0 0 43.470337
26.98908 5.2155252 -0.60284579 30 0 0 0 48.72448
-34.855228 -7.2945151 7.0868564 10 0 0 0 94.053635
7.471704 5.8506765 -1.3418517 55 0 0 0 38.222591
26.628597 -6.8024869 1.7622062 29 0 0 0 52.512257
-5.8611398 7.3802309 9.7428665 38 0 0 0 15.993344
1.4598945 5.3674908 -2.6053677 194 0 0 0 28.179199
-3.5026789 -1.4681753 -1.3767515 419 0 0 0 92.495872
27.295769 1.2228165 3.1124961 26 0 0 0 50.858753
16.189543 7.3636546 7.7703819 24 0 0 0 42.798847
-13.912964 -10.077156 5.0600524 33 0 0 0 87.346436
-4.6984015 -8.9706469 0.64263719 117 0 0 0 81.507072
13.797785 -28.141516 3.5951157 14 0 0 0 69.543427
-12.688626 6.2917233 4.1545863 54 0 0 0 5.0626559
-31.477579 -5.0108361 4.7507992 11 0 0 0 94.83213
-8.128706 -1.8100303 -0.6782226 107 0 0 0 98.516228
1.9014852 -4.6356392 -0.95656693 385 0 0 0 65.843712
-13.598177 1.4029171 1.6502548 55 0 0 0 0.67660803
9.8577414 3.4526763 -3.8778164 41 0 0 0 46.975231
26.78348 -11.739104 5.3200555 13 0 0 0 58.154495
12.639008 4.2226858 -4.37784 33 0 0 0 42.307327
24.54665 -22.212154 10.140098 8 0 0 0 58.444031
27.603441 5.6345119 3.952466 18 0 0 0 46.784
5.3261762 -30.654177 7.110662 17 0 0 0 72.561409
27.254959 2.9592814 2.2458658 21 0 0 0 48.334591
-7.8518047 -10.847373 1.433548 38 0 0 0 85.404671
27.208443 -20.64031 8.282279 8 0 0 0 58.733826
